ply
format ascii 1.0
element vertex 665
property float x
property float y
property float z
property uchar red
property uchar green
property uchar blue
end_header
0.15855923295021057 0.22774925827980042 0.06386011838912964 242 132 75
0.14909611642360687 0.2048315852880478 0.08178331702947617 240 129 77
0.1350260078907013 0.190041646361351 0.10806459188461304 239 125 79
0.13167601823806763 0.18623432517051697 0.11713717132806778 233 114 87
0.1385631561279297 0.16614776849746704 0.11587154865264893 224 100 97
0.13807378709316254 0.16052214801311493 0.13114017248153687 223 98 98
0.13374151289463043 0.14229220151901245 0.1264219582080841 223 97 99
0.1329205483198166 0.1387745440006256 0.12730620801448822 222 96 100
0.12406910955905914 0.14595641195774078 0.14555712044239044 220 94 102
0.1079387441277504 0.153769850730896 0.15448080003261566 214 85 109
0.10327586531639099 0.16619974374771118 0.1563187688589096 209 79 113
0.1113462895154953 0.16392700374126434 0.161662757396698 205 73 117
0.12493851780891418 0.1620369851589203 0.15413981676101685 200 68 122
0.12768809497356415 0.16327610611915588 0.15628008544445038 187 53 134
0.12621024250984192 0.1458556354045868 0.15813025832176208 180 45 141
0.1277175396680832 0.15382353961467743 0.13498999178409576 180 45 141
0.12385090440511703 0.150710329413414 0.11749104410409927 174 39 145
0.10800720751285553 0.16250474750995636 0.12178714573383331 162 28 154
0.08424288034439087 0.15565668046474457 0.11369099467992783 157 24 157
0.1194515973329544 0.14737455546855927 0.08264182507991791 167 33 151
0.1053713858127594 0.14694485068321228 0.07629469782114029 173 38 146
0.10302344709634781 0.12553423643112183 0.07117830961942673 176 42 143
0.09762464463710785 0.11799273639917374 0.043044596910476685 178 44 142
0.0664825290441513 0.12639959156513214 0.01184180099517107 178 44 142
0.06221294030547142 0.1174343153834343 -0.01559709757566452 178 44 142
0.06480737030506134 0.11572599411010742 -0.03289823606610298 174 39 145
0.06471181660890579 0.11566012352705002 -0.047072634100914 175 40 144
0.05087754875421524 0.11323237419128418 -0.10617651790380478 178 44 142
0.05409970134496689 0.08990100771188736 -0.18217016756534576 175 40 144
0.014323676005005836 0.07004106044769287 -0.24689140915870667 174 39 145
-0.019848665222525597 0.010198475793004036 -0.28988155722618103 172 37 147
-0.05684454366564751 -0.021056700497865677 -0.3258838653564453 173 38 146
-0.0805981308221817 -0.01834990084171295 -0.3486867845058441 174 39 145
-0.09170837700366974 -0.022759882733225822 -0.3357601463794708 174 39 145
-0.11229115724563599 -0.023281600326299667 -0.31607070565223694 175 40 144
-0.10926413536071777 -0.04457865655422211 -0.3176358640193939 175 40 144
-0.10814278572797775 -0.04776537045836449 -0.3243858218193054 178 44 142
-0.10933142155408859 -0.05869483947753906 -0.32610273361206055 177 43 143
-0.11264542490243912 -0.0759776309132576 -0.32367444038391113 174 39 145
-0.13515041768550873 -0.09211352467536926 -0.32912948727607727 173 38 146
-0.14503192901611328 -0.10147830843925476 -0.33893051743507385 174 39 145
-0.15606467425823212 -0.11571942269802094 -0.3297562897205353 173 38 146
-0.15818816423416138 -0.10737431049346924 -0.327539324760437 176 42 143
-0.17031370103359222 -0.11582453548908234 -0.3304188549518585 176 42 143
-0.16389180719852448 -0.11094553023576736 -0.3330485224723816 175 40 144
-0.16574306786060333 -0.10586077719926834 -0.3374798893928528 177 43 143
-0.16373983025550842 -0.11472567915916443 -0.34052935242652893 177 43 143
-0.1689223051071167 -0.10462136566638947 -0.33645549416542053 177 43 143
-0.1563180685043335 -0.10432909429073334 -0.3370916247367859 178 44 142
-0.16202989220619202 -0.09652623534202576 -0.3327156901359558 180 45 141
-0.1535981148481369 -0.09790634363889694 -0.33990442752838135 176 42 143
-0.1420733779668808 -0.10525909066200256 -0.33477169275283813 176 42 143
-0.14216113090515137 -0.1076483502984047 -0.33396703004837036 176 42 143
-0.14142760634422302 -0.09902309626340866 -0.3409768342971802 176 42 143
-0.14009162783622742 -0.09509759396314621 -0.3393198251724243 177 43 143
-0.13705353438854218 -0.09708207845687866 -0.33616551756858826 182 47 139
-0.14402718842029572 -0.09676007181406021 -0.3339500427246094 181 46 140
-0.14087605476379395 -0.09187095612287521 -0.32372570037841797 185 51 136
-0.1542593091726303 -0.08984924852848053 -0.3257784843444824 188 54 133
-0.15388323366641998 -0.10024336725473404 -0.31672942638397217 193 60 128
-0.16106738150119781 -0.10318712145090103 -0.3060760498046875 198 65 124
-0.16246697306632996 -0.09829249978065491 -0.3040175437927246 205 73 117
-0.15716908872127533 -0.09953052550554276 -0.29755091667175293 211 81 111
-0.1553209125995636 -0.09756486117839813 -0.2907520830631256 215 86 108
-0.1567389965057373 -0.10082773864269257 -0.29283055663108826 215 86 108
-0.15506288409233093 -0.10798212140798569 -0.2839602828025818 221 95 101
-0.17858660221099854 -0.11523992568254471 -0.2704218924045563 223 97 99
-0.20407217741012573 -0.11901324987411499 -0.25504180788993835 222 96 100
-0.219333216547966 -0.13236401975154877 -0.2216944545507431 212 82 110
-0.23616892099380493 -0.13715922832489014 -0.17189745604991913 207 75 116
-0.24133864045143127 -0.16968174278736115 -0.1500174105167389 209 79 113
-0.2438233494758606 -0.17920400202274323 -0.1317681223154068 215 87 107
-0.24288490414619446 -0.17602446675300598 -0.10047375410795212 220 93 102
-0.25615572929382324 -0.18092332780361176 -0.06147013604640961 222 96 100
-0.24725432693958282 -0.17692257463932037 -0.048732005059719086 224 100 97
-0.25968316197395325 -0.17749947309494019 -0.032196417450904846 229 107 92
-0.23798854649066925 -0.17861023545265198 -0.024594811722636223 232 113 88
-0.23650194704532623 -0.17706267535686493 -0.03897702693939209 232 112 89
-0.211945578455925 -0.18145199120044708 -0.07857324928045273 228 106 93
-0.22714893519878387 -0.17424580454826355 -0.10159136354923248 227 104 94
-0.23075523972511292 -0.18071845173835754 -0.13658224046230316 227 103 95
-0.22577986121177673 -0.16654358804225922 -0.10500245541334152 225 101 96
-0.2491597682237625 -0.1337689608335495 -0.0618816576898098 225 101 96
-0.2764889895915985 -0.13371847569942474 -0.025611409917473793 226 102 96
-0.21304219961166382 -0.14223848283290863 -0.051548369228839874 226 102 96
-0.19941222667694092 -0.15185928344726562 -0.06297621130943298 223 97 99
-0.20117294788360596 -0.16626764833927155 -0.057025566697120667 225 101 96
-0.18900997936725616 -0.16727444529533386 -0.09030421823263168 227 104 94
-0.20245276391506195 -0.18495766818523407 -0.11204612255096436 227 104 94
-0.20917537808418274 -0.15184009075164795 -0.11581863462924957 226 102 96
-0.20956270396709442 -0.16146710515022278 -0.08628993481397629 227 104 94
-0.2296697348356247 -0.16610537469387054 -0.04245477914810181 224 100 97
-0.21283017098903656 -0.20020896196365356 -0.022034339606761932 228 106 93
-0.1851339340209961 -0.2192128449678421 0.008437070995569229 227 103 95
-0.19055937230587006 -0.19570569694042206 0.011316893622279167 225 101 96
-0.17066188156604767 -0.23058001697063446 0.021885408088564873 225 101 96
-0.16055481135845184 -0.2587023079395294 0.041365932673215866 225 101 96
-0.1516088992357254 -0.2784167528152466 0.02896144799888134 227 104 94
-0.19027487933635712 -0.2801879644393921 -0.0016006350051611662 227 104 94
-0.20344358682632446 -0.30245283246040344 -0.02441004291176796 225 101 96
-0.2227686196565628 -0.30200305581092834 -0.020236454904079437 227 104 94
-0.23907425999641418 -0.28532490134239197 -0.03132371976971626 225 101 96
-0.23847782611846924 -0.30643823742866516 -0.03166459873318672 227 103 95
-0.21955370903015137 -0.3093442916870117 -0.03158837929368019 228 106 93
-0.22445030510425568 -0.302522212266922 -0.024252796545624733 226 102 96
-0.23753070831298828 -0.29855337738990784 -0.039098817855119705 224 100 97
-0.24135833978652954 -0.29820194840431213 -0.04380106180906296 226 102 96
-0.24175433814525604 -0.3108830153942108 -0.035008519887924194 227 104 94
-0.24190393090248108 -0.3167983889579773 -0.004588433541357517 223 98 98
-0.24866989254951477 -0.30556440353393555 0.007258871104568243 225 101 96
-0.24661403894424438 -0.30544397234916687 0.02496025711297989 226 102 96
-0.23277989029884338 -0.30180662870407104 0.030935978516936302 225 101 96
-0.2354266494512558 -0.3078485131263733 0.021472210064530373 227 103 95
-0.2490726113319397 -0.3198159337043762 -0.010227340273559093 228 106 93
-0.25362229347229004 -0.31830108165740967 -0.008280407637357712 225 101 96
-0.23059958219528198 -0.3108823895454407 -0.008588021621108055 224 100 97
-0.21493929624557495 -0.3124333918094635 0.018335353583097458 225 101 96
-0.21923759579658508 -0.32091856002807617 0.027415385469794273 225 101 96
-0.23023414611816406 -0.3153775930404663 0.0462452732026577 223 98 98
-0.2158525139093399 -0.3216345012187958 0.048393893986940384 227 103 95
-0.2105938196182251 -0.33520206809043884 0.0621006153523922 226 102 96
-0.2273983359336853 -0.32659274339675903 0.07495883107185364 224 100 97
-0.2074195146560669 -0.3154571056365967 0.08420911431312561 226 102 96
-0.18791139125823975 -0.3261028826236725 0.09235310554504395 226 102 96
-0.19585606455802917 -0.324118971824646 0.1232936829328537 225 101 96
-0.1929408311843872 -0.31724071502685547 0.14493493735790253 224 100 97
-0.16488006711006165 -0.33397766947746277 0.16728375852108002 221 95 101
-0.15317179262638092 -0.3293071687221527 0.1816674768924713 222 96 100
-0.1651700884103775 -0.3353034555912018 0.15170502662658691 220 94 102
-0.1657940000295639 -0.3468511700630188 0.15039415657520294 223 98 98
-0.1542038917541504 -0.33817344903945923 0.16012173891067505 223 98 98
-0.16518275439739227 -0.3419078588485718 0.1604047566652298 224 100 97
-0.18279191851615906 -0.33143311738967896 0.1583368331193924 222 96 100
-0.1761561781167984 -0.3153962790966034 0.16113057732582092 220 93 102
-0.1716175079345703 -0.3151301145553589 0.16280822455883026 220 93 102
-0.18383798003196716 -0.34077930450439453 0.15216664969921112 217 89 105
-0.1897379755973816 -0.34104374051094055 0.13501544296741486 213 83 109
-0.20528915524482727 -0.3229798674583435 0.09996730834245682 209 79 113
-0.22107607126235962 -0.30390575528144836 0.0692136362195015 209 78 114
-0.21136771142482758 -0.32414132356643677 0.06583980470895767 207 75 116
-0.2099178582429886 -0.33240416646003723 0.05911817401647568 207 75 116
-0.22367073595523834 -0.3131730556488037 0.05476858466863632 205 73 117
-0.2127840667963028 -0.3119097352027893 0.05929786339402199 203 71 119
-0.1993449330329895 -0.3119262754917145 0.10226771980524063 200 68 122
-0.20731377601623535 -0.32346391677856445 0.09596936404705048 202 70 120
-0.2221798598766327 -0.32641351222991943 0.0654359832406044 203 71 119
-0.21248623728752136 -0.30191293358802795 0.057974446564912796 201 69 121
-0.19798070192337036 -0.2999344766139984 0.03819510340690613 199 66 123
-0.1897711306810379 -0.31376224756240845 0.012484939768910408 201 69 121
-0.20500871539115906 -0.3180800676345825 -0.0056062182411551476 200 68 122
-0.2034338116645813 -0.3150896430015564 -0.0105513921007514 206 74 117
-0.22721163928508759 -0.3083309829235077 -0.003189368173480034 207 75 116
-0.24772688746452332 -0.30661240220069885 -0.01113671064376831 210 80 112
-0.23966369032859802 -0.30812275409698486 -0.020759601145982742 214 85 109
-0.25099366903305054 -0.3153693974018097 -0.019439449533820152 214 85 109
-0.24569536745548248 -0.31984636187553406 -0.013817249797284603 218 90 104
-0.23356479406356812 -0.3176730275154114 -0.026573974639177322 223 97 99
-0.23477116227149963 -0.323884516954422 -0.02513818070292473 226 102 96
-0.2432023286819458 -0.3272363245487213 -0.017100892961025238 228 106 93
-0.23701684176921844 -0.3253013789653778 -0.0077917310409247875 231 110 90
-0.22462590038776398 -0.3277546763420105 -0.025819499045610428 232 113 88
-0.23933079838752747 -0.3149126470088959 -0.030957723036408424 229 108 91
-0.22899875044822693 -0.33099520206451416 -0.014891522005200386 227 104 94
-0.23220136761665344 -0.3380937874317169 0.0023605080787092447 225 101 96
-0.24255624413490295 -0.33114078640937805 0.028326837345957756 228 106 93
-0.23271936178207397 -0.33403727412223816 0.039567314088344574 225 101 96
-0.22418829798698425 -0.33556294441223145 0.05126133933663368 221 95 101
-0.2432769387960434 -0.3167397975921631 0.02726868912577629 223 97 99
-0.24987494945526123 -0.30882468819618225 0.017370041459798813 220 94 102
-0.2581585645675659 -0.3152599036693573 0.010959900915622711 217 89 105
-0.2797399163246155 -0.29867807030677795 0.015707580372691154 210 80 112
-0.2735961079597473 -0.290271133184433 -0.02557508647441864 205 73 117
-0.2459762841463089 -0.2988792359828949 -0.0063539245165884495 194 61 128
-0.21061722934246063 -0.2941054701805115 0.017820045351982117 173 38 146
-0.18075565993785858 -0.320118248462677 0.04152315482497215 164 30 152
-0.1539526730775833 -0.3522641658782959 0.0730576291680336 153 20 159
-0.16644564270973206 -0.36540356278419495 0.05668417364358902 147 16 161
-0.1711687296628952 -0.3547075092792511 0.06562267988920212 140 10 164
-0.19152963161468506 -0.3312886655330658 0.07198656350374222 126 3 167
-0.18990352749824524 -0.32773610949516296 0.09119236469268799 118 1 168
-0.15598143637180328 -0.33533594012260437 0.08319749683141708 115 0 168
-0.15320608019828796 -0.34492629766464233 0.06701558828353882 101 0 167
-0.15837329626083374 -0.3670210540294647 0.05269274860620499 97 0 166
-0.17891556024551392 -0.3606054484844208 0.005089450161904097 92 0 165
-0.19386404752731323 -0.344402015209198 -0.05658024549484253 86 1 163
-0.18424083292484283 -0.3411778211593628 -0.0864952802658081 86 1 163
-0.1896992325782776 -0.3310962915420532 -0.09586718678474426 95 0 166
-0.20486359298229218 -0.3337996304035187 -0.1286737322807312 103 0 167
-0.21787038445472717 -0.3045666217803955 -0.14575950801372528 104 0 167
-0.23177377879619598 -0.28808310627937317 -0.18383881449699402 118 1 168
-0.17847073078155518 -0.30071350932121277 -0.2235790342092514 130 4 167
-0.17686180770397186 -0.2914366126060486 -0.2346239537000656 147 16 161
-0.16669507324695587 -0.29265475273132324 -0.2494606226682663 165 31 151
-0.16951613128185272 -0.24903132021427155 -0.2779725193977356 180 45 141
-0.18938016891479492 -0.2350320965051651 -0.30702635645866394 189 55 132
-0.14111535251140594 -0.2527022063732147 -0.32522520422935486 192 59 129
-0.1278742551803589 -0.2490486204624176 -0.3123370110988617 198 65 124
-0.13060998916625977 -0.21781371533870697 -0.33167943358421326 204 72 118
-0.1264626681804657 -0.18469826877117157 -0.34843093156814575 205 73 117
-0.10133395344018936 -0.18139134347438812 -0.3666101098060608 202 70 120
-0.10094435513019562 -0.17457091808319092 -0.37804755568504333 198 65 124
-0.1260637491941452 -0.17018890380859375 -0.3736860454082489 193 60 128
-0.1482495814561844 -0.14325402677059174 -0.3478579521179199 189 55 132
-0.17054961621761322 -0.1106066182255745 -0.37332576513290405 184 50 137
-0.11243987828493118 -0.1877036839723587 -0.42128419876098633 184 50 137
-0.09369383007287979 -0.17515656352043152 -0.37305331230163574 175 40 144
-0.11585339903831482 -0.16781988739967346 -0.392352819442749 178 44 142
-0.0937812328338623 -0.18384453654289246 -0.41490310430526733 183 48 138
-0.09606374800205231 -0.16880470514297485 -0.4018497169017792 188 54 133
-0.08501415699720383 -0.15924127399921417 -0.43680259585380554 188 54 133
-0.056545402854681015 -0.13694700598716736 -0.4427110254764557 191 57 130
-0.049029454588890076 -0.11717177927494049 -0.4480748474597931 180 45 141
-0.0439499169588089 -0.13538461923599243 -0.4657977223396301 174 39 145
-0.06942629814147949 -0.1346956342458725 -0.46038588881492615 184 50 137
-0.11290426552295685 -0.15144795179367065 -0.4619590640068054 186 52 135
-0.1101323664188385 -0.1499844193458557 -0.4447953701019287 188 54 133
-0.09650992602109909 -0.14506053924560547 -0.4631732106208801 187 53 134
-0.09184817224740982 -0.14161795377731323 -0.47671589255332947 189 55 132
-0.08693117648363113 -0.10195627808570862 -0.4719272255897522 189 55 132
-0.09928636997938156 -0.11060058325529099 -0.4688256084918976 189 55 132
-0.08102191239595413 -0.11644086986780167 -0.47180482745170593 190 56 131
-0.04107612743973732 -0.11291629076004028 -0.4919193387031555 188 54 133
-0.028117123991250992 -0.09809184819459915 -0.4739220440387726 187 53 134
-0.025651495903730392 -0.11040785163640976 -0.47304436564445496 185 51 136
-0.045894477516412735 -0.10574819892644882 -0.4668015241622925 193 60 128
-0.05652318894863129 -0.12555049359798431 -0.49358657002449036 199 66 123
-0.05047004669904709 -0.13602499663829803 -0.47814691066741943 202 70 120
-0.07012395560741425 -0.14388161897659302 -0.4651568531990051 206 74 117
-0.07228989899158478 -0.14966386556625366 -0.4672313928604126 208 77 115
-0.05721299722790718 -0.1756371259689331 -0.4741252660751343 210 80 112
-0.07345158606767654 -0.1870829164981842 -0.4583294689655304 212 82 110
-0.08502055704593658 -0.19452011585235596 -0.46314537525177 212 82 110
-0.10005315393209457 -0.19826573133468628 -0.44750896096229553 212 82 110
-0.10204274207353592 -0.19290311634540558 -0.44577425718307495 212 82 110
-0.08885745704174042 -0.19105181097984314 -0.453962117433548 209 79 113
-0.09899383783340454 -0.1887587010860443 -0.44631490111351013 206 74 117
-0.1090778186917305 -0.19124560058116913 -0.4404420554637909 201 69 121
-0.12281686812639236 -0.18597522377967834 -0.4408063590526581 197 64 125
-0.11751991510391235 -0.17950494587421417 -0.45741719007492065 198 65 124
-0.11504855751991272 -0.175944522023201 -0.4544755220413208 200 68 122
-0.12142692506313324 -0.17558199167251587 -0.47473016381263733 200 68 122
-0.117225281894207 -0.16487857699394226 -0.4859407842159271 189 55 132
-0.10163700580596924 -0.13030654191970825 -0.4933376908302307 182 47 139
-0.07883378118276596 -0.12982110679149628 -0.5071530938148499 172 37 147
-0.052707940340042114 -0.1277918815612793 -0.4907086193561554 164 30 152
-0.07886283844709396 -0.11628033220767975 -0.4798441529273987 160 27 155
-0.054420895874500275 -0.11725279688835144 -0.49366727471351624 154 21 158
-0.06035901978611946 -0.11701898276805878 -0.47906941175460815 153 20 159
-0.07775165885686874 -0.1265331357717514 -0.4629046618938446 158 25 156
-0.10396309942007065 -0.1113014817237854 -0.46196654438972473 164 30 152
-0.12228350341320038 -0.12386353313922882 -0.4544124901294708 164 30 152
-0.12128351628780365 -0.13346733152866364 -0.43487632274627686 168 34 150
-0.11921634525060654 -0.12681084871292114 -0.41792890429496765 181 46 140
-0.13254937529563904 -0.12770098447799683 -0.4204811453819275 192 59 129
-0.1291613131761551 -0.14971816539764404 -0.40890902280807495 198 65 124
-0.13455231487751007 -0.15954653918743134 -0.405353307723999 200 68 122
-0.12452356517314911 -0.15142382681369781 -0.42329496145248413 208 77 115
-0.12917739152908325 -0.13301490247249603 -0.4286104738712311 218 90 104
-0.10615251958370209 -0.1478349268436432 -0.43468177318573 227 104 94
-0.11714264005422592 -0.14185534417629242 -0.43162304162979126 232 113 88
-0.12559610605239868 -0.13939177989959717 -0.4478512108325958 236 119 84
-0.12317702174186707 -0.13569985330104828 -0.4587705135345459 239 126 78
-0.1110261082649231 -0.13396278023719788 -0.46861109137535095 247 146 65
-0.10517542064189911 -0.1527746170759201 -0.4835655987262726 249 153 61
-0.11443763971328735 -0.12913137674331665 -0.472972571849823 251 162 56
-0.13296687602996826 -0.13243381679058075 -0.4750242233276367 251 162 56
-0.12116449326276779 -0.13783656060695648 -0.4823688268661499 250 157 58
-0.11046545207500458 -0.12986540794372559 -0.48612546920776367 249 153 61
-0.11467580497264862 -0.11710687726736069 -0.5030175447463989 248 149 64
-0.09920264035463333 -0.11163488775491714 -0.5179266333580017 244 137 71
-0.08148834854364395 -0.10802299529314041 -0.5295097827911377 240 128 77
-0.07272569090127945 -0.09517176449298859 -0.5384805202484131 234 116 85
-0.059883348643779755 -0.08217412233352661 -0.5390899181365967 221 95 101
-0.06727571040391922 -0.07314681261777878 -0.5391484498977661 220 93 102
-0.037643883377313614 -0.08315959572792053 -0.5122474431991577 220 94 102
-0.06489276140928268 -0.014413370750844479 -0.5268371105194092 219 91 103
-0.06080315262079239 0.00031855699489824474 -0.5470587611198425 222 96 100
-0.03261321410536766 0.009860542602837086 -0.47549036145210266 225 101 96
-0.028926026076078415 -0.03601997345685959 -0.4845961034297943 231 110 90
-0.027593787759542465 -0.050998151302337646 -0.4689730405807495 232 113 88
-0.032973598688840866 -0.03491073101758957 -0.4721028208732605 230 109 90
-0.038757700473070145 -0.044700365513563156 -0.4575681686401367 227 104 94
-0.06095682457089424 -0.06367581337690353 -0.4596889317035675 225 101 96
-0.04765954241156578 -0.04795212671160698 -0.46674883365631104 224 100 97
-0.021794596686959267 -0.045609597116708755 -0.4935406744480133 223 98 98
-0.020632928237318993 -0.036400582641363144 -0.5016648769378662 223 97 99
-0.022773442789912224 -0.021189739927649498 -0.5069462060928345 222 96 100
-0.0066149490885436535 -0.03480850160121918 -0.46700358390808105 212 82 110
-0.005448112264275551 -0.04533643275499344 -0.44187232851982117 212 82 110
-0.004606763366609812 -0.032977763563394547 -0.45557448267936707 209 78 114
-0.0379696860909462 -0.04655665531754494 -0.4578483998775482 202 70 120
-0.028031079098582268 -0.04414113610982895 -0.4897177815437317 196 63 126
-0.033040743321180344 -0.049901142716407776 -0.5055435299873352 187 53 134
-0.04163869842886925 -0.035879723727703094 -0.4879472553730011 186 52 135
-0.04821217432618141 -0.03481470048427582 -0.47949865460395813 189 55 132
-0.03253329172730446 -0.043104540556669235 -0.47220247983932495 194 61 128
-0.02904018573462963 -0.06111760437488556 -0.5015752911567688 198 65 124
-0.05742504075169563 -0.0672493651509285 -0.5114593505859375 198 65 124
-0.11595027893781662 -0.08824865520000458 -0.5201326608657837 201 69 121
-0.14175446331501007 -0.10699673742055893 -0.5297414064407349 201 69 121
-0.15847958624362946 -0.11353656649589539 -0.5264066457748413 203 71 119
-0.1767934411764145 -0.10795372724533081 -0.5233263969421387 201 69 121
-0.17208720743656158 -0.08847194164991379 -0.5169402360916138 197 64 125
-0.16968391835689545 -0.07583349943161011 -0.5292580723762512 196 63 126
-0.1645309180021286 -0.10587233304977417 -0.5599090456962585 200 68 122
-0.13575758039951324 -0.09507549554109573 -0.5397347807884216 205 73 117
-0.1275153011083603 -0.07403388619422913 -0.5458113551139832 205 73 117
-0.11631377041339874 -0.0818854421377182 -0.5506292581558228 212 82 110
-0.16096702218055725 -0.07915566861629486 -0.540993869304657 217 89 105
-0.1589449644088745 -0.07600606977939606 -0.5376843214035034 223 98 98
-0.17413727939128876 -0.09221424907445908 -0.5171469449996948 226 102 96
-0.18296261131763458 -0.08374001830816269 -0.5045773983001709 224 100 97
-0.1933523416519165 -0.09466100484132767 -0.4914358854293823 227 103 95
-0.19902878999710083 -0.08654618263244629 -0.4928642511367798 232 113 88
-0.1726110428571701 -0.0930958017706871 -0.4910738468170166 240 128 77
-0.15193969011306763 -0.08707306534051895 -0.4825024902820587 241 130 76
-0.15986981987953186 -0.07333672046661377 -0.4834720194339752 241 130 76
-0.18517550826072693 -0.06519901007413864 -0.4508167803287506 244 137 71
-0.20462964475154877 -0.07031013816595078 -0.44270333647727966 246 145 66
-0.18007570505142212 -0.0805995911359787 -0.4224463403224945 248 152 62
-0.17442087829113007 -0.08426915854215622 -0.3889849781990051 251 163 55
-0.1920805275440216 -0.08086517453193665 -0.3750135600566864 252 167 53
-0.18700210750102997 -0.061881858855485916 -0.3697167932987213 252 169 52
-0.16816598176956177 -0.06198345869779587 -0.3325519859790802 251 163 55
-0.1384834498167038 -0.039086103439331055 -0.31877246499061584 253 176 48
-0.1468672752380371 -0.034813906997442245 -0.3234935998916626 253 187 43
-0.12698861956596375 -0.019224392250180244 -0.3150217831134796 253 185 43
-0.13962695002555847 -0.0020813005976378918 -0.2662201225757599 253 184 44
-0.10541649162769318 -0.009260493330657482 -0.26175668835639954 253 190 41
-0.078440822660923 -0.011714880354702473 -0.27769479155540466 253 184 44
-0.09927055984735489 0.015416123904287815 -0.26612862944602966 252 169 52
-0.1113915666937828 0.020325200632214546 -0.24838551878929138 252 166 53
-0.08724211901426315 0.011368822306394577 -0.2508425712585449 251 163 55
-0.09043379127979279 -0.011420432478189468 -0.23256909847259521 250 160 57
-0.09949199855327606 -0.016139023005962372 -0.22599203884601593 253 184 44
-0.0754646360874176 -0.024027392268180847 -0.2177385538816452 253 182 45
-0.059512924402952194 -0.026031874120235443 -0.2009410411119461 253 185 43
-0.05642397329211235 -0.029290057718753815 -0.2018417865037918 253 184 44
-0.05979170650243759 -0.024281051009893417 -0.1984655261039734 252 166 53
-0.05767657980322838 -0.02933204174041748 -0.20894473791122437 253 187 43
-0.06828751415014267 -0.027937889099121094 -0.20677751302719116 253 187 43
-0.053877901285886765 -0.028712766245007515 -0.1995585709810257 253 184 44
-0.03128013014793396 -0.03297790139913559 -0.17594051361083984 253 175 49
-0.02488400600850582 -0.038408249616622925 -0.17726166546344757 253 179 46
-0.0258832648396492 -0.04934609308838844 -0.17952264845371246 253 184 44
-0.024907585233449936 -0.06896144896745682 -0.2142455130815506 253 188 42
-0.03060656040906906 -0.073667012155056 -0.2635355293750763 253 176 48
-0.04860740900039673 -0.08086998760700226 -0.2703627645969391 252 170 51
-0.05771108344197273 -0.10303646326065063 -0.2973591685295105 252 169 52
-0.04345023259520531 -0.12295447289943695 -0.31034061312675476 251 164 54
-0.06002089008688927 -0.12609291076660156 -0.3017392158508301 253 185 43
-0.07346714287996292 -0.1292559653520584 -0.31125977635383606 253 187 43
-0.06999776512384415 -0.1569247841835022 -0.29433420300483704 253 185 43
-0.06982135027647018 -0.1604759395122528 -0.2910902202129364 253 184 44
-0.09343330562114716 -0.16018971800804138 -0.31721559166908264 253 188 42
-0.09087733924388885 -0.166812926530838 -0.32975271344184875 253 192 41
-0.08680485934019089 -0.15753166377544403 -0.3233714997768402 253 190 41
-0.10616753250360489 -0.17200788855552673 -0.3187941908836365 253 188 42
-0.1114615797996521 -0.1783704310655594 -0.3076600432395935 253 192 41
-0.11207611113786697 -0.17938488721847534 -0.30959418416023254 253 195 40
-0.09335867315530777 -0.18176381289958954 -0.31610777974128723 253 192 41
-0.10308625549077988 -0.18828968703746796 -0.307529479265213 252 167 53
-0.10862942039966583 -0.1875075399875641 -0.3071393668651581 252 167 53
-0.10831325501203537 -0.20224353671073914 -0.323169082403183 252 166 53
-0.11316060274839401 -0.1982964724302292 -0.3325139880180359 249 153 61
-0.11931055039167404 -0.20600104331970215 -0.32753315567970276 249 154 60
-0.13827717304229736 -0.21070000529289246 -0.3300135135650635 248 149 64
-0.16289450228214264 -0.1886262744665146 -0.3370351195335388 245 141 69
-0.16208671033382416 -0.17045065760612488 -0.32831960916519165 248 149 64
-0.1576819121837616 -0.1653047502040863 -0.31045886874198914 243 134 73
-0.12277738004922867 -0.17941197752952576 -0.30826181173324585 244 137 71
-0.09630579501390457 -0.19092629849910736 -0.3077338933944702 246 142 68
-0.07417398691177368 -0.1983315348625183 -0.31217268109321594 246 143 67
-0.08501654863357544 -0.17876024544239044 -0.3183305561542511 244 138 71
-0.0982368066906929 -0.20238329470157623 -0.31716620922088623 245 139 70
-0.1017540693283081 -0.18745440244674683 -0.2842075526714325 243 134 73
-0.114006906747818 -0.1892186850309372 -0.2797671854496002 240 128 77
-0.11219465732574463 -0.21265272796154022 -0.2485276758670807 237 123 81
-0.10704702138900757 -0.22202274203300476 -0.2020062804222107 237 123 81
-0.1051723062992096 -0.23031862080097198 -0.18208517134189606 238 124 80
-0.11390667408704758 -0.22162367403507233 -0.151700958609581 240 129 77
-0.13682618737220764 -0.2029622346162796 -0.11527930945158005 244 137 71
-0.10384393483400345 -0.21814651787281036 -0.11077968776226044 246 142 68
-0.09630826860666275 -0.20857377350330353 -0.08975818008184433 248 149 64
-0.07595600932836533 -0.19440405070781708 -0.06736379116773605 250 159 58
-0.07618655264377594 -0.21999724209308624 -0.06331001967191696 252 169 52
-0.10379651188850403 -0.20907466113567352 -0.018930543214082718 252 173 49
-0.1257450431585312 -0.18766073882579803 -0.006454764399677515 253 185 43
-0.1179947629570961 -0.1552094966173172 0.019550900906324387 253 184 44
-0.09900606423616409 -0.15770308673381805 0.031627003103494644 253 184 44
-0.1146431714296341 -0.12473052740097046 0.03350607305765152 253 182 45
-0.1271093189716339 -0.08939152956008911 0.025702431797981262 253 179 46
-0.09470786899328232 -0.05898091569542885 0.008545714430510998 251 163 55
-0.11247893422842026 -0.07176443934440613 0.018514445051550865 250 160 57
-0.14614194631576538 -0.05797635763883591 0.041690643876791 248 152 62
-0.1441628634929657 -0.08546526730060577 0.02093353495001793 246 145 66
-0.1268676072359085 -0.1084769144654274 0.019253958016633987 247 146 65
-0.1280369907617569 -0.13697169721126556 0.028370019048452377 246 143 67
-0.13115045428276062 -0.1202307641506195 0.04276052862405777 245 141 69
-0.11244060099124908 -0.1179254874587059 0.047279730439186096 243 135 72
-0.06255912780761719 -0.09839931130409241 0.08170665055513382 241 130 76
-0.07039183378219604 -0.07928822189569473 0.09508863091468811 241 130 76
-0.09101734310388565 -0.0868205577135086 0.0767199695110321 240 128 77
-0.1067628487944603 -0.10251631587743759 0.08259366452693939 241 130 76
-0.11255277693271637 -0.10015987604856491 0.07933743298053741 242 132 75
-0.10150633752346039 -0.11060793697834015 0.08896812796592712 241 130 76
-0.08532287925481796 -0.10834486782550812 0.09827589243650436 240 129 77
-0.09142681956291199 -0.1297277957201004 0.09722204506397247 240 128 77
-0.09342864155769348 -0.1289810985326767 0.11975638568401337 240 128 77
-0.10544616729021072 -0.12368378788232803 0.11957646906375885 240 128 77
-0.10335458815097809 -0.12886643409729004 0.122258260846138 235 118 84
-0.11055660992860794 -0.13158228993415833 0.1341547966003418 235 118 84
-0.11682160943746567 -0.13962233066558838 0.12120170891284943 234 116 85
-0.12785851955413818 -0.1523386538028717 0.10222817212343216 233 114 87
-0.14711754024028778 -0.1551256626844406 0.08460953086614609 231 110 90
-0.1580108106136322 -0.15264718234539032 0.07622753828763962 223 97 99
-0.15146589279174805 -0.16910618543624878 0.06757376343011856 216 88 106
-0.1614282876253128 -0.16220954060554504 0.05565477907657623 205 73 117
-0.13741199672222137 -0.16491229832172394 0.05553465336561203 201 69 121
-0.14228086173534393 -0.16036035120487213 0.0695490837097168 189 55 132
-0.1544663906097412 -0.1560373157262802 0.0712394192814827 181 46 140
-0.1654263138771057 -0.1629287749528885 0.05035911127924919 174 39 145
-0.14409905672073364 -0.17826762795448303 0.06548477709293365 169 35 149
-0.14412061870098114 -0.1754584163427353 0.08122938126325607 163 29 153
-0.13393789529800415 -0.17000959813594818 0.09900808334350586 155 23 158
-0.12614136934280396 -0.16323384642601013 0.10968982428312302 149 17 161
-0.12421802431344986 -0.1619502753019333 0.11923731118440628 151 19 160
-0.12421679496765137 -0.15685062110424042 0.13725797832012177 144 14 163
-0.11818155646324158 -0.1431400328874588 0.1556030511856079 142 12 164
-0.10016117244958878 -0.12355043739080429 0.16048979759216309 144 14 163
-0.08744128048419952 -0.111818827688694 0.20238393545150757 144 14 163
-0.0824715867638588 -0.056399233639240265 0.1934085637331009 151 19 160
-0.09175954014062881 -0.02509612962603569 0.18127280473709106 150 18 160
-0.0868249386548996 -0.006453204900026321 0.1661216765642166 153 20 159
-0.0828082337975502 0.0007317812414839864 0.1379808634519577 159 26 155
-0.09072742611169815 -0.008474302478134632 0.09313448518514633 170 36 148
-0.12719960510730743 0.0006410232745110989 0.01797110214829445 175 40 144
-0.0959087535738945 0.019038807600736618 -0.0029759309254586697 181 46 140
-0.08998775482177734 0.020151713863015175 -0.0503159761428833 182 47 139
-0.1059146597981453 0.03230610117316246 -0.07365896552801132 190 56 131
-0.13103163242340088 0.04417718946933746 -0.10893595963716507 201 69 121
-0.11910981684923172 0.03266819566488266 -0.137869194149971 207 75 116
-0.122078537940979 0.01931535266339779 -0.2008441537618637 213 83 109
-0.13230490684509277 0.017307914793491364 -0.20338892936706543 219 91 103
-0.14884904026985168 0.04399479180574417 -0.1889156550168991 227 104 94
-0.12207301706075668 0.04255734756588936 -0.17490611970424652 231 110 90
-0.0664270743727684 0.09108984470367432 -0.10358894616365433 232 112 89
-0.04947449266910553 0.1493588089942932 -0.04517533630132675 229 107 92
-0.018260501325130463 0.19798853993415833 0.004384953062981367 232 112 89
0.04745945706963539 0.19412505626678467 0.07207805663347244 234 116 85
0.10138572007417679 0.21038831770420074 0.1281391680240631 236 120 83
0.13373684883117676 0.24487921595573425 0.1650184541940689 239 126 78
0.14008557796478271 0.2565324306488037 0.1871456354856491 243 134 73
0.1573374718427658 0.26398521661758423 0.19644887745380402 246 142 68
0.1617758572101593 0.2669249475002289 0.20866641402244568 249 153 61
0.16493648290634155 0.27009326219558716 0.22666557133197784 252 173 49
0.1836024671792984 0.2596147656440735 0.22050149738788605 253 192 41
0.19188275933265686 0.23994921147823334 0.22818489372730255 252 199 38
0.17566391825675964 0.24714820086956024 0.23666267096996307 251 209 36
0.1734325885772705 0.2508046329021454 0.2339080572128296 250 216 36
0.18038150668144226 0.2464175671339035 0.24012133479118347 252 206 37
0.17881403863430023 0.24274207651615143 0.2504703402519226 253 196 39
0.17446520924568176 0.24572251737117767 0.2445700466632843 253 196 39
0.17905867099761963 0.24519938230514526 0.24165084958076477 253 192 41
0.17821893095970154 0.24153326451778412 0.24991655349731445 253 184 44
0.1743510514497757 0.2310764342546463 0.2489587664604187 253 185 43
0.1696513444185257 0.23436926305294037 0.24866251647472382 251 209 36
0.17543840408325195 0.23934903740882874 0.24291977286338806 249 217 36
0.1762722134590149 0.2331346869468689 0.24046052992343903 250 213 36
0.17374825477600098 0.2354406863451004 0.24265724420547485 252 204 37
0.17410746216773987 0.23531414568424225 0.23824846744537354 253 187 43
0.17267847061157227 0.22796131670475006 0.236874520778656 253 192 41
0.170062854886055 0.22334550321102142 0.23717151582241058 253 188 42
0.1601896584033966 0.22080382704734802 0.23949508368968964 253 188 42
0.16456755995750427 0.215140700340271 0.24448451399803162 253 187 43
0.16960936784744263 0.21016870439052582 0.2425868660211563 253 185 43
0.16383227705955505 0.2047835886478424 0.24057337641716003 253 187 43
0.1534864902496338 0.2063060700893402 0.23917903006076813 253 185 43
0.14405111968517303 0.19860301911830902 0.23613892495632172 253 187 43
0.13381700217723846 0.20464980602264404 0.2299625128507614 253 188 42
0.13648854196071625 0.19503909349441528 0.2256009876728058 253 193 40
0.14304381608963013 0.17746399343013763 0.23564186692237854 253 192 41
0.14464865624904633 0.1733326017856598 0.24047647416591644 253 196 39
0.14218424260616302 0.18731971085071564 0.2399533987045288 253 195 40
0.14735852181911469 0.18021389842033386 0.24180808663368225 253 195 40
0.15137481689453125 0.17410874366760254 0.23870529234409332 253 192 41
0.15645000338554382 0.1754380613565445 0.2497955858707428 253 193 40
0.16861817240715027 0.19161637127399445 0.2453516572713852 253 198 38
0.1720694601535797 0.19940593838691711 0.2440902590751648 252 203 37
0.18085062503814697 0.19732151925563812 0.24146726727485657 252 199 38
0.18337124586105347 0.20160071551799774 0.2524825930595398 252 201 38
0.19232185184955597 0.2072308361530304 0.2613677680492401 253 198 38
0.20361734926700592 0.20753490924835205 0.2637457251548767 252 199 38
0.19494688510894775 0.2111601084470749 0.26701709628105164 253 198 38
0.19384847581386566 0.21417710185050964 0.26936885714530945 252 199 38
0.1947428435087204 0.22569367289543152 0.26866278052330017 252 201 38
0.19731895625591278 0.2247380018234253 0.2675198018550873 252 201 38
0.19333693385124207 0.22396275401115417 0.2650632858276367 253 198 38
0.19163456559181213 0.22555480897426605 0.264830619096756 253 198 38
0.19787807762622833 0.2264515459537506 0.2711004912853241 253 196 39
0.1964665949344635 0.2209019660949707 0.26774436235427856 253 184 44
0.1938803493976593 0.22205497324466705 0.2724580466747284 252 173 49
0.19129395484924316 0.23208045959472656 0.2632308304309845 252 169 52
0.1885571926832199 0.2362765073776245 0.2617001533508301 252 166 53
0.1929643154144287 0.23683373630046844 0.2560264468193054 250 156 59
0.19888603687286377 0.22513265907764435 0.2574450969696045 248 152 62
0.20574679970741272 0.22527776658535004 0.26059696078300476 248 150 63
0.20471657812595367 0.2253160923719406 0.25195759534835815 248 149 64
0.20973217487335205 0.2296467125415802 0.2546703815460205 248 150 63
0.2144571989774704 0.22281087934970856 0.2558031976222992 248 149 64
0.21818134188652039 0.2211468666791916 0.2507420480251312 248 152 62
0.22416579723358154 0.21628035604953766 0.2634948790073395 248 149 64
0.21706368029117584 0.2204999476671219 0.2655688524246216 248 152 62
0.21932755410671234 0.21411342918872833 0.26822391152381897 248 150 63
0.2163233757019043 0.21480029821395874 0.27514034509658813 248 149 64
0.2163957804441452 0.2128307968378067 0.2668571472167969 248 149 64
0.22287210822105408 0.2151288390159607 0.26907211542129517 248 150 63
0.2210392951965332 0.22154565155506134 0.2672511339187622 249 154 60
0.22212593257427216 0.22634021937847137 0.26058173179626465 248 150 63
0.2214704006910324 0.23036424815654755 0.2585804760456085 249 153 61
0.22273382544517517 0.22834213078022003 0.25618842244148254 250 157 58
0.22920238971710205 0.22473210096359253 0.25702688097953796 251 163 55
0.2262282520532608 0.22430886328220367 0.2564293146133423 252 169 52
0.22465011477470398 0.23135776817798615 0.2500573992729187 253 176 48
0.22587192058563232 0.2349122166633606 0.24609965085983276 253 184 44
0.22763100266456604 0.2353004813194275 0.244520366191864 253 192 41
0.23129622638225555 0.2346554696559906 0.23934248089790344 253 193 40
0.2359982132911682 0.2350037395954132 0.24005582928657532 252 201 38
0.23747436702251434 0.24116820096969604 0.24062511324882507 249 217 36
0.23314639925956726 0.24554194509983063 0.23900189995765686 247 224 36
0.2384493052959442 0.24615411460399628 0.2318381667137146 245 231 38
0.2359790951013565 0.25540289282798767 0.22780869901180267 246 229 37
0.23508039116859436 0.2513482868671417 0.2256210446357727 246 228 37
0.2423340231180191 0.24735181033611298 0.2348027378320694 247 226 37
0.23977699875831604 0.24466334283351898 0.2328605055809021 253 198 38
0.24035540223121643 0.24438373744487762 0.23575246334075928 253 190 41
0.2418171763420105 0.24287234246730804 0.23765325546264648 253 185 43
0.2366085648536682 0.24647173285484314 0.23792877793312073 253 182 45
0.23930172622203827 0.24579188227653503 0.23301684856414795 253 182 45
0.24163390696048737 0.23985162377357483 0.2395877093076706 253 181 45
0.24332073330879211 0.23159512877464294 0.2425440400838852 253 181 45
0.24508699774742126 0.22852304577827454 0.24272119998931885 252 173 49
0.24785204231739044 0.21749380230903625 0.24682161211967468 252 173 49
0.24489426612854004 0.2169015258550644 0.25479546189308167 253 175 49
0.23565685749053955 0.20720680058002472 0.2593168020248413 253 176 48
0.2357802391052246 0.20590761303901672 0.2617728114128113 253 175 49
0.23708529770374298 0.19736860692501068 0.2539449632167816 253 175 49
0.23606283962726593 0.19300997257232666 0.25641345977783203 252 173 49
0.2311752289533615 0.19428850710391998 0.2515391707420349 252 172 50
0.22871540486812592 0.1933276206254959 0.248345285654068 252 169 52
0.2400398999452591 0.19334454834461212 0.2553829550743103 251 164 54
0.23205815255641937 0.18956358730793 0.2523750066757202 250 159 58
0.23728306591510773 0.1892392486333847 0.254244327545166 249 153 61
0.2374853789806366 0.19144217669963837 0.2506720721721649 246 143 67
0.2359982132911682 0.1966180056333542 0.25556978583335876 241 130 76
0.23852485418319702 0.19933024048805237 0.2568385899066925 237 123 81
0.23948447406291962 0.19398044049739838 0.26014527678489685 232 112 89
0.24182884395122528 0.1937560886144638 0.2649294435977936 225 101 96
0.2377420961856842 0.202559694647789 0.2619829773902893 197 64 125
0.23941601812839508 0.2053939253091812 0.26157233119010925 188 54 133
0.24033218622207642 0.20603694021701813 0.2555864751338959 183 48 138
0.2406962662935257 0.2141067236661911 0.2556513845920563 181 46 140
0.24344658851623535 0.21609781682491302 0.2597571909427643 192 59 129
0.25045350193977356 0.21057091653347015 0.26333335041999817 197 64 125
0.24373257160186768 0.21760986745357513 0.2645304799079895 198 65 124
0.24171440303325653 0.22184407711029053 0.2547399401664734 201 69 121
0.250169575214386 0.22562198340892792 0.2463124692440033 197 64 125
0.25877755880355835 0.2300170511007309 0.24622102081775665 197 64 125
0.25459277629852295 0.23694847524166107 0.24165819585323334 197 64 125
0.2534189224243164 0.23968271911144257 0.2323598712682724 193 60 128
0.25817808508872986 0.24499106407165527 0.22140026092529297 193 60 128
0.2597876489162445 0.252035528421402 0.2063342034816742 188 54 133
0.253207266330719 0.2667754590511322 0.19738876819610596 187 53 134
0.25862884521484375 0.27314168214797974 0.1838780790567398 174 39 145
0.26409801840782166 0.27646684646606445 0.16779768466949463 159 26 155
0.2651583254337311 0.26839908957481384 0.16058267652988434 144 14 163
0.27101486921310425 0.25998833775520325 0.1541173756122589 127 3 167
0.26891839504241943 0.25871074199676514 0.15241068601608276 112 0 168
0.27208197116851807 0.2521171569824219 0.1451864391565323 97 0 166
0.2726438641548157 0.2612359821796417 0.13711993396282196 101 0 167
0.2741171717643738 0.26609960198402405 0.13194885849952698 94 0 165
0.27623265981674194 0.26448845863342285 0.11718669533729553 101 0 167
0.27357345819473267 0.26664626598358154 0.10904477536678314 126 3 167
0.2728981673717499 0.26861879229545593 0.09212897717952728 142 12 164
0.2743484377861023 0.27435430884361267 0.07890736311674118 150 18 160
0.2781425416469574 0.28326401114463806 0.06495040655136108 163 29 153
0.28367379307746887 0.26871076226234436 0.06444334983825684 175 40 144
0.2819874882698059 0.2860763669013977 0.06640095263719559 189 55 132
0.2900718152523041 0.2830840051174164 0.055010274052619934 194 61 128
0.2915302813053131 0.28437569737434387 0.055630773305892944 187 53 134
0.2811211347579956 0.2890929579734802 0.028284631669521332 192 59 129
0.27147868275642395 0.28670257329940796 0.013946757651865482 194 61 128
0.2600614130496979 0.30004388093948364 0.006543067283928394 217 89 105
0.27810347080230713 0.2916082441806793 -0.0019944654777646065 240 129 77
0.2672441303730011 0.2895604968070984 -0.005733823403716087 231 110 90
0.25711992383003235 0.28450921177864075 -0.006353818345814943 234 116 85
0.2578572630882263 0.2814444899559021 -0.003300108714029193 236 119 84
0.24445173144340515 0.27000030875205994 0.02124807983636856 233 114 87
0.2379263937473297 0.24881617724895477 0.03541276231408119 231 110 90
0.2372344732284546 0.2382293939590454 0.056863050907850266 223 97 99
0.2279457300901413 0.21507568657398224 0.057590413838624954 215 87 107
0.20272664725780487 0.21096345782279968 0.05833716318011284 207 75 116
0.1989830881357193 0.210837721824646 0.054439984261989594 206 74 117
0.20531296730041504 0.20763297379016876 0.0757264643907547 194 61 128
0.20114807784557343 0.20637372136116028 0.07719820737838745 198 65 124
0.20303645730018616 0.21322159469127655 0.08431380242109299 196 63 126
0.18303032219409943 0.21132540702819824 0.08520093560218811 192 59 129
0.16007839143276215 0.19925813376903534 0.0844438448548317 187 53 134
0.14967159926891327 0.19465038180351257 0.06445949524641037 176 42 143
0.15006554126739502 0.18968653678894043 0.0505429208278656 172 37 147
0.1620265543460846 0.1732475310564041 0.05623035505414009 175 40 144
0.16960294544696808 0.16549564898014069 0.06670676171779633 177 43 143
0.17368406057357788 0.1634138822555542 0.06309317797422409 176 42 143
0.1672961711883545 0.15745598077774048 0.06872498244047165 177 43 143
0.17806749045848846 0.16344130039215088 0.07183840870857239 174 39 145
0.17881859838962555 0.1634449064731598 0.06591159850358963 168 34 150
0.16081206500530243 0.16843773424625397 0.054092612117528915 164 30 152
0.17254488170146942 0.17891839146614075 0.038939740508794785 162 28 154
0.1985754519701004 0.18830929696559906 0.02591296099126339 160 27 155
0.23146428167819977 0.20210571587085724 0.033385638147592545 147 16 161
0.2427794337272644 0.2188088297843933 0.020254328846931458 144 14 163
0.2417812943458557 0.2335316240787506 -0.0010072524892166257 146 15 162
0.2596479058265686 0.2362780123949051 -0.02271546795964241 142 12 164
0.27180933952331543 0.2464756965637207 -0.028554189950227737 133 6 166
0.2957782745361328 0.2545827031135559 -0.029856814071536064 123 2 168
0.31814301013946533 0.2572728991508484 -0.027801068499684334 114 0 168
0.3151078522205353 0.2544500231742859 -0.05464025214314461 101 0 167
0.301306813955307 0.2637788951396942 -0.06703225523233414 97 0 166
0.3080766201019287 0.2588883638381958 -0.09339314699172974 101 0 167
0.3121492564678192 0.27026280760765076 -0.11888942867517471 100 0 167
0.2742602527141571 0.2775345742702484 -0.16946639120578766 97 0 166
0.2601386606693268 0.2827991545200348 -0.2500684857368469 89 1 164
0.23243317008018494 0.2811809182167053 -0.29543712735176086 90 0 165
0.2191736400127411 0.2861158549785614 -0.3434560000896454 94 0 165
0.17323550581932068 0.2657517194747925 -0.36166197061538696 95 0 166
0.16113433241844177 0.2581425905227661 -0.3889100253582001 98 0 166
0.16784317791461945 0.2091546505689621 -0.40802285075187683 95 0 166
0.14291194081306458 0.2026337832212448 -0.4295218288898468 97 0 166
0.12741400301456451 0.1944083273410797 -0.4358997941017151 104 0 167
0.11453019827604294 0.1824321746826172 -0.45244941115379333 114 0 168
0.10309029370546341 0.16917076706886292 -0.46525880694389343 109 0 168
0.10527890175580978 0.17383182048797607 -0.4878948926925659 120 1 168
0.09845378249883652 0.1684984266757965 -0.48737820982933044 129 4 167
0.07194053381681442 0.17132417857646942 -0.48178571462631226 137 8 165
0.05227675661444664 0.14900583028793335 -0.5101828575134277 144 14 163
0.04693444073200226 0.1609368622303009 -0.5202419757843018 151 19 160
0.07228502631187439 0.1427953690290451 -0.5059406161308289 151 19 160
0.07153510302305222 0.13566870987415314 -0.5132678747177124 154 21 158
0.05545445531606674 0.127070814371109 -0.5377777218818665 155 23 158
0.038789451122283936 0.11214710772037506 -0.5334732532501221 160 27 155
0.022998476400971413 0.09924052655696869 -0.5352888703346252 170 36 148
-0.00692573469132185 0.08174487948417664 -0.5399714112281799 177 43 143
-0.031814053654670715 0.07499836385250092 -0.5269039869308472 181 46 140
-0.04517850652337074 0.05061088874936104 -0.5252800583839417 185 51 136
-0.05279076471924782 0.04081001877784729 -0.5054120421409607 188 54 133
-0.05452342703938484 0.020916234701871872 -0.5154631733894348 188 54 133
-0.05181875452399254 0.01843338832259178 -0.5223216414451599 185 51 136
-0.07526672631502151 0.027350520715117455 -0.5034982562065125 181 46 140
-0.08084172755479813 -0.002468497259542346 -0.5101253986358643 178 44 142
-0.06883981823921204 -0.004282305017113686 -0.5163784027099609 181 46 140
-0.11345570534467697 -0.00012437258556019515 -0.5059893727302551 188 54 133
-0.1160268783569336 -0.006762757431715727 -0.5010794997215271 185 51 136
-0.13364067673683167 -0.025706635788083076 -0.4938078820705414 189 55 132
-0.12699958682060242 -0.048000749200582504 -0.49716389179229736 191 57 130
-0.14043445885181427 -0.04095633700489998 -0.49245235323905945 194 61 128
