ply
format ascii 1.0
element vertex 668
property float x
property float y
property float z
property uchar red
property uchar green
property uchar blue
end_header
0.6101363301277161 0.43135327100753784 0.09851296246051788 147 16 161
0.6235382556915283 0.4168236553668976 0.0800163522362709 146 15 162
0.6157338619232178 0.40647047758102417 0.07065656036138535 151 19 160
0.6138004660606384 0.3828660845756531 0.05454773083329201 157 24 157
0.62664794921875 0.3421317934989929 0.059246551245450974 159 26 155
0.6037325859069824 0.3278875946998596 0.050964873284101486 163 29 153
0.5988671183586121 0.3177122175693512 0.030701344832777977 164 30 152
0.5796500444412231 0.28346142172813416 0.015600266866385937 167 33 151
0.5647116303443909 0.30050623416900635 0.017283348366618156 170 36 148
0.5862974524497986 0.30261626839637756 0.03286466374993324 175 40 144
0.5816051959991455 0.29984909296035767 0.007936990819871426 176 42 143
0.5868213176727295 0.28413763642311096 0.018408367410302162 175 40 144
0.6030418872833252 0.25118571519851685 0.022417156025767326 175 40 144
0.6065100431442261 0.2510841190814972 0.042468130588531494 180 45 141
0.613521933555603 0.2573757767677307 0.06474218517541885 181 46 140
0.6063805222511292 0.24900656938552856 0.034856751561164856 183 48 138
0.6058080792427063 0.2057245373725891 0.03701760619878769 183 48 138
0.6165871620178223 0.1923527866601944 0.06910070031881332 182 47 139
0.6331912279129028 0.1928998976945877 0.07365419715642929 181 46 140
0.6391069293022156 0.20844531059265137 0.07943858206272125 181 46 140
0.6518755555152893 0.2008294314146042 0.08323639631271362 184 50 137
0.6537103056907654 0.20397897064685822 0.08028598874807358 186 52 135
0.6440851092338562 0.20461270213127136 0.08697649091482162 186 52 135
0.6757125854492188 0.20243240892887115 0.08287490159273148 184 50 137
0.7109652161598206 0.22036558389663696 0.10330960899591446 182 47 139
0.7317047119140625 0.26494458317756653 0.07735300809144974 178 44 142
0.7461493611335754 0.27734681963920593 0.0872473195195198 176 42 143
0.7471765875816345 0.2881755828857422 0.09485980868339539 163 29 153
0.7552195191383362 0.3077693581581116 0.10923934727907181 155 23 158
0.7497088313102722 0.3297616243362427 0.09859293699264526 155 23 158
0.7506206035614014 0.34912100434303284 0.08305998146533966 153 20 159
0.7494406700134277 0.3802359402179718 0.08943124860525131 142 12 164
0.7364935874938965 0.437923789024353 0.09288816899061203 137 8 165
0.7391053438186646 0.4529947340488434 0.06703053414821625 133 6 166
0.7282373905181885 0.462103009223938 0.07731255143880844 130 4 167
0.6866579055786133 0.4745900332927704 0.08400959521532059 127 3 167
0.6792888641357422 0.47826141119003296 0.09903398156166077 126 3 167
0.68272465467453 0.48030757904052734 0.07475997507572174 129 4 167
0.6794366836547852 0.46978187561035156 0.07405652850866318 126 3 167
0.6759518980979919 0.46244364976882935 0.07543476670980453 158 25 156
0.6850169897079468 0.44925016164779663 0.05728543922305107 127 3 167
0.6804777383804321 0.4301551282405853 0.05835084617137909 132 5 166
0.6886448860168457 0.4194658398628235 0.0706629827618599 133 6 166
0.697256326675415 0.41782185435295105 0.05558577552437782 144 14 163
0.6970326900482178 0.41613245010375977 0.05436967685818672 150 18 160
0.6981501579284668 0.3789740204811096 0.033173736184835434 153 20 159
0.6936086416244507 0.3237149119377136 0.014951596967875957 149 17 161
0.6791475415229797 0.26520630717277527 0.017050348222255707 155 23 158
0.6470870971679688 0.20885170996189117 -0.007687943521887064 162 28 154
0.6240979433059692 0.15602120757102966 -0.026289954781532288 160 27 155
0.5848329663276672 0.10036090761423111 -0.042113155126571655 159 26 155
0.5306317210197449 0.062067192047834396 -0.0532209537923336 168 34 150
0.5106534957885742 0.04708132892847061 -0.056128229945898056 173 38 146
0.5006924271583557 0.018063729628920555 -0.06651525944471359 172 37 147
0.4700867831707001 0.0066115837544202805 -0.06688451021909714 177 43 143
0.4518265724182129 0.020147694274783134 -0.061651065945625305 180 45 141
0.44830840826034546 0.00255286181345582 -0.057065609842538834 181 46 140
0.4645068943500519 -0.0006950837559998035 -0.03589244559407234 182 47 139
0.4445556104183197 0.003276769071817398 -0.062394626438617706 181 46 140
0.40684738755226135 -0.010605797171592712 -0.07225271314382553 181 46 140
0.40572988986968994 -0.019495030865073204 -0.05583188310265541 176 42 143
0.3820726275444031 -0.03599667176604271 -0.06359446793794632 177 43 143
0.37091827392578125 -0.02938024327158928 -0.0642874613404274 164 30 152
0.3805680572986603 -0.03087032027542591 -0.04932590201497078 155 23 158
0.3993801176548004 -0.02695036493241787 -0.042733583599328995 149 17 161
0.3899635970592499 -0.036771971732378006 -0.04870177432894707 144 14 163
0.3755612373352051 -0.034952562302351 -0.06417908519506454 147 16 161
0.3402771055698395 -0.055566076189279556 -0.06299886852502823 151 19 160
0.3237774968147278 -0.07236011326313019 -0.05975905805826187 159 26 155
0.33874037861824036 -0.08357563614845276 -0.03773606941103935 155 23 158
0.36051660776138306 -0.07111780345439911 -0.0450010821223259 163 29 153
0.3894538879394531 -0.0645860806107521 -0.04441317543387413 168 34 150
0.41617658734321594 -0.050395820289850235 -0.04000469297170639 173 38 146
0.4082722067832947 -0.05051879957318306 -0.03814183548092842 178 44 142
0.4033874273300171 -0.05054355412721634 -0.03870674967765808 185 51 136
0.38570889830589294 -0.05533701926469803 -0.049227647483348846 184 50 137
0.3755808472633362 -0.06470377743244171 -0.05278196558356285 185 51 136
0.347830593585968 -0.08104850351810455 -0.06910566985607147 189 55 132
0.3233819901943207 -0.10336221754550934 -0.07409431785345078 195 62 127
0.32008761167526245 -0.10724109411239624 -0.053082987666130066 201 69 121
0.3243284523487091 -0.11453190445899963 -0.0523577556014061 202 70 120
0.3097545802593231 -0.11442439258098602 -0.055719174444675446 205 73 117
0.2704172730445862 -0.12858717143535614 -0.05685603618621826 208 77 115
0.2201237827539444 -0.14519400894641876 -0.07576548308134079 208 77 115
0.1920095682144165 -0.15296998620033264 -0.08387166261672974 208 77 115
0.19420306384563446 -0.15515519678592682 -0.0749608725309372 214 85 109
0.1940486580133438 -0.15637806057929993 -0.06204560399055481 224 100 97
0.18210314214229584 -0.16207659244537354 -0.07579202204942703 230 109 90
0.18141108751296997 -0.16189827024936676 -0.06959898769855499 239 125 79
0.21825993061065674 -0.1671532690525055 -0.062049783766269684 235 118 84
0.25260308384895325 -0.1640632003545761 -0.05340161547064781 238 124 80
0.2897827625274658 -0.15856073796749115 -0.04536336287856102 236 119 84
0.31044334173202515 -0.152699813246727 -0.04153478145599365 236 119 84
0.3182142376899719 -0.15295374393463135 -0.039947643876075745 236 120 83
0.3159806430339813 -0.14550183713436127 -0.044968727976083755 235 118 84
0.3130718469619751 -0.15869739651679993 -0.021477466449141502 232 113 88
0.31184765696525574 -0.1525602787733078 -0.011953790672123432 236 119 84
0.31484341621398926 -0.13434964418411255 -0.00569653045386076 236 120 83
0.327717125415802 -0.13674616813659668 -0.012612658552825451 234 116 85
0.3117721676826477 -0.13275371491909027 -0.012695953249931335 234 116 85
0.3016582429409027 -0.14100392162799835 0.014043220318853855 232 113 88
0.2708095908164978 -0.16453127562999725 4.493759115575813e-05 232 112 89
0.2122533768415451 -0.19799381494522095 -0.026458701118826866 236 119 84
0.18339857459068298 -0.20835989713668823 -0.019700584933161736 237 121 82
0.17807118594646454 -0.21057742834091187 -0.02429102547466755 231 110 90
0.17404618859291077 -0.2052861452102661 -0.0252187829464674 226 102 96
0.1739269644021988 -0.21098248660564423 -0.019404595717787743 228 106 93
0.18345040082931519 -0.20925188064575195 -0.019329369068145752 222 96 100
0.19009894132614136 -0.21681314706802368 -0.021407611668109894 221 95 101
0.19261755049228668 -0.2143150418996811 -0.02252691425383091 222 96 100
0.19795267283916473 -0.21431824564933777 -0.023147115483880043 219 91 103
0.1924293041229248 -0.21755552291870117 -0.03443434089422226 217 89 105
0.1840229481458664 -0.23252877593040466 -0.039198584854602814 215 87 107
0.17229798436164856 -0.2381228655576706 -0.0473320446908474 215 87 107
0.154167041182518 -0.23528821766376495 -0.05030111223459244 215 86 108
0.15268538892269135 -0.2441440224647522 -0.03899424523115158 215 87 107
0.15587525069713593 -0.24594908952713013 -0.052280500531196594 215 86 108
0.16436651349067688 -0.226231649518013 -0.04189211502671242 214 85 109
0.21229536831378937 -0.21512149274349213 -0.021573491394519806 215 86 108
0.26318442821502686 -0.19129963219165802 -0.010541475377976894 213 83 109
0.3062722682952881 -0.16644424200057983 0.009277903474867344 215 86 108
0.34985291957855225 -0.12871748208999634 0.0190652497112751 216 88 106
0.36497390270233154 -0.10664987564086914 0.03722653165459633 216 88 106
0.380819708108902 -0.08139827102422714 0.03246385604143143 213 83 109
0.3918015658855438 -0.08743961900472641 0.013194100931286812 209 79 113
0.39478355646133423 -0.08816549181938171 0.02504107356071472 208 77 115
0.4073639512062073 -0.08324375748634338 0.023026619106531143 205 73 117
0.4044804275035858 -0.07142961770296097 0.022660017013549805 203 71 119
0.40531477332115173 -0.07118918001651764 0.019587432965636253 200 68 122
0.4158517122268677 -0.07769043743610382 0.028211768716573715 198 65 124
0.39699116349220276 -0.08010517060756683 0.018604887649416924 189 55 132
0.40647032856941223 -0.0759044736623764 0.022978151217103004 190 56 131
0.4233504831790924 -0.07827111333608627 0.015681542456150055 190 56 131
0.42827102541923523 -0.07446002215147018 0.020762339234352112 194 61 128
0.4326057434082031 -0.07125234603881836 0.022584283724427223 189 55 132
0.4284549951553345 -0.06546684354543686 0.021074628457427025 180 45 141
0.46109539270401 -0.0486307293176651 0.03215485066175461 170 36 148
0.48988789319992065 -0.026761358603835106 0.034228842705488205 167 33 151
0.5053407549858093 -0.012019018642604351 0.035275593400001526 163 29 153
0.5074338912963867 4.355789496912621e-05 0.03550422564148903 167 33 151
0.5008267164230347 0.016112754121422768 0.0200274046510458 169 35 149
0.5001264214515686 0.013555353507399559 0.01551875937730074 178 44 142
0.49152830243110657 0.010657524690032005 0.011277069337666035 188 54 133
0.4807601273059845 0.013747971504926682 0.008466214872896671 197 64 125
0.4681277275085449 0.0010739635908976197 0.002573230769485235 207 75 116
0.4772219955921173 -0.009195404127240181 -0.0028754558879882097 162 28 154
0.4704742431640625 -0.019802456721663475 -0.005737318657338619 212 82 110
0.4653097987174988 -0.02267751283943653 -0.002632441697642207 159 26 155
0.4458850622177124 -0.008904939517378807 -0.013285932131111622 212 82 110
0.4210314452648163 -0.028910331428050995 -0.013565757311880589 212 82 110
0.4417838454246521 -0.038071732968091965 -0.006993473973125219 209 79 113
0.4602981507778168 -0.04396326467394829 -0.01404933724552393 210 80 112
0.47679951786994934 -0.01726820133626461 0.0014701095642521977 209 78 114
0.4934856593608856 -0.0032714721746742725 0.021996548399329185 210 80 112
0.5112982988357544 0.012324345298111439 0.021423691883683205 169 35 149
0.5235186219215393 0.01992189511656761 0.022022496908903122 211 81 111
0.5455285310745239 0.021389111876487732 0.03167285397648811 214 85 109
0.549359917640686 0.03844336420297623 0.025860760360956192 211 81 111
0.5497917532920837 0.044270552694797516 0.01805388182401657 207 75 116
0.5629810690879822 0.04269823059439659 0.03322220593690872 158 25 156
0.5668110251426697 0.05574068799614906 0.023384109139442444 144 14 163
0.5626643896102905 0.05785541608929634 0.009123686701059341 140 10 164
0.5753244757652283 0.057337138801813126 0.01653953827917576 130 4 167
0.5774662494659424 0.06058672443032265 0.017211128026247025 127 3 167
0.5767554640769958 0.05418004095554352 0.014408915303647518 129 4 167
0.5775267481803894 0.070834219455719 0.02321052923798561 129 4 167
0.5865443348884583 0.06353804469108582 0.010158445686101913 129 4 167
0.6112622022628784 0.08574878424406052 0.03309869393706322 126 3 167
0.6118950843811035 0.10144857317209244 0.03384135663509369 129 4 167
0.6249104142189026 0.10348259657621384 0.036233123391866684 137 8 165
0.6506586074829102 0.08835428953170776 0.03513471037149429 130 4 167
0.672400712966919 0.08997657150030136 0.05286039412021637 123 2 168
0.6735450625419617 0.11263710260391235 0.0639977678656578 123 2 168
0.6769517064094543 0.11418762058019638 0.07201077044010162 124 2 167
0.679163932800293 0.098981574177742 0.059796299785375595 126 3 167
0.668384313583374 0.0799746885895729 0.06788233667612076 126 3 167
0.6756935119628906 0.04367869347333908 0.05081845819950104 127 3 167
0.6434941291809082 0.03224848210811615 0.05498400703072548 132 5 166
0.6543650031089783 0.04733595624566078 0.06951881945133209 129 4 167
0.6782205700874329 0.062237698584795 0.08459839969873428 129 4 167
0.6916376948356628 0.10333467274904251 0.09089387953281403 130 4 167
0.6907950639724731 0.12525349855422974 0.08818227797746658 130 4 167
0.6777838468551636 0.10875106602907181 0.05001559853553772 178 44 142
0.6507626175880432 0.10186232626438141 0.04706057906150818 133 6 166
0.636422336101532 0.06826924532651901 0.04505326971411705 150 18 160
0.6342390775680542 0.06844044476747513 0.029587162658572197 124 2 167
0.6206550002098083 0.05221020430326462 0.021775227040052414 124 2 167
0.6023367047309875 0.047315169125795364 -0.0010141485836356878 123 2 168
0.5816749334335327 0.04098552092909813 0.0030977868009358644 121 1 168
0.5704911947250366 0.013952061533927917 -0.008204706013202667 117 0 168
0.55030757188797 0.015037701465189457 -0.0317208506166935 115 0 168
0.5187823176383972 0.02013411931693554 -0.04169253632426262 109 0 168
0.4957144856452942 0.012424848042428493 -0.043141838163137436 104 0 167
0.47638270258903503 0.0047112274914979935 -0.04187814146280289 108 0 168
0.4638926088809967 0.008920099586248398 -0.03486024588346481 112 0 168
0.4713045656681061 -0.005915818735957146 -0.029808975756168365 115 0 168
0.4678141474723816 0.006419641897082329 -0.03624768182635307 115 0 168
0.4695473313331604 0.013082201592624187 -0.030604243278503418 115 0 168
0.4710296094417572 0.01136364322155714 -0.016659516841173172 118 1 168
0.4699179232120514 0.02097647450864315 -0.02110603265464306 120 1 168
0.44522354006767273 0.012475637719035149 -0.031527046114206314 120 1 168
0.4257090985774994 0.010620681568980217 -0.034569840878248215 118 1 168
0.41701540350914 0.0006136138690635562 -0.05191674828529358 115 0 168
0.4145040214061737 -0.024877088144421577 -0.05111121013760567 114 0 168
0.4121890664100647 -0.02749393694102764 -0.058645058423280716 111 0 168
0.42939427495002747 -0.02577105164527893 -0.052197009325027466 112 0 168
0.44347766041755676 -0.011709388345479965 -0.02751341089606285 112 0 168
0.44448310136795044 0.0024305686820298433 -0.0251252930611372 112 0 168
0.4389364421367645 -0.005136695224791765 -0.027873655781149864 114 0 168
0.41928306221961975 -0.028251418843865395 -0.04602640122175217 117 0 168
0.369179904460907 -0.06591102480888367 -0.04648086428642273 118 1 168
0.3315286338329315 -0.08302504569292068 -0.04928677901625633 117 0 168
0.28447943925857544 -0.10916426032781601 -0.0666491761803627 118 1 168
0.23863168060779572 -0.12437799572944641 -0.07509265094995499 120 1 168
0.22375385463237762 -0.1472606509923935 -0.08372791111469269 121 1 168
0.20230406522750854 -0.1562175303697586 -0.08843856304883957 118 1 168
0.19265525043010712 -0.16273555159568787 -0.08408362418413162 115 0 168
0.18775057792663574 -0.15478262305259705 -0.08443793654441833 114 0 168
0.2036760002374649 -0.14095741510391235 -0.07602933794260025 111 0 168
0.20943133533000946 -0.136527881026268 -0.06823138892650604 103 0 167
0.215678870677948 -0.13112862408161163 -0.06750716269016266 101 0 167
0.23254400491714478 -0.13056418299674988 -0.07468514144420624 100 0 167
0.23957322537899017 -0.14014726877212524 -0.06291384994983673 100 0 167
0.24035100638866425 -0.13889378309249878 -0.0635499358177185 100 0 167
0.21395032107830048 -0.13650940358638763 -0.054509807378053665 100 0 167
0.23241883516311646 -0.1292593628168106 -0.049889881163835526 98 0 166
0.24922214448451996 -0.12120755761861801 -0.048937343060970306 97 0 166
0.24939393997192383 -0.11723864078521729 -0.04896562546491623 98 0 166
0.2578352689743042 -0.1111057922244072 -0.033895041793584824 100 0 167
0.2685156762599945 -0.09740329533815384 -0.03687038645148277 101 0 167
0.24770523607730865 -0.10478347539901733 -0.043130356818437576 104 0 167
0.24342581629753113 -0.1162370815873146 -0.052614595741033554 104 0 167
0.22836779057979584 -0.11371712386608124 -0.05859240144491196 100 0 167
0.21855738759040833 -0.13025148212909698 -0.05483654513955116 92 0 165
0.2080952227115631 -0.12689954042434692 -0.06878779828548431 89 1 164
0.2017432302236557 -0.12972582876682281 -0.07714895904064178 101 0 167
0.2172994762659073 -0.12509773671627045 -0.07751258462667465 109 0 168
0.22493436932563782 -0.10643179714679718 -0.07733750343322754 112 0 168
0.2584514021873474 -0.09773870557546616 -0.06528465449810028 112 0 168
0.2990858852863312 -0.08118240535259247 -0.061023373156785965 120 1 168
0.31238964200019836 -0.07418482005596161 -0.049583930522203445 126 3 167
0.296735942363739 -0.0632486566901207 -0.042267631739377975 130 4 167
0.28081414103507996 -0.05611327663064003 -0.05094243586063385 130 4 167
0.2747584283351898 -0.05483453348278999 -0.05327121168375015 136 7 165
0.2618650794029236 -0.06350726634263992 -0.05542726069688797 149 17 161
0.24757789075374603 -0.057266611605882645 -0.06219472363591194 155 23 158
0.27850839495658875 -0.04161619395017624 -0.03304150700569153 157 24 157
0.2951629161834717 -0.031848423182964325 -0.037801992148160934 158 25 156
0.28081145882606506 -0.05619096755981445 -0.045599181205034256 165 31 151
0.24256430566310883 -0.0880923643708229 -0.05837706848978996 167 33 151
0.2257409244775772 -0.10583839565515518 -0.045101750642061234 167 33 151
0.21171517670154572 -0.12727661430835724 -0.05307038500905037 167 33 151
0.18542025983333588 -0.1525726318359375 -0.06195054203271866 170 36 148
0.1250617802143097 -0.17923182249069214 -0.09364251792430878 170 36 148
0.09855285286903381 -0.19478441774845123 -0.09263463318347931 175 40 144
0.10126017779111862 -0.20550979673862457 -0.08315499871969223 182 47 139
0.09092729538679123 -0.21647585928440094 -0.07442265003919601 184 50 137
0.0246000774204731 -0.22880207002162933 -0.09018412977457047 189 55 132
-0.012563076801598072 -0.2399672567844391 -0.1082221195101738 193 60 128
-0.050107378512620926 -0.2721100151538849 -0.11084331572055817 194 61 128
-0.0755324512720108 -0.2831338346004486 -0.09454457461833954 195 62 127
-0.11981194466352463 -0.29152733087539673 -0.10152750462293625 195 62 127
-0.1618710607290268 -0.3111039996147156 -0.12120287120342255 188 54 133
-0.1788254827260971 -0.3208061158657074 -0.12986285984516144 185 51 136
-0.18265582621097565 -0.3356062173843384 -0.14225108921527863 190 56 131
-0.21200346946716309 -0.3574482500553131 -0.13329976797103882 204 72 118
-0.28372663259506226 -0.378253310918808 -0.13313613831996918 209 79 113
-0.37764599919319153 -0.3880317807197571 -0.15684287250041962 216 88 106
-0.4425618350505829 -0.3982408344745636 -0.16004087030887604 221 95 101
-0.46654269099235535 -0.40232759714126587 -0.15322493016719818 229 108 91
-0.46574077010154724 -0.4159044325351715 -0.15792924165725708 236 119 84
-0.48387792706489563 -0.40682703256607056 -0.1520281285047531 237 123 81
-0.5144491195678711 -0.39381900429725647 -0.1539517343044281 240 128 77
-0.5290839076042175 -0.40054556727409363 -0.13799959421157837 235 118 84
-0.5677366852760315 -0.3898380398750305 -0.1418948769569397 235 118 84
-0.5990558862686157 -0.3915098011493683 -0.15286365151405334 229 107 92
-0.6140370965003967 -0.40668296813964844 -0.14264746010303497 237 123 81
-0.6372103095054626 -0.4011809527873993 -0.1420067399740219 229 107 92
-0.638307511806488 -0.40900230407714844 -0.142699733376503 238 124 80
-0.6419732570648193 -0.41579440236091614 -0.12676437199115753 237 121 82
-0.6344017386436462 -0.4291268587112427 -0.12547823786735535 239 125 79
-0.6311925649642944 -0.43117621541023254 -0.12751202285289764 237 121 82
-0.6283532381057739 -0.42894303798675537 -0.11893456429243088 240 128 77
-0.6267107725143433 -0.4113759398460388 -0.10935574024915695 243 135 72
-0.6319312453269958 -0.3883854150772095 -0.10876356810331345 237 121 82
-0.6273497939109802 -0.39321422576904297 -0.09584053605794907 236 120 83
-0.6361545920372009 -0.397366464138031 -0.08619016408920288 237 121 82
-0.6255292296409607 -0.40203040838241577 -0.08940484374761581 235 118 84
-0.6118427515029907 -0.4259098768234253 -0.09377852082252502 232 113 88
-0.611816942691803 -0.4150969088077545 -0.08874563127756119 229 107 92
-0.6046005487442017 -0.41752326488494873 -0.0911252498626709 228 106 93
-0.5987477898597717 -0.4179825484752655 -0.09547775983810425 225 101 96
-0.5960323214530945 -0.41900119185447693 -0.09384859353303909 221 95 101
-0.6103555560112 -0.4097870886325836 -0.09441833943128586 218 90 104
-0.614155113697052 -0.41619619727134705 -0.0969209149479866 215 87 107
-0.625031054019928 -0.41201072931289673 -0.1051754355430603 218 90 104
-0.6254116296768188 -0.4121896028518677 -0.1047973558306694 217 89 105
-0.6277651190757751 -0.41030001640319824 -0.11061599850654602 219 91 103
-0.6305221319198608 -0.4055951237678528 -0.1147342249751091 218 90 104
-0.6358922123908997 -0.3979637324810028 -0.09371615946292877 215 87 107
-0.6404125094413757 -0.3895094096660614 -0.10058722645044327 218 90 104
-0.6309970021247864 -0.39480215311050415 -0.09368206560611725 220 94 102
-0.6230126619338989 -0.39281129837036133 -0.08782312273979187 220 93 102
-0.6212459206581116 -0.40724894404411316 -0.08582846075296402 218 90 104
-0.6107432246208191 -0.40984877943992615 -0.0823749527335167 220 94 102
-0.6061331033706665 -0.4128383696079254 -0.09569577127695084 218 90 104
-0.6007565855979919 -0.4138185679912567 -0.08499272167682648 219 91 103
-0.599441647529602 -0.40131667256355286 -0.0820169672369957 218 90 104
-0.5947140455245972 -0.41683122515678406 -0.08156763017177582 219 91 103
-0.5901829600334167 -0.4258330166339874 -0.07993044704198837 216 88 106
-0.5873228311538696 -0.43000274896621704 -0.08348382264375687 199 66 123
-0.5872289538383484 -0.42816615104675293 -0.07279665023088455 215 86 108
-0.5807914137840271 -0.43472352623939514 -0.06650210916996002 219 91 103
-0.5742154717445374 -0.431058794260025 -0.07611869275569916 219 91 103
-0.5615091323852539 -0.44951048493385315 -0.0652347281575203 218 90 104
-0.5679852962493896 -0.44878023862838745 -0.06082918122410774 215 87 107
-0.5667446255683899 -0.45745131373405457 -0.05897650867700577 213 83 109
-0.565819263458252 -0.4653506577014923 -0.0711933821439743 213 83 109
-0.572493851184845 -0.45839980244636536 -0.0689418762922287 213 83 109
-0.5712873935699463 -0.46264156699180603 -0.05669373273849487 213 83 109
-0.582164466381073 -0.45933735370635986 -0.053348004817962646 215 87 107
-0.5982866883277893 -0.46274900436401367 -0.05936188995838165 217 89 105
-0.6128103137016296 -0.4666304886341095 -0.05540146306157112 217 89 105
-0.6143544912338257 -0.47717687487602234 -0.050120092928409576 217 89 105
-0.6077719926834106 -0.4873010814189911 -0.04820948839187622 217 89 105
-0.6063936352729797 -0.4894489049911499 -0.0548023022711277 217 89 105
-0.6026140451431274 -0.5039790868759155 -0.05755455791950226 215 87 107
-0.6037935018539429 -0.5055564641952515 -0.049535349011421204 215 86 108
-0.6012250185012817 -0.5051755905151367 -0.05948840454220772 210 80 112
-0.5980969071388245 -0.5086905360221863 -0.059599701315164566 211 81 111
-0.5950998663902283 -0.49948734045028687 -0.0670354813337326 210 80 112
-0.5986143946647644 -0.4910171329975128 -0.08432196825742722 210 80 112
-0.6007387638092041 -0.48506981134414673 -0.09120666980743408 212 82 110
-0.606468677520752 -0.4700908958911896 -0.09956306219100952 215 87 107
-0.6030769944190979 -0.46832266449928284 -0.10319092869758606 217 89 105
-0.6060079336166382 -0.4639984667301178 -0.10992913693189621 217 89 105
-0.5965902209281921 -0.4613038897514343 -0.11283572018146515 217 89 105
-0.5926188826560974 -0.4660909175872803 -0.1019645407795906 213 83 109
-0.5944177508354187 -0.47008374333381653 -0.10257380455732346 210 80 112
-0.5932983756065369 -0.4747198820114136 -0.10775663703680038 211 81 111
-0.5970495939254761 -0.472625195980072 -0.11278057843446732 213 83 109
-0.5845337510108948 -0.4821564853191376 -0.11506858468055725 213 83 109
-0.5711944103240967 -0.4965275228023529 -0.11815031617879868 215 86 108
-0.5719977021217346 -0.49192237854003906 -0.11848556995391846 215 87 107
-0.5741481184959412 -0.4783559739589691 -0.1236056312918663 215 86 108
-0.5750986337661743 -0.476878821849823 -0.13000020384788513 215 86 108
-0.5719084143638611 -0.4767332077026367 -0.12614624202251434 207 75 116
-0.5709908604621887 -0.48158735036849976 -0.12685321271419525 202 70 120
-0.5665096640586853 -0.4878872334957123 -0.13082337379455566 201 69 121
-0.5596663951873779 -0.49582117795944214 -0.12808392941951752 203 71 119
-0.5549324154853821 -0.5040414333343506 -0.12718552350997925 203 71 119
-0.549052357673645 -0.5118510127067566 -0.12587842345237732 199 66 123
-0.5466963648796082 -0.524836540222168 -0.1259552538394928 201 69 121
-0.5474631786346436 -0.5262680053710938 -0.11806798726320267 195 62 127
-0.5476031303405762 -0.525189220905304 -0.11786943674087524 196 63 126
-0.5344239473342896 -0.5293664932250977 -0.1239887997508049 206 74 117
-0.5353022217750549 -0.5257185101509094 -0.12226322293281555 208 77 115
-0.5243101716041565 -0.5260088443756104 -0.11587060242891312 209 78 114
-0.5085572600364685 -0.5228310227394104 -0.10916242748498917 209 79 113
-0.49514755606651306 -0.5202180743217468 -0.11060258001089096 212 82 110
-0.4646088778972626 -0.5252999663352966 -0.10897022485733032 215 87 107
-0.42374029755592346 -0.5306821465492249 -0.1064104288816452 212 82 110
-0.41057246923446655 -0.5232973694801331 -0.09507051855325699 208 77 115
-0.3968409597873688 -0.5202904343605042 -0.08563889563083649 209 78 114
-0.4115612804889679 -0.51749587059021 -0.0988011509180069 208 77 115
-0.4255387485027313 -0.5185388326644897 -0.10108613967895508 209 78 114
-0.4334176778793335 -0.525444507598877 -0.10522308945655823 215 86 108
-0.4394127428531647 -0.5255430936813354 -0.09472320228815079 217 89 105
-0.42820435762405396 -0.5346187949180603 -0.08674263209104538 217 89 105
-0.41719794273376465 -0.538337767124176 -0.08758510649204254 215 87 107
-0.4160079061985016 -0.5354454517364502 -0.08921041339635849 209 78 114
-0.3979075253009796 -0.5383100509643555 -0.0892191007733345 204 72 118
-0.394768625497818 -0.5306332111358643 -0.0887969508767128 202 70 120
-0.38923346996307373 -0.5257394909858704 -0.08637013286352158 203 71 119
-0.3839638829231262 -0.5252652168273926 -0.09214460849761963 202 70 120
-0.38647764921188354 -0.5248936414718628 -0.0907473936676979 197 64 125
-0.40388014912605286 -0.5344235897064209 -0.09645262360572815 195 62 127
-0.4269717335700989 -0.539198637008667 -0.0986391082406044 193 60 128
-0.41974249482154846 -0.5456029772758484 -0.08865812420845032 190 56 131
-0.39189833402633667 -0.5533943772315979 -0.07261370867490768 187 53 134
-0.3693467080593109 -0.557500422000885 -0.08254256844520569 185 51 136
-0.35244932770729065 -0.5662310719490051 -0.07455193996429443 183 48 138
-0.3521150052547455 -0.5617228746414185 -0.07263074070215225 184 50 137
-0.35540154576301575 -0.552365779876709 -0.07601600885391235 185 51 136
-0.3352033793926239 -0.5479814410209656 -0.06994354724884033 184 50 137
-0.31041157245635986 -0.5455523133277893 -0.06440889835357666 182 47 139
-0.26833221316337585 -0.5420311093330383 -0.05057172104716301 207 75 116
-0.2319406121969223 -0.5352966785430908 -0.03872417286038399 210 80 112
-0.21986865997314453 -0.5339018702507019 -0.0343802273273468 184 50 137
-0.2206060290336609 -0.5339546799659729 -0.01788952946662903 183 48 138
-0.21164089441299438 -0.5408065915107727 -0.010660459287464619 184 50 137
-0.1763468086719513 -0.5473257303237915 -0.01406981609761715 184 50 137
-0.150107279419899 -0.5457701086997986 0.0024049216881394386 184 50 137
-0.10483704507350922 -0.5372060537338257 0.016165759414434433 185 51 136
-0.05402085930109024 -0.5344647765159607 0.04937242344021797 191 57 130
-0.0389133021235466 -0.5135504007339478 0.05644536390900612 195 62 127
-0.0466347374022007 -0.5298485159873962 0.0782611221075058 202 70 120
-0.04041989520192146 -0.5288982391357422 0.08173748105764389 203 71 119
-0.0753263533115387 -0.5322794914245605 0.08513566106557846 202 70 120
-0.06814649701118469 -0.5400110483169556 0.08420097082853317 201 69 121
-0.06757429242134094 -0.5403338670730591 0.08764305710792542 203 71 119
-0.10752341151237488 -0.5503317713737488 0.07677237689495087 204 72 118
-0.11709826439619064 -0.5667445063591003 0.09105812013149261 206 74 117
-0.15918178856372833 -0.5762389302253723 0.08914567530155182 212 82 110
-0.19649355113506317 -0.6117425560951233 0.12134075164794922 217 89 105
-0.2702752947807312 -0.6184580326080322 0.13484935462474823 218 90 104
-0.3116309344768524 -0.6317837238311768 0.1179979145526886 218 90 104
-0.2857131063938141 -0.6349590420722961 0.1178693175315857 218 90 104
-0.2714981436729431 -0.6335740089416504 0.11857546120882034 220 94 102
-0.31389108300209045 -0.661377489566803 0.10650457441806793 220 94 102
-0.36987751722335815 -0.6527732014656067 0.10339851677417755 220 94 102
-0.3888392150402069 -0.6585360765457153 0.07737118005752563 220 94 102
-0.40256428718566895 -0.6675413250923157 0.0720832496881485 220 93 102
-0.427511602640152 -0.6764381527900696 0.0795995369553566 220 94 102
-0.4912872910499573 -0.6734201312065125 0.0625002384185791 220 94 102
-0.5508397221565247 -0.6602467894554138 0.05231131985783577 220 93 102
-0.6123161315917969 -0.6391103863716125 0.01756744086742401 219 91 103
-0.6297892332077026 -0.6278718709945679 0.015386919490993023 218 90 104
-0.6404588222503662 -0.621732771396637 0.020228751003742218 219 91 103
-0.652581512928009 -0.6187524795532227 0.019372716546058655 219 91 103
-0.6642962098121643 -0.611546516418457 0.014152983203530312 217 89 105
-0.6692987084388733 -0.617913544178009 0.025049475952982903 220 93 102
-0.68763667345047 -0.621349573135376 0.03542119637131691 220 93 102
-0.6887043118476868 -0.6202823519706726 0.05905507504940033 219 91 103
-0.6885334253311157 -0.624931812286377 0.06954434514045715 220 93 102
-0.6716727614402771 -0.6506490111351013 0.07743015140295029 220 93 102
-0.682354748249054 -0.635998010635376 0.08750452101230621 219 91 103
-0.6834864020347595 -0.6292640566825867 0.07478916645050049 220 93 102
-0.7000879049301147 -0.620113730430603 0.053839124739170074 221 95 101
-0.7109289765357971 -0.6028110384941101 0.04586803540587425 222 96 100
-0.7075485587120056 -0.600178599357605 0.041302651166915894 223 97 99
-0.6808201670646667 -0.6243768334388733 0.03645892068743706 223 97 99
-0.691892147064209 -0.6036033034324646 0.01626577228307724 223 97 99
-0.6757642030715942 -0.6111369132995605 0.008388284593820572 221 95 101
-0.6641141772270203 -0.6157693862915039 0.0031091286800801754 222 96 100
-0.6673721075057983 -0.5934056043624878 -0.005439614411443472 225 101 96
-0.6438410878181458 -0.6105079054832458 0.003068475751206279 223 98 98
-0.6220569610595703 -0.623155415058136 0.0055337026715278625 227 103 95
-0.6334022879600525 -0.6233371496200562 -0.01179546769708395 229 107 92
-0.6285429000854492 -0.6289181709289551 -0.005511454772204161 231 110 90
-0.6358397006988525 -0.6292769312858582 0.010891092009842396 229 107 92
-0.6677196621894836 -0.6101458072662354 -0.0066694640554487705 232 112 89
-0.6931467056274414 -0.578320324420929 -0.01052216999232769 232 112 89
-0.6951119303703308 -0.5764100551605225 -0.014035896398127079 219 91 103
-0.6786203384399414 -0.5812975168228149 -0.01263422705233097 213 83 109
-0.684014081954956 -0.5777490139007568 -0.011043481528759003 233 114 87
-0.6885311007499695 -0.569831371307373 -0.02256438136100769 234 116 85
-0.6893632411956787 -0.5537707209587097 -0.03264693543314934 215 87 107
-0.6894843578338623 -0.5414474606513977 -0.016752535477280617 220 93 102
-0.7016013860702515 -0.5330931544303894 -0.01104032713919878 224 100 97
-0.6927260756492615 -0.5408355593681335 -0.007645435631275177 217 89 105
-0.6846144795417786 -0.5304781198501587 -0.007922085002064705 223 98 98
-0.6682802438735962 -0.5414491295814514 0.0007761939777992666 219 91 103
-0.6700450778007507 -0.5240220427513123 0.005800116807222366 220 94 102
-0.6805495023727417 -0.5270182490348816 0.00801081769168377 206 74 117
-0.682390570640564 -0.525382936000824 -0.00895638857036829 225 101 96
-0.6750290393829346 -0.5081581473350525 -0.026927240192890167 228 106 93
-0.6595543622970581 -0.5135970711708069 -0.026070786640048027 230 109 90
-0.6759021878242493 -0.5040364861488342 -0.029153790324926376 230 109 90
-0.6728241443634033 -0.49782058596611023 -0.032447218894958496 233 114 87
-0.6640241146087646 -0.4868673086166382 -0.03850489482283592 235 118 84
-0.6596524119377136 -0.47322216629981995 -0.039949849247932434 239 125 79
-0.6595667600631714 -0.4653832018375397 -0.04728544130921364 242 132 75
-0.6456433534622192 -0.48732781410217285 -0.04373398423194885 248 152 62
-0.6286419034004211 -0.507550060749054 -0.047034233808517456 250 157 58
-0.613807737827301 -0.5373638272285461 -0.045975252985954285 249 153 61
-0.6165382862091064 -0.5375310182571411 -0.05555814504623413 251 163 55
-0.6203544735908508 -0.5234813690185547 -0.06313003599643707 252 166 53
-0.6254769563674927 -0.5160531401634216 -0.06702699512243271 251 164 54
-0.6346682906150818 -0.5092549920082092 -0.06259056180715561 249 154 60
-0.6301003098487854 -0.5068538188934326 -0.06638988107442856 250 160 57
-0.6337804794311523 -0.497999370098114 -0.06755699962377548 251 163 55
-0.6439626216888428 -0.48236581683158875 -0.0830397978425026 251 162 56
-0.6452880501747131 -0.4818063974380493 -0.09412574768066406 250 157 58
-0.6544603705406189 -0.47088873386383057 -0.10001691430807114 250 160 57
-0.6603178977966309 -0.4661267101764679 -0.09797140955924988 251 163 55
-0.6685648560523987 -0.4660259783267975 -0.09632573276758194 252 166 53
-0.6799104809761047 -0.45674124360084534 -0.10325390100479126 252 170 51
-0.6913188099861145 -0.44261759519577026 -0.1030818447470665 252 173 49
-0.6930710673332214 -0.43046602606773376 -0.10855284333229065 252 172 50
-0.7090100049972534 -0.40823403000831604 -0.10845821350812912 252 170 51
-0.7115414142608643 -0.40630874037742615 -0.10682142525911331 252 173 49
-0.7075648903846741 -0.4048583507537842 -0.11452510207891464 251 164 54
-0.7132807970046997 -0.39853987097740173 -0.12197020649909973 253 176 48
-0.7086699604988098 -0.403024286031723 -0.12303861975669861 253 181 45
-0.7013123035430908 -0.39866840839385986 -0.14112956821918488 253 181 45
-0.7027618885040283 -0.4017256796360016 -0.14025093615055084 253 181 45
-0.7079095244407654 -0.4041602313518524 -0.14098545908927917 253 178 47
-0.7069961428642273 -0.3981187641620636 -0.14452359080314636 252 172 50
-0.7098532915115356 -0.39984437823295593 -0.1488794982433319 252 169 52
-0.7119956016540527 -0.4066382646560669 -0.14494140446186066 252 173 49
-0.7119446396827698 -0.40459999442100525 -0.14853918552398682 252 173 49
-0.7035067677497864 -0.41232094168663025 -0.14479798078536987 252 173 49
-0.7080968618392944 -0.412324994802475 -0.1426236778497696 252 167 53
-0.706807017326355 -0.4118124842643738 -0.1366383284330368 245 141 69
-0.7088330984115601 -0.41788676381111145 -0.134249746799469 244 137 71
-0.7078264355659485 -0.4214935600757599 -0.1283150613307953 240 129 77
-0.7043924927711487 -0.42350903153419495 -0.13640615344047546 240 128 77
-0.7070062160491943 -0.4267634451389313 -0.14205151796340942 238 124 80
-0.7121742963790894 -0.42408981919288635 -0.14800827205181122 237 123 81
-0.7151312232017517 -0.4156852066516876 -0.15503932535648346 237 123 81
-0.7180759310722351 -0.39861810207366943 -0.15235477685928345 236 120 83
-0.7198308110237122 -0.3910474181175232 -0.15374986827373505 233 114 87
-0.7240108847618103 -0.38689279556274414 -0.14541363716125488 232 113 88
-0.7309357523918152 -0.3881831467151642 -0.143614262342453 230 109 90
-0.7271680235862732 -0.3901951014995575 -0.14003875851631165 229 108 91
-0.7316510677337646 -0.3900936543941498 -0.13157208263874054 229 108 91
-0.7316837310791016 -0.39172157645225525 -0.1312810182571411 229 108 91
-0.7336353063583374 -0.38930684328079224 -0.12911894917488098 226 102 96
-0.7323294281959534 -0.3832070529460907 -0.1275753527879715 226 102 96
-0.7304583191871643 -0.37804660201072693 -0.12970441579818726 223 98 98
-0.7370123863220215 -0.367593914270401 -0.13100743293762207 223 97 99
-0.732367217540741 -0.361756294965744 -0.1309116631746292 222 96 100
-0.7317476868629456 -0.358734130859375 -0.1299758106470108 220 94 102
-0.7389730215072632 -0.35592490434646606 -0.1387837678194046 217 89 105
-0.7303550243377686 -0.3571881353855133 -0.13285484910011292 212 82 110
-0.7279441356658936 -0.3605707287788391 -0.13601958751678467 208 77 115
-0.7293961644172668 -0.3640260100364685 -0.13661909103393555 199 66 123
-0.7212325930595398 -0.37471991777420044 -0.14666017889976501 197 64 125
-0.7262924313545227 -0.3651342988014221 -0.1488730013370514 191 57 130
-0.7288802862167358 -0.36793798208236694 -0.15254507958889008 188 54 133
-0.7242677807807922 -0.37843239307403564 -0.15433847904205322 185 51 136
-0.7199186682701111 -0.3836717903614044 -0.14414368569850922 182 47 139
-0.7164017558097839 -0.3958767056465149 -0.12854118645191193 177 43 143
-0.723427951335907 -0.4011150002479553 -0.12661367654800415 173 38 146
-0.7122438549995422 -0.4219447076320648 -0.1229371502995491 170 36 148
-0.6951383948326111 -0.4485785961151123 -0.12100790441036224 168 34 150
-0.6816180348396301 -0.4609752893447876 -0.11457622796297073 165 31 151
-0.6567126512527466 -0.4744719862937927 -0.1109480932354927 163 29 153
-0.5921943783760071 -0.47655242681503296 -0.13326579332351685 159 26 155
-0.4998801052570343 -0.49335232377052307 -0.10794377326965332 155 23 158
-0.4201573133468628 -0.4866832494735718 -0.09708544611930847 150 18 160
-0.3695642650127411 -0.4765200912952423 -0.08465970307588577 147 16 161
-0.3421210050582886 -0.4584147334098816 -0.09071493148803711 143 13 163
-0.2676473557949066 -0.45663151144981384 -0.07804345339536667 142 12 164
-0.2498568445444107 -0.4202645719051361 -0.06949666887521744 114 0 168
-0.19819258153438568 -0.40188276767730713 -0.05354626476764679 120 1 168
-0.13320140540599823 -0.3720480501651764 -0.0310212429612875 123 2 168
-0.10910211503505707 -0.3476466238498688 -0.02008608728647232 120 1 168
-0.03791973367333412 -0.36022570729255676 -0.0035047882702201605 112 0 168
0.03360786661505699 -0.34671539068222046 0.01908445917069912 104 0 167
0.061901409178972244 -0.33796003460884094 0.025675244629383087 104 0 167
0.10061284154653549 -0.33373549580574036 0.022618936374783516 100 0 167
0.09688367694616318 -0.32944053411483765 0.0017116190865635872 98 0 166
0.14765872061252594 -0.32730257511138916 0.018653620034456253 89 1 164
0.1771562099456787 -0.3137438893318176 0.06027980148792267 90 0 165
0.13886721432209015 -0.29398879408836365 0.04669845104217529 89 1 164
0.1469750851392746 -0.32051435112953186 0.05062001571059227 89 1 164
0.12260408699512482 -0.3319303095340729 0.07024496793746948 87 1 164
0.08869931846857071 -0.344046950340271 0.0748080387711525 87 1 164
0.09283126145601273 -0.35248321294784546 0.07697735726833344 90 0 165
0.11444667726755142 -0.3411315679550171 0.06827172636985779 90 0 165
0.16684465110301971 -0.33358585834503174 0.07348392903804779 89 1 164
0.13610269129276276 -0.3297300636768341 0.06938068568706512 87 1 164
0.11794501543045044 -0.33691370487213135 0.046073101460933685 84 1 163
0.10259760171175003 -0.33396396040916443 0.032659534364938736 81 1 162
0.08462750911712646 -0.34323057532310486 0.05495729297399521 74 2 160
0.12385441362857819 -0.31613320112228394 0.08636848628520966 73 2 159
0.15552586317062378 -0.3022995889186859 0.08126825094223022 71 2 159
0.15947359800338745 -0.29509368538856506 0.0692351683974266 56 4 153
0.15543392300605774 -0.29508545994758606 0.062493085861206055 37 5 145
0.17631900310516357 -0.2943640351295471 0.06018080562353134 27 6 140
0.1834428459405899 -0.3015405535697937 0.08257229626178741 35 5 144
0.17401573061943054 -0.320749431848526 0.09793505817651749 43 5 148
0.18177342414855957 -0.33093830943107605 0.10831253975629807 49 4 150
0.2007070928812027 -0.33863794803619385 0.11660382151603699 59 3 154
0.22099076211452484 -0.3264476954936981 0.12069728225469589 78 2 161
0.25564783811569214 -0.30585822463035583 0.13394449651241302 89 1 164
0.2900444567203522 -0.2970053553581238 0.13426573574543 100 0 167
0.32570913434028625 -0.2704407274723053 0.14501972496509552 106 0 167
0.3460529148578644 -0.2549195885658264 0.16039791703224182 112 0 168
0.38242465257644653 -0.21005983650684357 0.14972101151943207 111 0 168
0.3946540355682373 -0.19581443071365356 0.14404873549938202 111 0 168
0.41555172204971313 -0.1807432323694229 0.14489677548408508 106 0 167
0.4058752954006195 -0.17719197273254395 0.1441805213689804 106 0 167
0.4203346371650696 -0.16682831943035126 0.1384490430355072 101 0 167
0.4113942086696625 -0.17241646349430084 0.1270989626646042 103 0 167
0.42758750915527344 -0.17392006516456604 0.13375666737556458 111 0 168
0.45400547981262207 -0.16001322865486145 0.1471705585718155 114 0 168
0.45832595229148865 -0.14892005920410156 0.15286992490291595 124 2 167
0.47467076778411865 -0.1407603621482849 0.14212113618850708 134 7 166
0.4882517457008362 -0.13416822254657745 0.1470792293548584 134 7 166
0.4909687042236328 -0.12658968567848206 0.15927723050117493 140 10 164
0.48725998401641846 -0.1123875081539154 0.1567927747964859 150 18 160
0.48618894815444946 -0.10773301124572754 0.15555910766124725 154 21 158
0.5022916793823242 -0.1013811007142067 0.1506560742855072 157 24 157
0.5015657544136047 -0.10739018768072128 0.14274777472019196 157 24 157
0.5049669742584229 -0.10472417622804642 0.1590254306793213 155 23 158
0.5212647318840027 -0.09796613454818726 0.15716330707073212 149 17 161
0.5213577151298523 -0.10576874017715454 0.158421128988266 140 10 164
0.5079033970832825 -0.11139790713787079 0.15182510018348694 134 7 166
0.5023115873336792 -0.13142701983451843 0.1503227800130844 132 5 166
0.4945058226585388 -0.1436443328857422 0.15332621335983276 132 5 166
0.4857751131057739 -0.1604023426771164 0.15045516192913055 136 7 165
0.4704746603965759 -0.16737762093544006 0.1472754031419754 142 12 164
0.4514516294002533 -0.18301928043365479 0.1458505392074585 149 17 161
0.43608930706977844 -0.21439363062381744 0.1404578536748886 154 21 158
0.42685189843177795 -0.22901058197021484 0.14677421748638153 153 20 159
0.4036136269569397 -0.2443198710680008 0.14849509298801422 149 17 161
0.40290647745132446 -0.22860874235630035 0.1501486748456955 142 12 164
0.4062580168247223 -0.22383031249046326 0.1346832811832428 137 8 165
0.3887850046157837 -0.22284696996212006 0.12273740768432617 137 8 165
0.39782294631004333 -0.20893824100494385 0.12185543030500412 140 10 164
0.3943502902984619 -0.19748935103416443 0.13268163800239563 149 17 161
0.3719117343425751 -0.19379034638404846 0.1155264675617218 164 30 152
0.32803577184677124 -0.2163536250591278 0.08944641798734665 173 38 146
0.29443857073783875 -0.25556033849716187 0.07968423515558243 180 45 141
0.30256280303001404 -0.24183635413646698 0.07561895996332169 188 54 133
0.31961920857429504 -0.2587192952632904 0.0893481969833374 199 66 123
0.3321320712566376 -0.23758208751678467 0.09421595931053162 204 72 118
0.33364829421043396 -0.22644397616386414 0.0951576977968216 203 71 119
0.35234522819519043 -0.22168458998203278 0.07863985002040863 200 68 122
0.3343227207660675 -0.2198839634656906 0.06377572566270828 204 72 118
0.3271481692790985 -0.21712036430835724 0.06151312589645386 205 73 117
0.3111916780471802 -0.21667622029781342 0.049460794776678085 205 73 117
0.2810949683189392 -0.2515568435192108 0.02593439258635044 208 77 115
0.2509962320327759 -0.2724059522151947 0.023366760462522507 209 78 114
0.23811526596546173 -0.28292736411094666 0.040204375982284546 209 79 113
0.24837979674339294 -0.27840110659599304 0.03468824177980423 209 79 113
0.25103816390037537 -0.2655014395713806 0.03345799818634987 208 77 115
0.24911850690841675 -0.2836039960384369 0.04772263765335083 209 78 114
0.24530631303787231 -0.29269346594810486 0.048504672944545746 207 75 116
0.18841543793678284 -0.3238654136657715 0.026612214744091034 206 74 117
0.11826181411743164 -0.3384328782558441 0.017802605405449867 205 73 117
0.08310100436210632 -0.35525888204574585 -0.015739737078547478 205 73 117
0.05080718174576759 -0.3609522581100464 -0.04985225945711136 204 72 118
0.02354898676276207 -0.37810495495796204 -0.05077796429395676 203 71 119
-0.002087509259581566 -0.4087735712528229 -0.04854479804635048 204 72 118
-0.02858779765665531 -0.40804576873779297 -0.039073821157217026 201 69 121
-0.021750804036855698 -0.41015511751174927 -0.04838087037205696 205 73 117
-0.032133378088474274 -0.42533984780311584 -0.057663630694150925 205 73 117
-0.05183315649628639 -0.4191424250602722 -0.053513552993535995 204 72 118
-0.04730561003088951 -0.42298033833503723 -0.0440845862030983 211 81 111
-0.05077790468931198 -0.4207706153392792 -0.03233161196112633 215 87 107
-0.04314951226115227 -0.42199304699897766 -0.043459102511405945 220 94 102
-0.06927475333213806 -0.4198468029499054 -0.03785152733325958 221 95 101
-0.023967567831277847 -0.40748628973960876 -0.02168627642095089 223 98 98
0.036598969250917435 -0.3745436668395996 -0.02313302457332611 225 101 96
0.09925629198551178 -0.3411659896373749 0.007589127402752638 231 110 90
0.1503952145576477 -0.32860323786735535 0.026095490902662277 236 119 84
0.19039832055568695 -0.32938307523727417 0.04252166301012039 235 118 84
0.22477410733699799 -0.329174280166626 0.04225577414035797 237 121 82
0.10967676341533661 -0.3809642195701599 0.02256232313811779 238 124 80
-0.00046233797911554575 -0.4696727991104126 -0.010478281415998936 237 121 82
-0.028616856783628464 -0.4630303978919983 0.031086165457963943 233 114 87
-0.13571052253246307 -0.46535903215408325 0.008611729368567467 239 125 79
-0.17069567739963531 -0.46998533606529236 -0.012181014753878117 239 125 79
-0.16433311998844147 -0.45801982283592224 -0.024564024060964584 237 123 81
-0.15396273136138916 -0.4578222334384918 -0.0022885932121425867 237 123 81
-0.14690656960010529 -0.44999951124191284 0.0032043838873505592 236 119 84
-0.13743863999843597 -0.4412044882774353 -0.008796066977083683 240 128 77
-0.15360260009765625 -0.42418068647384644 -0.02393301948904991 242 133 74
-0.14337261021137238 -0.4343579411506653 -0.007652981672435999 243 134 73
-0.10250376164913177 -0.42237117886543274 0.034979257732629776 240 129 77
-0.07800814509391785 -0.39240697026252747 0.017990829423069954 241 130 76
-0.09001131355762482 -0.3916904032230377 -0.008536706678569317 240 129 77
-0.04851166158914566 -0.3843231797218323 -0.010882848873734474 240 128 77
-0.013141975738108158 -0.3760438561439514 -0.027475539594888687 240 129 77
0.0007280704448930919 -0.384077787399292 -0.03707167133688927 242 132 75
-0.009487494826316833 -0.3897125720977783 -0.012430761009454727 243 134 73
0.004775056149810553 -0.39916953444480896 -0.009963744319975376 243 135 72
0.06650322675704956 -0.3912450969219208 0.007867955602705479 242 132 75
0.04573199152946472 -0.3884408175945282 -0.0009386073797941208 243 135 72
0.012597517110407352 -0.38671237230300903 -0.026030873879790306 244 137 71
0.022174760699272156 -0.4039585292339325 0.0060703326016664505 245 139 70
0.059647493064403534 -0.39866819977760315 0.022212475538253784 244 138 71
0.0976044312119484 -0.39363616704940796 0.01812806911766529 245 139 70
0.1316772997379303 -0.36096930503845215 0.04261079803109169 243 135 72
