ply
format ascii 1.0
element vertex 678
property float x
property float y
property float z
property uchar red
property uchar green
property uchar blue
end_header
0.4204171895980835 0.41117843985557556 0.38446372747421265 209 78 114
0.31853508949279785 0.23584997653961182 0.4538430869579315 207 75 116
0.1349221020936966 0.2217235118150711 0.02267107367515564 202 70 120
0.14746354520320892 0.179953932762146 0.10613078624010086 202 70 120
0.11575496941804886 0.2574252784252167 0.18443527817726135 201 69 121
-0.050664275884628296 0.06861139833927155 0.012844668701291084 200 68 122
0.053392648696899414 -0.3145993649959564 -0.5342094898223877 201 69 121
0.4364246129989624 -0.22483277320861816 -0.415968656539917 199 66 123
0.42458853125572205 -0.5182339549064636 -0.41015809774398804 198 65 124
0.33559927344322205 -0.30419403314590454 -0.34470999240875244 197 64 125
0.6113973259925842 -0.0027137312572449446 0.18496888875961304 197 64 125
0.6643095016479492 -0.04330875724554062 0.48967134952545166 199 66 123
0.6523924469947815 0.015646422281861305 0.15638650953769684 201 69 121
0.785570502281189 0.07084514200687408 0.19315534830093384 204 72 118
0.5824035406112671 -0.01905546896159649 0.3061147630214691 207 75 116
0.544646143913269 0.05767946317791939 0.4004436731338501 210 80 112
0.5959299206733704 0.22254830598831177 0.28946396708488464 209 79 113
0.5949866771697998 0.14409753680229187 0.0679900199174881 206 74 117
0.21928267180919647 0.007023449055850506 -0.036909788846969604 206 74 117
-0.07816909998655319 0.07579833269119263 -0.2205977588891983 209 79 113
0.20731566846370697 0.1035936176776886 -0.047780103981494904 206 74 117
0.5931152105331421 -0.015115107409656048 0.32573238015174866 201 69 121
0.7322496175765991 -0.04380957409739494 0.34920910000801086 200 68 122
0.8558087348937988 -0.05458003282546997 0.19871872663497925 203 71 119
0.8469728827476501 -0.20849373936653137 0.22994303703308105 206 74 117
0.7614712715148926 0.018045539036393166 0.26925376057624817 204 72 118
0.6395170092582703 0.12137097865343094 0.3291606605052948 203 71 119
0.6326896548271179 0.17211854457855225 0.34984132647514343 209 78 114
0.1853974461555481 0.2171994298696518 0.27400273084640503 220 94 102
0.3523885905742645 0.15341569483280182 0.12686198949813843 228 106 93
0.37349238991737366 0.25363439321517944 -0.16477052867412567 234 115 86
0.2952011823654175 0.23663330078125 -0.2114580124616623 234 116 85
0.3691919147968292 0.11750567704439163 -0.08722328394651413 240 129 77
0.12295711040496826 0.08771797269582748 -0.20692726969718933 245 139 70
0.26678091287612915 -0.07552295923233032 0.009956724010407925 246 145 66
0.33955880999565125 0.1552467942237854 0.02061903290450573 248 150 63
0.5297666192054749 0.0014661557506769896 -0.020992454141378403 248 149 64
0.40175098180770874 0.03872006759047508 -0.09021379798650742 248 152 62
0.04625333100557327 0.3390428125858307 -0.281974732875824 248 150 63
-0.26325732469558716 -0.1420976221561432 -0.7283101081848145 248 149 64
-0.3872202932834625 -0.3031827509403229 -0.33478406071662903 246 145 66
-0.7572524547576904 0.08150210231542587 -0.5084112286567688 248 149 64
-0.7033599019050598 0.10674422234296799 -0.5309320092201233 248 152 62
-0.5985005497932434 0.014851066283881664 -0.5985223650932312 248 152 62
-0.5581744313240051 0.0621454119682312 -0.664774477481842 248 152 62
-0.5864500999450684 -0.026479527354240417 -0.6433278918266296 248 150 63
-0.7384620308876038 -0.22840026021003723 -0.5305891633033752 247 147 65
-0.8226209878921509 -0.06723299622535706 -0.35558944940567017 247 147 65
-0.729217529296875 0.24102288484573364 -0.2570965588092804 249 153 61
-0.5176984667778015 0.5202082395553589 0.005137841682881117 247 147 65
-0.5100305080413818 0.24726161360740662 0.13379935920238495 246 142 68
-0.6239630579948425 0.2647668421268463 0.0139749301597476 243 135 72
-0.5533259510993958 0.42524081468582153 0.05364494025707245 243 134 73
-0.508094072341919 0.21010205149650574 0.014510729350149632 243 134 73
-0.6309491991996765 0.11646377295255661 -0.08675352483987808 243 135 72
-0.6597370505332947 0.09069078415632248 -0.13163161277770996 243 135 72
-0.6770433783531189 0.03915339708328247 -0.059974029660224915 243 134 73
-0.6252186298370361 0.012693153694272041 -0.07111135125160217 240 129 77
-0.5965662598609924 0.006365920417010784 -0.09219400584697723 237 123 81
-0.5917986035346985 0.06908314675092697 -0.20319046080112457 239 125 79
-0.6297856569290161 0.1374843269586563 -0.053685512393713 239 125 79
-0.47997891902923584 0.08986091613769531 0.03888515383005142 239 126 78
-0.41731274127960205 0.17055965960025787 0.22254079580307007 237 123 81
-0.13733957707881927 0.14337141811847687 0.22351185977458954 237 123 81
0.09706415235996246 0.1763106733560562 0.22758491337299347 239 125 79
0.3188755512237549 0.23549175262451172 0.1358940601348877 239 125 79
0.5522724390029907 0.054238028824329376 0.004265652038156986 239 126 78
0.3126506209373474 -0.003000092227011919 0.032569460570812225 239 125 79
0.23719391226768494 0.11097411811351776 -0.37375104427337646 241 130 76
-0.07859588414430618 0.1992151290178299 -0.5086709260940552 243 135 72
0.20393106341362 -0.3592525124549866 -0.22883883118629456 244 137 71
0.39473411440849304 -0.44651341438293457 0.37872564792633057 244 138 71
0.1849430948495865 0.05488181486725807 0.3571557402610779 244 138 71
0.32825276255607605 0.16109946370124817 0.3301087021827698 245 139 70
0.21997644007205963 -0.033504121005535126 0.35411056876182556 246 142 68
0.2511000335216522 -0.03062371537089348 0.30168071389198303 245 141 69
0.22203688323497772 0.007102442905306816 0.22406411170959473 246 143 67
0.28542667627334595 -0.11631084233522415 0.17704656720161438 246 143 67
0.24734880030155182 -0.04676833376288414 0.1656114012002945 246 145 66
0.11673112213611603 -0.17415128648281097 0.34303244948387146 247 147 65
0.2192695140838623 -0.24245162308216095 0.47870445251464844 248 149 64
0.19468025863170624 -0.2371378391981125 0.39643311500549316 247 147 65
0.19946590065956116 -0.11480233073234558 0.20310810208320618 246 143 67
0.11216559261083603 -0.13435737788677216 0.44921937584877014 246 142 68
-0.12362554669380188 -0.07226548343896866 0.4787084460258484 246 142 68
-0.3965645730495453 0.04533776640892029 0.23211142420768738 246 143 67
-0.34775248169898987 0.11330930888652802 -0.3444373309612274 246 143 67
-0.4106904864311218 -0.05083382502198219 -0.3350621461868286 247 146 65
-0.5254572629928589 -0.016895456239581108 -0.3605406880378723 246 145 66
-0.5608552694320679 -0.32542145252227783 -0.38062483072280884 239 126 78
-0.5438023209571838 -0.4513419270515442 -0.5080941319465637 237 121 82
-0.3702183961868286 -0.4765564203262329 -0.5130752921104431 239 126 78
-0.7223727107048035 -0.18928281962871552 -0.4139794111251831 237 123 81
-0.6684879660606384 -0.19240324199199677 -0.12392725795507431 237 123 81
-0.7565872073173523 0.1342729926109314 -0.16771504282951355 236 120 83
-0.6035500168800354 0.292402058839798 -0.08552366495132446 238 124 80
-0.530710756778717 0.3389934003353119 0.008252190425992012 237 121 82
-0.5584536790847778 0.396107941865921 0.057096198201179504 237 121 82
-0.6373894810676575 0.4176672101020813 0.005272124893963337 239 126 78
-0.466927707195282 0.4558561146259308 -0.017080362886190414 243 134 73
-0.5260226726531982 0.5581377744674683 -0.0601835735142231 243 134 73
-0.7474124431610107 0.34421709179878235 0.06988782435655594 240 128 77
-0.6847757697105408 0.3059461712837219 0.03069869987666607 240 128 77
-0.7080674171447754 0.28855130076408386 0.0860254243016243 242 132 75
-0.6532658934593201 0.18099436163902283 0.039114706218242645 244 137 71
-0.5095323324203491 -0.15812364220619202 -0.3282420039176941 245 141 69
-0.5054846405982971 -0.1968337744474411 -0.27298736572265625 244 138 71
-0.6348342299461365 -0.2550581097602844 -0.32911860942840576 245 139 70
-0.6506051421165466 -0.3208560049533844 -0.542087972164154 244 138 71
0.024319816380739212 -0.5492902398109436 -0.5523368716239929 243 135 72
-0.21493284404277802 -0.4664663076400757 -0.6751856207847595 244 138 71
-0.7701069116592407 0.19841426610946655 -0.43935033679008484 244 137 71
-0.5872743129730225 0.4274230897426605 0.013607124797999859 244 137 71
-0.6488482356071472 0.6425234079360962 0.0036672314163297415 244 137 71
-0.44620320200920105 0.8255414962768555 -0.17876587808132172 240 129 77
-0.5348718762397766 0.6631407141685486 -0.057800356298685074 240 129 77
-0.5976166129112244 0.44741636514663696 0.22091113030910492 240 128 77
-0.44857338070869446 0.6513752341270447 0.3175583779811859 243 134 73
-0.47502070665359497 0.6311960816383362 0.15463821589946747 234 115 86
-0.3695507347583771 0.3874664306640625 0.20086973905563354 242 132 75
-0.6759003400802612 0.34202900528907776 0.24511399865150452 242 133 74
-0.8491590023040771 0.3557904064655304 -0.038359135389328 242 132 75
-0.3038463592529297 0.6868487000465393 -0.07337544113397598 242 132 75
-0.032249629497528076 0.3305820822715759 0.2679634988307953 242 132 75
-0.3923749625682831 0.20600734651088715 0.5738924741744995 242 132 75
-0.2896813154220581 0.3571071922779083 0.5234035849571228 240 129 77
-0.06513573229312897 0.28458717465400696 0.41930338740348816 239 125 79
0.019211262464523315 0.3318880498409271 0.2662539482116699 237 123 81
-0.4023169279098511 0.19106313586235046 0.30748021602630615 236 119 84
-0.5158714652061462 0.2873329222202301 -0.029385553672909737 234 116 85
-0.655982255935669 0.31610342860221863 -0.13093845546245575 231 110 90
-0.6763643622398376 0.2163505107164383 -0.12143875658512115 223 98 98
-0.7220124006271362 0.3563673794269562 -0.14265130460262299 227 104 94
-0.6310662627220154 0.5390398502349854 -0.1242687776684761 233 114 87
-0.6078429818153381 0.3246990442276001 -0.12210287153720856 236 120 83
-0.6488000154495239 0.2951353192329407 -0.035497114062309265 233 114 87
-0.6687025427818298 0.40250590443611145 0.28213050961494446 239 126 78
-0.6238865256309509 0.5675225853919983 0.31234899163246155 237 123 81
-0.31232184171676636 0.5533247590065002 0.41657519340515137 239 126 78
-0.06016850098967552 0.693912148475647 0.40594878792762756 240 128 77
-0.1318405270576477 0.5533832907676697 0.38239628076553345 240 128 77
-0.17762459814548492 0.659747838973999 0.26991990208625793 242 132 75
-0.15753023326396942 0.7801302671432495 0.17327941954135895 242 132 75
-0.07672426849603653 0.5063600540161133 0.29028642177581787 242 132 75
-0.053549982607364655 0.5338433384895325 0.2952066957950592 241 130 76
-0.2774305045604706 0.34406933188438416 0.08376283198595047 243 134 73
-0.34458062052726746 -0.3976443409919739 -0.6556816101074219 243 134 73
-0.7739925384521484 -0.03794197365641594 -0.4497496485710144 243 135 72
-0.7297199368476868 0.1253342479467392 -0.21817761659622192 243 135 72
-0.5805081725120544 0.3058939576148987 -0.08315084129571915 243 135 72
-0.5696055293083191 0.5214986205101013 -0.031352341175079346 244 137 71
-0.5277199745178223 0.20568813383579254 -0.2672397494316101 243 135 72
-0.6032669544219971 0.1518574059009552 0.1508731245994568 237 121 82
-0.5825780034065247 0.31785106658935547 0.07884449511766434 227 104 94
-0.40013375878334045 0.3300417363643646 0.031464893370866776 223 98 98
-0.28274786472320557 0.03635645657777786 0.03799353912472725 216 88 106
-0.3411584496498108 -0.03889385238289833 0.05733485147356987 220 94 102
-0.6743386387825012 0.16170962154865265 0.0037317753303796053 217 89 105
-0.6241777539253235 0.45993176102638245 -0.016128478571772575 218 90 104
-0.4680502414703369 0.5663926601409912 -0.14260444045066833 222 96 100
-0.33160391449928284 0.6109557151794434 0.040336959064006805 219 91 103
-0.4329969882965088 0.44637197256088257 0.07006953656673431 218 90 104
-0.294574111700058 0.5437334775924683 0.2968217134475708 216 88 106
-0.2569785714149475 0.4168833792209625 0.2604010999202728 216 88 106
-0.11062949895858765 0.3828657269477844 0.2676973342895508 213 83 109
0.10394465178251266 0.33999720215797424 0.16065271198749542 210 80 112
0.08254078030586243 0.441274493932724 0.1562228500843048 209 78 114
-0.08464160561561584 0.24171428382396698 0.20538918673992157 207 75 116
-0.5839755535125732 0.47790464758872986 -0.09423292428255081 207 75 116
-0.5651759505271912 -0.3047158718109131 -0.5001165270805359 206 74 117
-0.7092012763023376 -0.02461577206850052 -0.3758837580680847 205 73 117
-0.8335770964622498 0.23925302922725677 -0.2542420029640198 207 75 116
-0.7497889399528503 0.43514055013656616 -0.16505177319049835 211 81 111
-0.6779124140739441 0.4357874393463135 0.023675033822655678 208 77 115
-0.6396089196205139 0.32072001695632935 -0.08080323785543442 213 83 109
-0.515079915523529 0.4387165904045105 -0.06994614005088806 211 81 111
-0.5612851977348328 0.12387336790561676 0.11771292984485626 210 80 112
-0.6485646367073059 0.2961478531360626 0.04499587044119835 210 80 112
-0.41106703877449036 -0.049375876784324646 -0.13520383834838867 212 82 110
0.7065679430961609 -0.19444935023784637 0.25529566407203674 210 80 112
0.6214958429336548 0.10107387602329254 0.45888203382492065 210 80 112
0.4846380650997162 0.28522923588752747 0.5382712483406067 210 80 112
0.5252731442451477 0.38217589259147644 0.4472699463367462 205 73 117
0.6026703119277954 0.3052080273628235 0.48877209424972534 201 69 121
0.48355260491371155 0.34164518117904663 0.4767821133136749 209 78 114
0.40746986865997314 0.40410029888153076 0.5980693101882935 208 77 115
0.32938724756240845 0.44603317975997925 0.5713546872138977 204 72 118
0.25979605317115784 0.49411284923553467 0.5195785760879517 195 62 127
0.21076741814613342 0.43715181946754456 0.5494007468223572 187 53 134
0.3033495843410492 0.5165337920188904 0.480202853679657 181 46 140
0.3802327811717987 0.47979381680488586 0.5013342499732971 176 42 143
0.27144137024879456 0.4213954508304596 0.47763025760650635 180 45 141
0.29922884702682495 0.404984712600708 0.4675886929035187 185 51 136
0.32639917731285095 0.3305075466632843 0.3957369923591614 185 51 136
0.377394437789917 0.22328826785087585 0.38272625207901 184 50 137
0.2705362141132355 0.27304163575172424 0.3697907030582428 184 50 137
0.31828755140304565 -0.10832968354225159 -0.08705814182758331 186 52 135
0.1802888810634613 -0.5380346179008484 -0.4945271611213684 187 53 134
0.41389602422714233 -0.5347059965133667 -0.3456442952156067 185 51 136
0.8132840394973755 -0.19559656083583832 0.18809087574481964 186 52 135
0.8251683115959167 -0.09064030647277832 0.2746879756450653 186 52 135
0.7946221828460693 -0.07678845524787903 0.307181715965271 186 52 135
0.7756583094596863 -0.01727656088769436 0.43723684549331665 192 59 129
0.8573533892631531 -0.03365638107061386 0.3570856750011444 194 61 128
0.8990610241889954 0.02717333659529686 0.2365981638431549 193 60 128
0.7014861702919006 0.24572183191776276 0.4748322665691376 194 61 128
0.43229857087135315 0.42932912707328796 0.5797157883644104 200 68 122
0.6135581731796265 0.3526343107223511 0.5908950567245483 196 63 126
0.5164297819137573 0.22417381405830383 0.44006308913230896 196 63 126
0.49039608240127563 0.19982533156871796 0.5030525326728821 195 62 127
0.4649665653705597 0.3079474866390228 0.5205590724945068 189 55 132
0.3157860040664673 0.27700889110565186 0.49911144375801086 185 51 136
0.462777704000473 0.2810901701450348 0.48242977261543274 186 52 135
0.6626502275466919 0.2046739012002945 0.45861876010894775 182 47 139
0.529926598072052 0.21005591750144958 0.5166812539100647 180 45 141
0.4611390233039856 0.3598902225494385 0.5637478828430176 173 38 146
0.541104793548584 0.4410814940929413 0.5275663733482361 170 36 148
0.48252859711647034 0.3799283504486084 0.5600374937057495 165 31 151
0.3331398665904999 0.46091654896736145 0.6063554883003235 164 30 152
0.3706422746181488 0.619555652141571 0.6068726778030396 159 26 155
0.2520940899848938 0.761031985282898 0.4491521418094635 164 30 152
0.25075727701187134 0.6223165988922119 0.4916014075279236 164 30 152
0.22092850506305695 0.6116496324539185 0.41644445061683655 162 28 154
0.2267572432756424 0.5442750453948975 0.39084988832473755 160 27 155
0.32663393020629883 0.4493424594402313 0.34347930550575256 163 29 153
0.30015483498573303 0.43591421842575073 0.31522753834724426 170 36 148
0.2655957341194153 0.4585798680782318 0.2824913263320923 174 39 145
0.3499889075756073 0.4471278786659241 0.24786493182182312 183 48 138
0.3561174273490906 0.34185945987701416 0.2523591220378876 190 56 131
0.35426169633865356 0.3612402677536011 0.26468828320503235 193 60 128
0.3183441460132599 0.41206878423690796 0.29575467109680176 193 60 128
0.3548179268836975 0.47490763664245605 0.18735834956169128 195 62 127
0.37159863114356995 0.5102312564849854 0.3172244429588318 195 62 127
0.251395046710968 0.5245288610458374 0.4454790949821472 197 64 125
0.29748550057411194 0.5492554903030396 0.5124610662460327 202 70 120
0.11457471549510956 0.6773296594619751 0.3685678541660309 203 71 119
0.362791508436203 0.7225833535194397 0.31429389119148254 205 73 117
0.26519352197647095 0.6504183411598206 0.3538537621498108 206 74 117
-0.053535379469394684 0.654335081577301 0.23040224611759186 207 75 116
-0.16444867849349976 0.6372833251953125 0.037439554929733276 214 85 109
-0.2965598702430725 0.5860549211502075 0.11865107715129852 213 83 109
-0.2393484115600586 0.5862493515014648 0.19469133019447327 213 83 109
-0.28584012389183044 0.4954933226108551 -0.05430300906300545 212 82 110
-0.5070838928222656 0.36543187499046326 -0.16637027263641357 209 79 113
-0.45117688179016113 0.24844591319561005 -0.23908109962940216 216 88 106
-0.25176766514778137 0.4318845868110657 -0.16985824704170227 218 90 104
-0.5038525462150574 0.5047624707221985 -0.17213129997253418 213 83 109
-0.5093793272972107 0.4141046106815338 -0.09927717596292496 214 85 109
-0.4609444737434387 0.38751220703125 -0.1560581773519516 215 87 107
-0.4952014088630676 0.5261930227279663 0.07445045560598373 213 83 109
-0.5492756366729736 0.6140041351318359 0.17388324439525604 209 79 113
-0.5397930145263672 0.6780242323875427 0.16754740476608276 207 75 116
-0.5352990627288818 0.6692333221435547 0.2093435823917389 203 71 119
-0.469969779253006 0.5815753936767578 0.41308218240737915 200 68 122
-0.2980463206768036 0.7130382657051086 0.45074939727783203 201 69 121
-0.27609744668006897 0.6354667544364929 0.4163820743560791 199 66 123
-0.09332669526338577 0.4568866491317749 0.4744853675365448 197 64 125
-0.06200277805328369 0.5961068868637085 0.40501418709754944 190 56 131
-0.009817607700824738 0.5536283850669861 0.43441182374954224 181 46 140
-0.1887790411710739 0.5090294480323792 0.34947437047958374 170 36 148
-0.43837422132492065 0.5372254252433777 0.18210306763648987 168 34 150
-0.44153785705566406 0.39606600999832153 0.2094414234161377 173 38 146
-0.5751413106918335 0.43659722805023193 0.18146565556526184 173 38 146
-0.26347431540489197 0.29102227091789246 0.2752498686313629 175 40 144
-0.07806216180324554 0.27711787819862366 0.29957303404808044 175 40 144
-0.10945674031972885 0.3307706117630005 0.2897185683250427 172 37 147
-0.00885520875453949 0.3540227711200714 0.20037446916103363 172 37 147
0.02751407027244568 0.262717604637146 0.27779051661491394 169 35 149
-0.07037943601608276 0.4092785120010376 0.4086230397224426 175 40 144
-0.12302134186029434 0.3416115939617157 0.2839166224002838 178 44 142
0.024549709632992744 0.17213700711727142 0.2736954987049103 177 43 143
0.30450063943862915 0.09293007105588913 0.5671675801277161 180 45 141
0.4040704369544983 0.3388845920562744 0.5747011303901672 180 45 141
0.6115913391113281 0.31279805302619934 0.3791302740573883 181 46 140
0.7953059673309326 -0.168091282248497 0.20356246829032898 175 40 144
0.7861913442611694 -0.007983074523508549 0.41043025255203247 175 40 144
0.64316326379776 0.14182189106941223 0.41314566135406494 176 42 143
0.3055528998374939 0.2762468159198761 0.4302694797515869 176 42 143
0.24305783212184906 0.2555150091648102 0.24821801483631134 176 42 143
0.327131986618042 0.1540946066379547 0.15466491878032684 176 42 143
0.2691279649734497 0.12176846712827682 0.28915947675704956 175 40 144
0.10551080107688904 0.22540481388568878 0.28398850560188293 174 39 145
0.10006538033485413 -0.1545841246843338 -0.20565050840377808 174 39 145
0.31017962098121643 -0.5333857536315918 -0.43091946840286255 177 43 143
0.784884512424469 -0.22987641394138336 0.17061889171600342 174 39 145
0.7239199876785278 -0.03040609322488308 0.3027723431587219 176 42 143
0.6683918833732605 0.09444873034954071 0.3334258794784546 176 42 143
0.6262246966362 0.057701464742422104 0.1837768703699112 185 51 136
0.6395800709724426 0.2971414625644684 0.04722011089324951 188 54 133
0.4353692829608917 0.26658934354782104 0.04507873207330704 191 57 130
0.5545535683631897 0.15881481766700745 0.34411436319351196 193 60 128
0.620955765247345 0.11680608242750168 0.3220002055168152 188 54 133
0.32154953479766846 0.23950831592082977 0.29522407054901123 174 39 145
0.29854610562324524 0.1878073811531067 -0.09669317305088043 163 29 153
0.3933917284011841 0.10035885870456696 0.16074106097221375 159 26 155
0.2224932461977005 0.1451255828142166 0.11736369878053665 158 25 156
0.35972273349761963 0.016687946394085884 0.31703388690948486 159 26 155
0.6549246907234192 -0.032597195357084274 0.32602375745773315 162 28 154
0.7118309736251831 -0.04333530366420746 0.2070152461528778 160 27 155
0.6123937964439392 -0.03445824608206749 0.2771376073360443 178 44 142
0.7462297081947327 -0.03319546580314636 0.27223339676856995 151 19 160
0.8269059062004089 -0.08740531653165817 0.1832294464111328 146 15 162
0.7989779710769653 0.02547408640384674 0.08817316591739655 143 13 163
0.7631447315216064 0.06288134306669235 0.048815395683050156 144 14 163
0.6167857646942139 -0.14927847683429718 -0.053350359201431274 147 16 161
0.29153338074684143 -0.024075061082839966 -0.15851478278636932 150 18 160
0.12526935338974 0.09332137554883957 0.11431501805782318 155 23 158
-0.022709550336003304 0.2547232210636139 -0.05048908293247223 159 26 155
0.26561838388442993 0.03651593625545502 0.08045308291912079 157 24 157
0.2763082683086395 -0.2039462774991989 -0.1616245061159134 153 20 159
0.501526415348053 -0.20997053384780884 -0.058319032192230225 155 23 158
0.020122023299336433 -0.20373526215553284 0.053883615881204605 155 23 158
-0.2244393676519394 -0.29289570450782776 -0.5114785432815552 154 21 158
0.0784694254398346 -0.5514261722564697 -0.5393206477165222 155 23 158
0.13355061411857605 -0.5618547797203064 -0.5241845846176147 155 23 158
0.2554623782634735 -0.5595770478248596 -0.44882047176361084 155 23 158
0.6027979850769043 -0.44324517250061035 -0.12632150948047638 155 23 158
0.7068074345588684 -0.3299552798271179 0.09212897717952728 150 18 160
0.7149595022201538 -0.17099840939044952 0.3447518050670624 146 15 162
0.718237578868866 -0.054173387587070465 0.2549382150173187 144 14 163
0.63162761926651 0.01939559169113636 0.22252728044986725 143 13 163
0.646209716796875 -0.03595106676220894 0.24161078035831451 140 10 164
0.7750457525253296 -0.0923909917473793 0.25111719965934753 134 7 166
0.6861161589622498 -0.1075441762804985 0.20786231756210327 130 4 167
0.4166676700115204 0.03359323367476463 0.18382269144058228 130 4 167
0.39500659704208374 0.10279228538274765 0.09768703579902649 127 3 167
0.4622115194797516 0.020938698202371597 0.09041527658700943 132 5 166
0.23824317753314972 -0.3624275028705597 -0.05831165611743927 143 13 163
-0.033796943724155426 -0.6367704272270203 -0.49630802869796753 144 14 163
-0.33918607234954834 -0.6534455418586731 -0.5001004338264465 140 10 164
0.7645372152328491 -0.35541799664497375 0.11362382769584656 142 12 164
0.8013383150100708 -0.20409271121025085 0.17016035318374634 142 12 164
0.7866960763931274 -0.08762149512767792 0.24344591796398163 144 14 163
0.7766996622085571 -0.056588925421237946 0.3031117618083954 151 19 160
0.8276009559631348 -0.0034765242598950863 0.2833206355571747 146 15 162
0.7572851777076721 0.012309564277529716 0.295596718788147 126 3 167
0.734064519405365 0.02232157438993454 0.29739436507225037 111 0 168
0.718347430229187 -0.03401472419500351 0.30647897720336914 124 2 167
0.6577616333961487 0.04041371867060661 0.3394712209701538 126 3 167
0.5672276616096497 0.07562707364559174 0.23276765644550323 121 1 168
0.5829595327377319 -0.08274410665035248 0.2344449907541275 123 2 168
0.6867383122444153 -0.27377504110336304 0.09597822278738022 132 5 166
0.758704423904419 -0.2760425806045532 -0.09827746450901031 139 9 164
0.5962885022163391 -0.3202119469642639 0.05252658948302269 130 4 167
0.798502504825592 -0.07011807709932327 0.28194600343704224 127 3 167
0.7980853319168091 0.0025076866149902344 0.3030141294002533 133 6 166
0.8069755434989929 0.0467282198369503 0.18444418907165527 143 13 163
0.792955219745636 0.03523017838597298 0.14488272368907928 144 14 163
0.7748319506645203 -0.026865383610129356 0.22393977642059326 140 10 164
0.7856541872024536 -0.030773628503084183 0.24877971410751343 140 10 164
0.7560421824455261 -0.04911772906780243 0.3010375499725342 140 10 164
0.7612290978431702 -0.05380823463201523 0.3081122040748596 127 3 167
0.7804206013679504 -0.05664406716823578 0.25781136751174927 126 3 167
0.7845416069030762 -0.07944406569004059 0.24402979016304016 130 4 167
0.796245276927948 -0.0886802077293396 0.25297656655311584 121 1 168
0.7930784225463867 -0.0973665863275528 0.2614338994026184 109 0 168
0.8041711449623108 -0.08071863651275635 0.30069154500961304 120 1 168
0.8033308386802673 -0.08581723272800446 0.29630348086357117 139 9 164
0.770613431930542 -0.051425784826278687 0.3983128070831299 168 34 150
0.7713351845741272 0.002665783278644085 0.4024142026901245 192 59 129
0.7557438611984253 0.04844269901514053 0.3285680115222931 202 70 120
0.7372323274612427 0.038568589836359024 0.3165138363838196 207 75 116
0.691025972366333 -0.0032794864382594824 0.2835938632488251 208 77 115
0.7171528339385986 0.03342704102396965 0.2923974096775055 205 73 117
0.7450103759765625 -0.01390111818909645 0.2764160633087158 209 78 114
0.7878997325897217 -0.11915450543165207 0.291185587644577 202 70 120
0.8096801042556763 -0.13260696828365326 0.2552868127822876 203 71 119
0.8052123785018921 -0.11384333670139313 0.27377989888191223 204 72 118
0.7846813797950745 -0.07346788793802261 0.33654332160949707 202 70 120
0.7295758128166199 0.06473248451948166 0.4044033885002136 196 63 126
0.685968279838562 0.21199463307857513 0.3829078674316406 190 56 131
0.601616621017456 0.3534819781780243 0.3808145523071289 189 55 132
0.6081353425979614 0.29624974727630615 0.4070826768875122 193 60 128
0.5159984827041626 0.42676833271980286 0.3844045400619507 196 63 126
0.4334270656108856 0.5472978949546814 0.4125934839248657 192 59 129
0.4793825149536133 0.48529645800590515 0.49821045994758606 192 59 129
0.6976314187049866 0.19469060003757477 0.4898514151573181 192 59 129
0.6865405440330505 0.17465846240520477 0.5376559495925903 190 56 131
0.6594625115394592 0.1756279319524765 0.3995235562324524 190 56 131
0.7376081943511963 -0.03749336302280426 0.3130947947502136 193 60 128
0.7866465449333191 -0.10168097168207169 0.2982127070426941 191 57 130
0.8020612001419067 -0.11543097347021103 0.2475716471672058 184 50 137
0.7835835218429565 -0.10596196353435516 0.23826627433300018 173 38 146
0.7802392244338989 -0.07623466104269028 0.2413794994354248 154 21 158
0.7902376055717468 0.012568969279527664 0.2725163996219635 159 26 155
0.7755542397499084 0.12280306965112686 0.2070436179637909 157 24 157
0.6999853253364563 0.24091766774654388 0.09606736153364182 160 27 155
0.5151281952857971 0.17856727540493011 -0.02919631451368332 158 25 156
0.6105644106864929 -0.12134729325771332 0.1691860556602478 159 26 155
0.6890600323677063 -0.031415510922670364 0.29937466979026794 154 21 158
0.8206000328063965 -0.05998299643397331 0.23439395427703857 142 12 164
0.7969281673431396 -0.10108021646738052 0.31043094396591187 149 17 161
0.7655066847801208 -0.09166271239519119 0.3343270719051361 154 21 158
0.7271378636360168 -0.08490236103534698 0.31198614835739136 164 30 152
0.761387050151825 -0.1113176941871643 0.3196163475513458 170 36 148
0.7887634038925171 -0.07346130162477493 0.27262383699417114 181 46 140
0.7811458706855774 -0.04262403026223183 0.2598568797111511 187 53 134
0.7748721241950989 -0.09004916250705719 0.2950878441333771 186 52 135
0.7915177941322327 -0.08452115207910538 0.3047581613063812 189 55 132
0.802404522895813 -0.04732206091284752 0.27993568778038025 191 57 130
0.8116338849067688 -0.028622357174754143 0.25008654594421387 190 56 131
0.7974067330360413 0.006508047692477703 0.2352822721004486 188 54 133
0.7732493281364441 -0.00581563962623477 0.23250198364257812 191 57 130
0.7475569844245911 -0.004523338284343481 0.27631187438964844 188 54 133
0.7365498542785645 0.04570167884230614 0.3057698905467987 186 52 135
0.7656430602073669 0.018483608961105347 0.3194322884082794 185 51 136
0.7509538531303406 0.08847089111804962 0.2424381673336029 180 45 141
0.613508403301239 0.15042825043201447 0.21586821973323822 176 42 143
0.6260761022567749 0.07244641333818436 0.322849303483963 180 45 141
0.654421329498291 0.10553918033838272 0.420712411403656 182 47 139
0.5980414748191833 0.17919139564037323 0.4188387393951416 183 48 138
0.6862860918045044 0.2229945808649063 0.4210442006587982 187 53 134
0.6844065189361572 0.1505189836025238 0.4464308023452759 191 57 130
0.6762832999229431 0.037360887974500656 0.4818271994590759 193 60 128
0.6576187610626221 0.048460278660058975 0.45963412523269653 197 64 125
0.6635674834251404 0.08474773913621902 0.42285817861557007 201 69 121
0.7023034691810608 0.03793715313076973 0.3592907786369324 204 72 118
0.7293058633804321 0.049818772822618484 0.32662689685821533 207 75 116
0.7343878746032715 0.042607661336660385 0.2642419934272766 210 80 112
0.683760404586792 0.21167875826358795 0.3851815462112427 214 85 109
0.5620606541633606 0.2537609040737152 0.2042742818593979 214 85 109
0.34844091534614563 0.31424880027770996 0.22330975532531738 214 85 109
0.5934372544288635 -0.13805881142616272 0.3958183228969574 216 88 106
0.7705179452896118 -0.0763992890715599 0.34658730030059814 218 90 104
0.7753848433494568 -0.027511315420269966 0.3591586947441101 220 93 102
0.7125958204269409 0.020335104316473007 0.40369755029678345 223 98 98
0.682071328163147 0.09408329427242279 0.34486496448516846 221 95 101
0.6997121572494507 0.040040139108896255 0.2818623483181 217 89 105
0.6656466722488403 0.044141657650470734 0.28494614362716675 221 95 101
0.6660210490226746 0.016910981386899948 0.25330236554145813 221 95 101
0.7041994333267212 -0.015971394255757332 0.3200521767139435 226 102 96
0.6898189187049866 -0.02665320597589016 0.3285547196865082 228 106 93
0.6601334810256958 0.0715009942650795 0.3147510588169098 230 109 90
0.7228022217750549 0.07422883808612823 0.3679230809211731 227 104 94
0.746383547782898 0.08676048368215561 0.4029759168624878 217 89 105
0.7381048798561096 0.18594706058502197 0.28776007890701294 214 85 109
0.6786478757858276 0.13884861767292023 0.29391753673553467 208 77 115
0.581624448299408 0.08863932639360428 0.2467156946659088 204 72 118
0.6349402666091919 0.10229168832302094 0.2138541042804718 201 69 121
0.725494384765625 0.0663732960820198 0.2936902642250061 202 70 120
0.7846609354019165 0.019219843670725822 0.30263277888298035 201 69 121
0.7813589572906494 0.08191404491662979 0.2369442880153656 200 68 122
0.7067478895187378 0.07246533036231995 0.37769588828086853 195 62 127
0.7139933705329895 0.032778676599264145 0.3404304087162018 182 47 139
0.700127363204956 0.08273301273584366 0.348402202129364 175 40 144
0.5980483293533325 0.13614267110824585 0.31277766823768616 174 39 145
0.6241693496704102 0.08597999066114426 0.3371756076812744 173 38 146
0.6887161731719971 0.07606301456689835 0.30624544620513916 184 50 137
0.7144293189048767 -0.009192431345582008 0.2683104872703552 196 63 126
0.738135814666748 -0.06608422845602036 0.30399733781814575 203 71 119
0.7937828898429871 -0.11949831992387772 0.24846674501895905 204 72 118
0.7758239507675171 -0.08045802265405655 0.22148485481739044 205 73 117
0.7664754986763 -0.10644201934337616 0.1973467767238617 203 71 119
0.8026402592658997 -0.11250779777765274 0.2587924003601074 204 72 118
0.8205676078796387 -0.1037609875202179 0.21432778239250183 202 70 120
0.7824097871780396 -0.11387505382299423 0.2403414249420166 203 71 119
0.779319703578949 -0.15981903672218323 0.2559954822063446 207 75 116
0.8054273128509521 -0.14597249031066895 0.27368906140327454 210 80 112
0.8192539215087891 -0.09661401063203812 0.25046223402023315 215 86 108
0.7962762713432312 -0.09919916838407516 0.25940582156181335 216 88 106
0.7934504747390747 -0.11195283383131027 0.2897978723049164 216 88 106
0.803023099899292 -0.11301403492689133 0.2514003813266754 218 90 104
0.7946150302886963 -0.10445206612348557 0.2585129737854004 222 96 100
0.7897506356239319 -0.08903747797012329 0.2461918145418167 229 108 91
0.7806390523910522 -0.026697510853409767 0.2423025518655777 232 112 89
0.7811577320098877 -0.07694859057664871 0.2424570918083191 234 115 86
0.7787317633628845 -0.08099481463432312 0.3416347801685333 232 113 88
0.656241238117218 0.021391594782471657 0.40122291445732117 233 114 87
0.5520871877670288 0.1472795456647873 0.4760132133960724 234 116 85
0.6993376016616821 0.22694575786590576 0.4055936634540558 234 115 86
0.6865572929382324 0.3533897399902344 0.35654786229133606 231 110 90
0.5699014663696289 0.24144215881824493 0.39387768507003784 227 103 95
0.4178173243999481 0.14517813920974731 0.5083743929862976 228 106 93
0.14663366973400116 0.359310507774353 0.436514288187027 221 95 101
0.48269394040107727 0.1990751475095749 0.3684456944465637 215 87 107
0.637947678565979 0.06358347833156586 0.5167974829673767 217 89 105
0.6877017021179199 0.04652384668588638 0.37809547781944275 222 96 100
0.6857272386550903 -0.055158983916044235 0.41077321767807007 226 102 96
0.6970571279525757 0.007543165236711502 0.3731893301010132 230 109 90
0.7234982848167419 0.011666628532111645 0.3132215440273285 234 115 86
0.7219571471214294 -0.042383331805467606 0.2510523200035095 235 118 84
0.6645181775093079 -0.037072136998176575 0.25757327675819397 232 112 89
0.6298020482063293 -0.004621623083949089 0.34381839632987976 229 108 91
0.6311497688293457 -0.047589004039764404 0.20355670154094696 228 106 93
0.6276785135269165 -0.046299371868371964 0.3106617331504822 230 109 90
0.7263299822807312 -0.09431245923042297 0.27744725346565247 231 110 90
0.8070182204246521 -0.06956706941127777 0.01527163665741682 225 101 96
0.7222112417221069 -0.10288380831480026 0.15075834095478058 222 96 100
0.6638244390487671 -0.04055378586053848 0.17410138249397278 219 91 103
0.6453877687454224 0.07057458907365799 0.16051536798477173 218 90 104
0.6622625589370728 -0.07132966071367264 0.2846442461013794 216 88 106
0.7776020765304565 -0.054688096046447754 0.21266478300094604 216 88 106
0.7637422680854797 -0.11871896684169769 0.11421748995780945 215 86 108
0.7349154949188232 -0.17794476449489594 0.1911788135766983 217 89 105
0.7956333756446838 -0.1160292848944664 0.21230308711528778 216 88 106
0.796312153339386 -0.10233801603317261 0.18981599807739258 215 87 107
0.7455664873123169 -0.1282890886068344 0.24459858238697052 214 85 109
0.7761973738670349 -0.12978582084178925 0.20945130288600922 211 81 111
0.7731147408485413 -0.16720528900623322 0.1305321305990219 211 81 111
0.7840490341186523 -0.14682063460350037 0.18859726190567017 209 79 113
0.7915940284729004 -0.14959929883480072 0.032792072743177414 208 77 115
0.7238572239875793 -0.25871095061302185 0.032393455505371094 208 77 115
0.49239903688430786 -0.4882245659828186 -0.3208431005477905 209 79 113
0.1684122234582901 -0.561039924621582 -0.5109438300132751 207 75 116
0.13355061411857605 -0.5618547797203064 -0.5241845846176147 205 73 117
0.30855393409729004 -0.5595042109489441 -0.4232112765312195 206 74 117
0.7566847205162048 -0.34469878673553467 0.06988171488046646 207 75 116
0.8023597002029419 -0.20595227181911469 0.16852252185344696 211 81 111
0.7686213254928589 -0.10074348002672195 0.22577901184558868 214 85 109
0.6863135099411011 -0.017072787508368492 0.1837315708398819 213 83 109
0.5895435810089111 0.03887859731912613 0.18170419335365295 209 79 113
0.5953772068023682 -0.08499106019735336 0.12291964143514633 208 77 115
0.5838697552680969 -0.11233577132225037 0.27694806456565857 205 73 117
0.34704554080963135 0.0851152315735817 0.29387277364730835 200 68 122
0.3579099476337433 0.043782997876405716 0.4662001132965088 196 63 126
0.5380286574363708 -0.034228499978780746 0.40772026777267456 188 54 133
0.45967182517051697 -0.15089139342308044 0.4357679486274719 181 46 140
0.7149693965911865 -0.11836382001638412 0.33993566036224365 177 43 143
0.7831319570541382 -0.01995621621608734 0.25554487109184265 176 42 143
0.7694995999336243 -0.06496551632881165 0.16047105193138123 182 47 139
0.763906717300415 -0.16281583905220032 0.26201099157333374 184 50 137
0.7568575739860535 -0.1262502670288086 0.22387075424194336 187 53 134
0.7632271647453308 -0.14917463064193726 0.14411750435829163 192 59 129
0.7836155295372009 -0.14265111088752747 0.19241297245025635 191 57 130
0.7915940284729004 -0.14959929883480072 0.032792072743177414 189 55 132
0.7082593441009521 -0.2549181282520294 0.01343444362282753 196 63 126
0.13404615223407745 -0.4386175274848938 -0.5981224775314331 199 66 123
-0.6962289214134216 -0.25039032101631165 -0.3918966054916382 199 66 123
-0.7576864361763 0.08497954905033112 -0.00048379405052401125 205 73 117
0.46653515100479126 0.22432075440883636 0.40145570039749146 207 75 116
0.6235231757164001 0.24065710604190826 0.15973520278930664 213 83 109
0.42658621072769165 0.00672350637614727 0.07168931514024734 221 95 101
0.34384673833847046 -0.12289899587631226 0.05912650749087334 227 104 94
0.650700569152832 -0.2744446098804474 0.12302885204553604 228 106 93
0.7982652187347412 -0.13750050961971283 0.08773266524076462 220 93 102
0.42521002888679504 0.0077180275693535805 -0.036413151770830154 223 97 99
-0.07839149981737137 0.16801224648952484 -0.26411277055740356 225 101 96
-0.3171347975730896 0.11707618832588196 -0.3060957193374634 229 107 92
-0.2947831451892853 0.28953707218170166 0.09287657588720322 229 108 91
0.3205307126045227 -0.22030438482761383 0.46884748339653015 237 123 81
0.4628497362136841 0.008341972716152668 0.19999170303344727 244 137 71
0.46099185943603516 0.11386247724294662 0.1193591058254242 242 132 75
0.1902746856212616 0.044441889971494675 -0.10406653583049774 247 146 65
0.34431055188179016 -0.08391105383634567 -0.014789463020861149 249 153 61
0.2141469269990921 0.1620965600013733 0.18368811905384064 245 141 69
0.19425539672374725 0.16859129071235657 0.0952121838927269 243 134 73
0.19080987572669983 0.15356791019439697 0.25427716970443726 239 125 79
0.21026453375816345 0.1320127248764038 0.26931774616241455 234 116 85
0.3762784004211426 0.04218457266688347 0.3411809206008911 236 119 84
0.37757909297943115 0.14099785685539246 0.3034789562225342 236 119 84
0.704986572265625 -0.05258483439683914 0.23653541505336761 237 121 82
0.7411050200462341 -0.043023914098739624 0.3629744350910187 239 126 78
0.6927340626716614 0.0528547465801239 0.26136234402656555 242 133 74
0.6793806552886963 -0.06927219778299332 0.3186018168926239 245 139 70
0.6979930996894836 -0.07730366289615631 0.3688327372074127 248 149 64
0.7207480669021606 -0.008391404524445534 0.281326562166214 249 153 61
0.7337120771408081 -0.018946142867207527 0.23023459315299988 248 152 62
0.5800268054008484 -0.01767788641154766 0.031393975019454956 248 152 62
-0.5860500335693359 0.07554035633802414 -0.2551572918891907 247 147 65
-0.1658933162689209 0.46327733993530273 0.23817555606365204 245 139 70
0.37402278184890747 0.31531307101249695 0.1445206254720688 243 134 73
0.3819996416568756 0.06544672697782516 -0.022982191294431686 243 134 73
0.5844721794128418 -0.3215618133544922 0.18030023574829102 243 134 73
0.3598286807537079 0.04444791376590729 0.05929969623684883 244 137 71
0.4797397553920746 0.11594583094120026 -0.03611309453845024 245 139 70
0.4952053427696228 -0.04982747137546539 0.1381808966398239 245 139 70
0.22399765253067017 0.2881905138492584 0.35904431343078613 244 138 71
-0.20195192098617554 0.6079829931259155 0.05203571915626526 244 138 71
-0.036980316042900085 0.46552610397338867 0.028565460816025734 244 138 71
-0.06374785304069519 0.32915326952934265 0.19542327523231506 245 141 69
-0.009697149507701397 0.4459065794944763 0.32497116923332214 247 147 65
0.10967779904603958 0.5342780351638794 0.1179896742105484 250 157 58
0.2723900377750397 0.5190600156784058 0.019299177452921867 251 162 56
0.438249796628952 0.251646488904953 0.1906840205192566 252 166 53
0.37598034739494324 0.2284652143716812 0.2843588590621948 252 167 53
0.5641590356826782 0.08214136958122253 0.20140612125396729 252 167 53
0.6448079347610474 0.10538282245397568 0.25840792059898376 251 164 54
0.7802051305770874 -0.13473962247371674 0.07215114682912827 251 164 54
0.6474528312683105 -0.3422884941101074 0.17355521023273468 251 162 56
0.06889238208532333 0.032561056315898895 0.0245590191334486 251 162 56
-0.016719304025173187 0.01725536212325096 -0.22404533624649048 251 162 56
0.02090567909181118 0.023637065663933754 -0.30169975757598877 251 164 54
0.24951410293579102 -0.3228297233581543 -0.6002037525177002 251 163 55
0.21156719326972961 0.07508866488933563 -0.3207724988460541 251 164 54
6.058848521206528e-05 0.09598448872566223 -0.438416063785553 252 166 53
-0.15388327836990356 -0.06567666679620743 -0.22683581709861755 252 166 53
-0.6203464865684509 -0.05524424463510513 -0.3137057423591614 251 163 55
-0.8026498556137085 0.2073242962360382 -0.27528873085975647 251 164 54
-0.6877056360244751 0.3136661946773529 -0.08048906922340393 251 164 54
-0.6952846646308899 0.3222924470901489 -0.14142224192619324 250 160 57
-0.7252817749977112 0.30006304383277893 -0.25158029794692993 250 157 58
-0.7110774517059326 0.2971654534339905 -0.1387719362974167 250 156 59
-0.5361259579658508 0.4953776001930237 0.005080343224108219 250 157 58
-0.5920382142066956 0.5662185549736023 -0.2392471879720688 251 163 55
-0.7093576788902283 0.3949964642524719 -0.31984564661979675 252 166 53
-0.6547433137893677 0.25997933745384216 -0.346145898103714 252 167 53
-0.7058968544006348 0.23917779326438904 -0.11295957118272781 252 166 53
-0.787152886390686 0.17815853655338287 -0.14936579763889313 252 167 53
-0.8250111937522888 -0.004363075364381075 -0.4224483370780945 252 169 52
-0.5023817420005798 -0.16895726323127747 -0.708741307258606 252 167 53
-0.6707621812820435 0.255203515291214 -0.4971192181110382 249 154 60
-0.7996522784233093 0.12357520312070847 -0.24401098489761353 245 139 70
-0.8049315214157104 0.21393772959709167 -0.16501718759536743 237 123 81
-0.7578096389770508 0.3898999094963074 -0.16427460312843323 230 109 90
-0.7438298463821411 0.43734923005104065 -0.1373635232448578 223 97 99
-0.710283637046814 0.3263404667377472 -0.033740539103746414 222 96 100
-0.6546837687492371 0.38435259461402893 -0.10398495942354202 220 93 102
-0.6186254024505615 0.3485841453075409 -0.010004679672420025 218 90 104
-0.601261556148529 0.4061984419822693 -0.0264725498855114 220 94 102
-0.7505505681037903 0.3306490480899811 -0.043255191296339035 222 96 100
-0.738922655582428 0.25942522287368774 -0.09518386423587799 223 97 99
-0.7236946225166321 0.28052979707717896 -0.13277380168437958 219 91 103
-0.6912826299667358 0.16253773868083954 -0.09194732457399368 223 97 99
-0.8066310286521912 0.24194061756134033 -0.15678469836711884 223 97 99
-0.6362416744232178 0.21423952281475067 -0.11180194467306137 222 96 100
-0.4765067994594574 0.1006033793091774 -0.00485276198014617 223 98 98
-0.6663505434989929 0.15312187373638153 -0.20492585003376007 230 109 90
-0.41081151366233826 0.07314789295196533 0.20746050775051117 232 113 88
-0.6302593350410461 0.2179698944091797 0.06199399754405022 235 118 84
-0.4820314943790436 0.05999087914824486 0.0221247598528862 236 119 84
-0.5245169997215271 -0.027088724076747894 0.05840975046157837 235 118 84
-0.293866902589798 0.04536720737814903 0.14737898111343384 234 116 85
-0.19171583652496338 -0.0814291387796402 0.21802236139774323 232 113 88
-0.17859458923339844 -0.22636838257312775 0.1575009822845459 230 109 90
-0.2704165279865265 -0.04182468354701996 0.24636392295360565 227 104 94
-0.04201171174645424 -0.0009405189193785191 0.2488432675600052 224 100 97
-0.0660596713423729 0.0024519329890608788 0.3103683590888977 225 101 96
0.019333411008119583 0.13663196563720703 0.059313852339982986 223 98 98
-0.2168537676334381 0.09813779592514038 0.02456291764974594 223 97 99
-0.22123844921588898 0.4971107542514801 0.2552322447299957 223 97 99
-0.47559070587158203 0.5454344749450684 -0.03796575590968132 223 98 98
-0.6133871674537659 0.3321678340435028 0.19051465392112732 224 100 97
-0.7292129397392273 0.3281158208847046 0.31196826696395874 227 104 94
-0.675524890422821 0.39134860038757324 -0.03544415533542633 230 109 90
-0.5844812393188477 0.1388559639453888 -0.1396462619304657 228 106 93
-0.6351763606071472 0.07741199433803558 -0.33152008056640625 223 97 99
-0.7695192694664001 0.16908931732177734 -0.5131169557571411 219 91 103
-0.4439879059791565 0.2542839050292969 -0.5161563754081726 217 89 105
-0.4054672420024872 0.16794058680534363 -0.5461952686309814 215 87 107
-0.5046612024307251 0.17586319148540497 -0.3813614547252655 213 83 109
-0.609333872795105 0.032662104815244675 -0.37448298931121826 209 78 114
-0.6474078297615051 0.07474751025438309 -0.11163153499364853 203 71 119
-0.5290358662605286 0.05583930015563965 -0.021316813305020332 197 64 125
-0.5497230291366577 0.12171552330255508 -0.07037340104579926 192 59 129
-0.3612060546875 0.1900181621313095 0.04488367959856987 189 55 132
-0.4668794870376587 0.0055981907062232494 0.08164262026548386 187 53 134
-0.7235807776451111 0.20919190347194672 -0.0648571029305458 185 51 136
-0.45593997836112976 0.47958672046661377 -0.05054820328950882 184 50 137
-0.3209587633609772 0.3565845787525177 0.20952074229717255 182 47 139
-0.20643991231918335 0.26388049125671387 0.10338262468576431 177 43 143
-0.08631859719753265 0.25278571248054504 0.30600979924201965 174 39 145
0.06939273327589035 0.18398483097553253 0.4863128960132599 169 35 149
0.3671724796295166 -0.11299436539411545 0.4662098288536072 165 31 151
0.010672221891582012 -0.1060967817902565 0.12833037972450256 159 26 155
-0.2359856516122818 0.03911924734711647 0.09752295911312103 157 24 157
-0.21287627518177032 0.0107706468552351 -0.04812765121459961 157 24 157
-0.07077006250619888 -0.1583741307258606 0.14682237803936005 151 19 160
0.0443265326321125 -0.008569967932999134 0.2594459652900696 149 17 161
-0.01250162348151207 -0.1369718462228775 0.20517748594284058 142 12 164
-0.012395868077874184 -0.16278032958507538 0.2796856760978699 136 7 165
0.0600556805729866 -0.14056703448295593 0.43382999300956726 133 6 166
0.3450692594051361 -0.06500843912363052 0.3396162688732147 130 4 167
0.2262236326932907 -0.03380795940756798 0.420957088470459 127 3 167
0.12795597314834595 -0.015465469099581242 0.32359322905540466 120 1 168
0.07117614150047302 -0.3357907831668854 0.19176000356674194 118 1 168
0.09883732348680496 -0.4323493540287018 0.23596233129501343 115 0 168
0.06267137825489044 -0.32324427366256714 -0.10374677181243896 115 0 168
0.06946893036365509 -0.015273060649633408 0.11216244846582413 117 0 168
-0.6172475814819336 -0.07899915426969528 -0.3861059546470642 121 1 168
-0.5603430867195129 -0.23919671773910522 -0.6990782022476196 126 3 167
-0.11186639964580536 -0.4195055663585663 -0.36286142468452454 130 4 167
0.172218456864357 -0.6239475607872009 -0.0007078543421812356 136 7 165
0.3817123472690582 -0.4420166611671448 0.5854217410087585 139 9 164
0.483917236328125 0.0050411163829267025 0.4030047059059143 142 12 164
0.5546039938926697 -0.4030495584011078 0.013774923048913479 144 14 163
0.344123899936676 -0.61216139793396 -0.060014255344867706 147 16 161
0.10879586637020111 -0.10679319500923157 0.02498435415327549 149 17 161
0.5904484391212463 -0.12875166535377502 -0.12637262046337128 149 17 161
