ply
format ascii 1.0
element vertex 665
property float x
property float y
property float z
property uchar red
property uchar green
property uchar blue
end_header
-0.15682613849639893 0.10164342075586319 0.4305017590522766 199 66 123
-0.1345541924238205 0.08850365877151489 0.43746912479400635 198 65 124
-0.12014756351709366 0.07667643576860428 0.4469046890735626 194 61 128
-0.11782719939947128 0.06469792127609253 0.4433704912662506 189 55 132
-0.11174380034208298 0.06385195255279541 0.46015673875808716 194 61 128
-0.10070833563804626 0.04614552482962608 0.4619205594062805 199 66 123
-0.08592798560857773 0.029769916087388992 0.47074708342552185 198 65 124
-0.09158783406019211 0.044715769588947296 0.4742768704891205 198 65 124
-0.10988452285528183 0.06830425560474396 0.47013571858406067 198 65 124
-0.13091343641281128 0.08096157014369965 0.4674783945083618 198 65 124
-0.1466149538755417 0.09814029186964035 0.46122732758522034 199 66 123
-0.14647404849529266 0.1068614199757576 0.4574356973171234 199 66 123
-0.14691206812858582 0.11294568330049515 0.44852885603904724 200 68 122
-0.1613083779811859 0.11316607892513275 0.44147706031799316 200 68 122
-0.17049464583396912 0.10947577655315399 0.44082126021385193 199 66 123
-0.16785092651844025 0.1190153956413269 0.4372030794620514 200 68 122
-0.16084542870521545 0.12210439145565033 0.4350963532924652 199 66 123
-0.1509288102388382 0.11603027582168579 0.44022974371910095 200 68 122
-0.15800301730632782 0.11403239518404007 0.43575987219810486 199 66 123
-0.18391567468643188 0.13735182583332062 0.41910311579704285 197 64 125
-0.20611250400543213 0.1620568186044693 0.40217092633247375 195 62 127
-0.2121542990207672 0.1778545081615448 0.3872605562210083 195 62 127
-0.21195600926876068 0.18182902038097382 0.38439375162124634 195 62 127
-0.21830880641937256 0.17783889174461365 0.3824010193347931 195 62 127
-0.22679170966148376 0.18282398581504822 0.37526819109916687 197 64 125
-0.22188560664653778 0.19056150317192078 0.3744437098503113 198 65 124
-0.21188309788703918 0.1711929887533188 0.3871012032032013 198 65 124
-0.2055666595697403 0.16217750310897827 0.39279288053512573 198 65 124
-0.20110566914081573 0.15066662430763245 0.3893528878688812 198 65 124
-0.20849300920963287 0.14754430949687958 0.38620197772979736 198 65 124
-0.2036551982164383 0.14912621676921844 0.3814866840839386 197 64 125
-0.19118055701255798 0.14458343386650085 0.38982582092285156 198 65 124
-0.16922685503959656 0.11940901726484299 0.4045156240463257 201 69 121
-0.154624804854393 0.10896175354719162 0.4175134301185608 201 69 121
-0.18314597010612488 0.13156099617481232 0.40092745423316956 200 68 122
-0.21733132004737854 0.17312093079090118 0.38464877009391785 199 66 123
-0.2247917652130127 0.18754033744335175 0.3744131326675415 199 66 123
-0.2230217456817627 0.1840391755104065 0.37999820709228516 198 65 124
-0.21552325785160065 0.17492830753326416 0.3938124477863312 199 66 123
-0.2148159146308899 0.17174117267131805 0.3982755243778229 202 70 120
-0.2154865264892578 0.17535316944122314 0.40265953540802 203 71 119
-0.21409709751605988 0.16937090456485748 0.41644737124443054 204 72 118
-0.16891144216060638 0.12662504613399506 0.44989344477653503 204 72 118
-0.12412475049495697 0.09779196232557297 0.480284184217453 207 75 116
-0.10925913602113724 0.07800362259149551 0.4945422410964966 210 80 112
-0.1281905621290207 0.08871706575155258 0.49225911498069763 214 85 109
-0.13364417850971222 0.110258087515831 0.48938411474227905 216 88 106
-0.1527794450521469 0.11421579867601395 0.48334622383117676 220 93 102
-0.15782171487808228 0.10070791095495224 0.4868617057800293 220 94 102
-0.15367917716503143 0.1092466413974762 0.48300087451934814 220 94 102
-0.1427542120218277 0.1011163517832756 0.4854470193386078 220 94 102
-0.1376507431268692 0.09781387448310852 0.4897008240222931 223 97 99
-0.13728252053260803 0.09737250953912735 0.4902326762676239 227 104 94
-0.1339232623577118 0.08999735862016678 0.480692982673645 229 107 92
-0.12273242324590683 0.07191352546215057 0.48419907689094543 233 114 87
-0.12125415354967117 0.0738038644194603 0.4947255849838257 237 123 81
-0.10884668678045273 0.06730644404888153 0.4969634413719177 234 116 85
-0.10500747710466385 0.0782722681760788 0.5090779066085815 229 107 92
-0.1122903972864151 0.07571789622306824 0.5107903480529785 230 109 90
-0.0901670828461647 0.05223756656050682 0.515224277973175 241 130 76
-0.06632537394762039 0.04363292455673218 0.5253438949584961 239 126 78
-0.051617588847875595 0.03456830605864525 0.5353476405143738 240 129 77
-0.041434403508901596 0.01868651621043682 0.5407847166061401 240 128 77
-0.017996229231357574 0.0068935067392885685 0.5448446273803711 238 124 80
-0.025111140683293343 -0.01269903127104044 0.5366738438606262 236 120 83
-0.03906788304448128 -0.002667327644303441 0.5303506255149841 232 113 88
-0.027344370260834694 0.011182454414665699 0.5343502759933472 221 95 101
-0.027128318324685097 0.010798336006700993 0.5328324437141418 215 86 108
-0.02106568031013012 -0.011475658044219017 0.5334336757659912 208 77 115
-0.013590107671916485 -0.029367949813604355 0.5403138995170593 199 66 123
-0.007360834162682295 -0.03675387054681778 0.5430105924606323 197 64 125
-0.006669228430837393 -0.0238367710262537 0.5471760630607605 198 65 124
-0.008073067292571068 -0.015994394198060036 0.5428688526153564 187 53 134
-0.007714118342846632 -0.021361881867051125 0.5430924296379089 181 46 140
-0.026533761993050575 -0.004252495244145393 0.5386908054351807 175 40 144
-0.031013518571853638 -0.007686741184443235 0.534333348274231 175 40 144
-0.016698576509952545 -0.01955541782081127 0.5356545448303223 157 24 157
0.01043158769607544 -0.04197676107287407 0.5424425005912781 154 21 158
0.02734728530049324 -0.07766497135162354 0.5402911305427551 142 12 164
0.045445121824741364 -0.08598634600639343 0.5366834402084351 129 4 167
0.035601384937763214 -0.08627763390541077 0.5349413156509399 130 4 167
0.02284613437950611 -0.08475183695554733 0.531411349773407 127 3 167
0.0038207906764000654 -0.0637502521276474 0.5275086164474487 130 4 167
0.00596915977075696 -0.050075724720954895 0.5158609747886658 129 4 167
0.00020977405074518174 -0.05584632605314255 0.5107245445251465 130 4 167
-0.018520761281251907 -0.041398707777261734 0.5007665753364563 129 4 167
-0.02945404313504696 -0.009807698428630829 0.48228779435157776 124 2 167
-0.05635223165154457 -0.001607162761501968 0.48990699648857117 127 3 167
-0.040739838033914566 -0.014091603457927704 0.4828742444515228 124 2 167
-0.020365307107567787 0.007054343819618225 0.4775960445404053 126 3 167
0.017358915880322456 0.04510673135519028 0.49704524874687195 129 4 167
-0.0027268454432487488 0.023451274260878563 0.5016217827796936 134 7 166
0.01359638012945652 -0.011776153929531574 0.5245196223258972 143 13 163
0.011199685744941235 -0.01626073569059372 0.5318034887313843 144 14 163
-0.007891392335295677 0.007788204587996006 0.5206823348999023 143 13 163
-0.03336644917726517 0.005738232284784317 0.5192107558250427 143 13 163
-0.028844796121120453 0.03437589481472969 0.521129846572876 146 15 162
-0.03369817137718201 0.06516391038894653 0.5167418718338013 150 18 160
-0.05764441937208176 0.12233275920152664 0.4959271550178528 154 21 158
-0.12863516807556152 0.19953835010528564 0.4299885332584381 159 26 155
-0.2405577450990677 0.2795175015926361 0.28416115045547485 160 27 155
-0.29983386397361755 0.3738592863082886 0.10782382637262344 165 31 151
-0.32561764121055603 0.40680885314941406 0.03268149495124817 176 42 143
-0.32040897011756897 0.41153913736343384 0.025674542412161827 185 51 136
-0.19356459379196167 0.42550721764564514 0.04286336898803711 188 54 133
-0.05688374489545822 0.3592449128627777 0.0014611991355195642 199 66 123
-0.09665821492671967 0.36632612347602844 -0.04824597015976906 206 74 117
-0.05684133246541023 0.2646132707595825 -0.057169608771800995 215 86 108
0.0840369388461113 0.14293015003204346 -0.17222177982330322 222 96 100
0.12442976981401443 0.08782412856817245 -0.2195950299501419 232 113 88
0.12303632497787476 0.024403391405940056 -0.23475560545921326 235 118 84
0.1887495070695877 -0.040105558931827545 -0.2135460078716278 237 123 81
0.23645715415477753 -0.11209674179553986 -0.18033714592456818 240 129 77
0.2647708058357239 -0.14129739999771118 -0.12970799207687378 244 138 71
0.26004254817962646 -0.14664095640182495 -0.11415684968233109 249 154 60
0.23392139375209808 -0.1560150682926178 -0.12750351428985596 252 166 53
0.23104964196681976 -0.16496801376342773 -0.12708786129951477 252 172 50
0.22868143022060394 -0.17216363549232483 -0.13233482837677002 253 176 48
0.22805863618850708 -0.17109744250774384 -0.12809258699417114 253 175 49
0.23807267844676971 -0.201481893658638 -0.11616934835910797 252 173 49
0.26389873027801514 -0.21571266651153564 -0.10132714360952377 252 172 50
0.2840619683265686 -0.23200727999210358 -0.08144053816795349 252 172 50
0.29117950797080994 -0.24311867356300354 -0.07263538241386414 252 172 50
0.2942153811454773 -0.246616929769516 -0.06299468129873276 252 172 50
0.2965785562992096 -0.23831966519355774 -0.07090073823928833 252 169 52
0.297782301902771 -0.238297238945961 -0.0705762580037117 252 167 53
0.3017393946647644 -0.24400866031646729 -0.05435015633702278 252 166 53
0.30731362104415894 -0.2664392590522766 -0.03655386343598366 252 170 51
0.31403839588165283 -0.26463672518730164 -0.056133728474378586 252 173 49
0.3023621141910553 -0.24342641234397888 -0.08590415865182877 253 175 49
0.27765950560569763 -0.22739344835281372 -0.10933274030685425 253 179 46
0.2767994701862335 -0.2235773503780365 -0.11301777511835098 253 178 47
0.30193352699279785 -0.23732516169548035 -0.10679429769515991 253 175 49
0.30392253398895264 -0.24323514103889465 -0.12095662951469421 253 175 49
0.3062606751918793 -0.24206222593784332 -0.12463083118200302 252 173 49
0.30900540947914124 -0.22318698465824127 -0.1281871646642685 252 173 49
0.30063366889953613 -0.2296721190214157 -0.13199666142463684 253 179 46
0.2993904650211334 -0.23477812111377716 -0.13109180331230164 253 184 44
0.3183623254299164 -0.2388988733291626 -0.13560767471790314 253 185 43
0.32370132207870483 -0.2583218514919281 -0.1334758847951889 253 184 44
0.3269278407096863 -0.2542457580566406 -0.13021056354045868 253 182 45
0.33782973885536194 -0.2662564814090729 -0.11565665900707245 253 188 42
0.34376099705696106 -0.27461931109428406 -0.08533648401498795 253 192 41
0.3457428514957428 -0.29021960496902466 -0.06122515723109245 253 198 38
0.3584683835506439 -0.29241836071014404 -0.05893810838460922 252 203 37
0.3569745421409607 -0.2913772761821747 -0.06518077105283737 252 206 37
0.3616583049297333 -0.29102346301078796 -0.07233509421348572 252 206 37
0.36555618047714233 -0.2862497568130493 -0.06673691421747208 251 211 36
0.3537508547306061 -0.2734724283218384 -0.07041992247104645 251 208 36
0.34630638360977173 -0.23818419873714447 -0.10429233312606812 252 203 37
0.31942257285118103 -0.2113405466079712 -0.12193175405263901 253 190 41
0.3034694492816925 -0.21337905526161194 -0.1185191348195076 252 167 53
0.3034539222717285 -0.21017278730869293 -0.12221844494342804 250 160 57
0.29166364669799805 -0.22072114050388336 -0.13462312519550323 252 167 53
0.2883284389972687 -0.22235207259655 -0.13840219378471375 248 152 62
0.29742464423179626 -0.23501934111118317 -0.12949247658252716 244 138 71
0.29968491196632385 -0.23325441777706146 -0.12122661620378494 250 157 58
0.2964816987514496 -0.22619985044002533 -0.12345223128795624 252 172 50
0.29122865200042725 -0.23337498307228088 -0.1310112327337265 248 152 62
0.2928501069545746 -0.23608961701393127 -0.12072891741991043 252 170 51
0.30499598383903503 -0.2340494841337204 -0.11273158341646194 250 157 58
0.30736714601516724 -0.23374620079994202 -0.11555599421262741 252 166 53
0.29614025354385376 -0.2333146631717682 -0.12762191891670227 248 152 62
0.2811882793903351 -0.21425586938858032 -0.12448804080486298 249 154 60
0.26048386096954346 -0.20252840220928192 -0.11761492490768433 245 141 69
0.2579534649848938 -0.21086782217025757 -0.11816512048244476 246 145 66
0.26731711626052856 -0.21423998475074768 -0.1314532458782196 249 153 61
0.27814429998397827 -0.21598389744758606 -0.1414794921875 253 175 49
0.28193187713623047 -0.22102090716362 -0.14069098234176636 253 187 43
0.2927824556827545 -0.22652052342891693 -0.12561599910259247 253 187 43
0.301355242729187 -0.2280082255601883 -0.11361546814441681 253 188 42
0.3100564777851105 -0.2324666529893875 -0.11844148486852646 253 179 46
0.30176612734794617 -0.22806121408939362 -0.12196440994739532 253 182 45
0.29104819893836975 -0.22518713772296906 -0.12092294543981552 253 175 49
0.28114715218544006 -0.21487854421138763 -0.1303744614124298 253 190 41
0.26263895630836487 -0.2010555863380432 -0.13809283077716827 252 201 38
0.2593606412410736 -0.19766417145729065 -0.13615740835666656 252 206 37
0.2656503915786743 -0.19712351262569427 -0.14126306772232056 252 204 37
0.2623293995857239 -0.19879187643527985 -0.14240975677967072 252 201 38
0.2561084032058716 -0.18596674501895905 -0.1540888249874115 252 201 38
0.2499227225780487 -0.18522727489471436 -0.1631036102771759 253 198 38
0.24504444003105164 -0.19002999365329742 -0.16077686846256256 253 195 40
0.2518804371356964 -0.18664667010307312 -0.1498091220855713 253 198 38
0.2568913400173187 -0.1967974752187729 -0.1461520940065384 252 203 37
0.258387953042984 -0.19900214672088623 -0.14483734965324402 253 188 42
0.2549859881401062 -0.19519966840744019 -0.14202642440795898 253 178 47
0.2587651014328003 -0.19429753720760345 -0.13632528483867645 252 169 52
0.26243507862091064 -0.20168013870716095 -0.13016356527805328 250 160 57
0.26181286573410034 -0.21051445603370667 -0.1209617331624031 250 157 58
0.2638132572174072 -0.21434392035007477 -0.11028586328029633 243 135 72
0.27223634719848633 -0.21893754601478577 -0.10931328684091568 246 143 67
0.2708336114883423 -0.21150359511375427 -0.11391394585371017 246 142 68
0.2573079466819763 -0.20351316034793854 -0.1138453483581543 241 130 76
0.253141313791275 -0.20775514841079712 -0.10693090409040451 228 106 93
0.2575448453426361 -0.21083597838878632 -0.1065031886100769 221 95 101
0.2585950791835785 -0.20535437762737274 -0.10859555006027222 213 83 109
0.2501496374607086 -0.19351717829704285 -0.11629172414541245 205 73 117
0.24003128707408905 -0.1950555443763733 -0.11582674831151962 195 62 127
0.23306997120380402 -0.19643068313598633 -0.11485081166028976 186 52 135
0.22992371022701263 -0.1911393404006958 -0.11091949045658112 175 40 144
0.23701627552509308 -0.18964052200317383 -0.11313103139400482 164 30 152
0.2351226955652237 -0.18202292919158936 -0.11735087633132935 168 34 150
0.22756986320018768 -0.1913590282201767 -0.12450560927391052 200 68 122
0.2275450974702835 -0.18496176600456238 -0.13989990949630737 209 78 114
0.22503447532653809 -0.18760016560554504 -0.14382506906986237 209 78 114
0.24018807709217072 -0.20129437744617462 -0.12362419068813324 215 87 107
0.26600998640060425 -0.22657635807991028 -0.0912698358297348 216 88 106
0.29642200469970703 -0.2582559585571289 -0.0559985525906086 221 95 101
0.2958524525165558 -0.2536860704421997 -0.05257101356983185 222 96 100
0.24913431704044342 -0.24588479101657867 -0.06215677410364151 225 101 96
0.21029095351696014 -0.21369288861751556 -0.09417082369327545 227 104 94
0.20376762747764587 -0.18050003051757812 -0.11818947643041611 227 104 94
0.19703753292560577 -0.16961327195167542 -0.13294179737567902 223 98 98
0.18620653450489044 -0.1552095115184784 -0.1434280425310135 223 97 99
0.17266851663589478 -0.13406877219676971 -0.1766236424446106 227 103 95
0.16668899357318878 -0.13365647196769714 -0.19053272902965546 231 110 90
0.14847858250141144 -0.1093171089887619 -0.21457411348819733 235 118 84
0.13837717473506927 -0.10687500238418579 -0.20835517346858978 234 115 86
0.16228380799293518 -0.138412207365036 -0.22429469227790833 232 113 88
0.18025876581668854 -0.13698352873325348 -0.24575823545455933 232 112 89
0.19530151784420013 -0.1467522382736206 -0.22785423696041107 232 112 89
0.21419189870357513 -0.1611744463443756 -0.2556467652320862 234 115 86
0.17617115378379822 -0.17923490703105927 -0.27594783902168274 233 114 87
0.15794849395751953 -0.14073292911052704 -0.288484126329422 233 114 87
0.14729884266853333 -0.12532606720924377 -0.27392342686653137 229 107 92
0.11378676444292068 -0.0986625999212265 -0.2690460681915283 227 103 95
0.09794064611196518 -0.0819694772362709 -0.2800372838973999 220 93 102
0.10247637331485748 -0.06959617882966995 -0.29056259989738464 216 88 106
0.14032715559005737 -0.10154817253351212 -0.2635338008403778 215 87 107
0.12151473760604858 -0.12099087983369827 -0.2579295039176941 212 82 110
0.0808190330862999 -0.09273314476013184 -0.27158063650131226 210 80 112
0.005140766967087984 -0.022453924641013145 -0.3391302227973938 205 73 117
-0.03950493037700653 0.00447172112762928 -0.36777135729789734 195 62 127
-0.08945590257644653 0.04053564369678497 -0.4000994563102722 189 55 132
-0.07326501607894897 0.018230924382805824 -0.41626399755477905 177 43 143
-0.09646818041801453 -0.010776530019938946 -0.4800827205181122 173 38 146
-0.2481885552406311 0.06507974863052368 -0.5013065338134766 174 39 145
-0.34905463457107544 0.19926321506500244 -0.4706012010574341 176 42 143
-0.37641802430152893 0.2754342257976532 -0.46543794870376587 180 45 141
-0.3880949914455414 0.30656135082244873 -0.46906015276908875 181 46 140
-0.3923667073249817 0.290233850479126 -0.4665254056453705 180 45 141
-0.38582557439804077 0.3095717430114746 -0.4749775826931 174 39 145
-0.42245590686798096 0.32794129848480225 -0.4429475665092468 170 36 148
-0.42187583446502686 0.2963273823261261 -0.42606431245803833 169 35 149
-0.4100143313407898 0.2733999490737915 -0.40224137902259827 170 36 148
-0.38495078682899475 0.2813073396682739 -0.40499186515808105 177 43 143
-0.3754720389842987 0.3029893636703491 -0.4116707444190979 183 48 138
-0.3910863399505615 0.3143575191497803 -0.3992118239402771 175 40 144
-0.3982989490032196 0.3217834234237671 -0.4114629328250885 163 29 153
-0.38876762986183167 0.28896665573120117 -0.40027764439582825 157 24 157
-0.3917640745639801 0.3063168227672577 -0.405295729637146 150 18 160
-0.3832959830760956 0.30182376503944397 -0.414913147687912 146 15 162
-0.3971431851387024 0.32158491015434265 -0.373482346534729 146 15 162
-0.39818114042282104 0.33288252353668213 -0.3423825800418854 173 38 146
-0.3910955786705017 0.34498390555381775 -0.3341759443283081 146 15 162
-0.38974952697753906 0.31392207741737366 -0.36604392528533936 151 19 160
-0.39005163311958313 0.2999383509159088 -0.37955009937286377 153 20 159
-0.3983827829360962 0.3062002658843994 -0.3854617178440094 157 24 157
-0.3804689943790436 0.29197224974632263 -0.3981326222419739 159 26 155
-0.34117817878723145 0.31376293301582336 -0.4167478382587433 163 29 153
-0.3336101770401001 0.3166069984436035 -0.4333740770816803 167 33 151
-0.3509525656700134 0.2832844853401184 -0.41832661628723145 164 30 152
-0.3859548270702362 0.2953878343105316 -0.329184889793396 159 26 155
-0.4175659716129303 0.31234973669052124 -0.12917232513427734 162 28 154
-0.4158267378807068 0.3206908404827118 0.027476251125335693 139 9 164
-0.3840949237346649 0.2784769535064697 0.09808769822120667 121 1 168
-0.32134777307510376 0.24028313159942627 0.13142099976539612 118 1 168
-0.3088189661502838 0.20842225849628448 0.15289738774299622 114 0 168
-0.3124125301837921 0.19269096851348877 0.14877352118492126 112 0 168
-0.31555798649787903 0.21874843537807465 0.12823326885700226 112 0 168
-0.31477391719818115 0.23028574883937836 0.0914764255285263 114 0 168
-0.3153773844242096 0.22285008430480957 0.08293431252241135 117 0 168
-0.27610981464385986 0.19008725881576538 0.09910766035318375 123 2 168
-0.24818184971809387 0.16232173144817352 0.11746236681938171 124 2 167
-0.23977071046829224 0.1400541067123413 0.13017259538173676 124 2 167
-0.2340042144060135 0.13238556683063507 0.13652226328849792 134 7 166
-0.23263202607631683 0.1316690742969513 0.1263725757598877 130 4 167
-0.2642931640148163 0.15199260413646698 0.11359280347824097 124 2 167
-0.29564207792282104 0.15970949828624725 0.13130372762680054 121 1 168
-0.293807715177536 0.1687375009059906 0.15515759587287903 127 3 167
-0.2877635657787323 0.18369245529174805 0.17970752716064453 127 3 167
-0.30956941843032837 0.18084771931171417 0.2017604410648346 133 6 166
-0.3256714642047882 0.18625548481941223 0.2144043892621994 137 8 165
-0.339567095041275 0.22242425382137299 0.21237780153751373 151 19 160
-0.3324395716190338 0.22605524957180023 0.22546932101249695 158 25 156
-0.31116941571235657 0.1921544075012207 0.29487669467926025 165 31 151
-0.24055516719818115 0.10877679288387299 0.4010559320449829 170 36 148
-0.13686756789684296 0.017187708988785744 0.48313650488853455 178 44 142
-0.09414123743772507 -0.025734426453709602 0.519083559513092 184 50 137
-0.09417072683572769 -0.011182909831404686 0.5313780307769775 188 54 133
-0.13691683113574982 0.004209711216390133 0.5028192400932312 192 59 129
-0.20517514646053314 0.05529053509235382 0.4555050730705261 191 57 130
-0.2552516758441925 0.11897894740104675 0.42327460646629333 196 63 126
-0.2744050621986389 0.1526772528886795 0.3847609758377075 198 65 124
-0.2587694823741913 0.11492276191711426 0.3943006992340088 195 62 127
-0.1919611096382141 0.040787555277347565 0.41705450415611267 191 57 130
-0.14152073860168457 -0.029735369607806206 0.4452344477176666 189 55 132
-0.06727759540081024 -0.09572643786668777 0.47733867168426514 188 54 133
-0.007832696661353111 -0.15521587431430817 0.5053845643997192 187 53 134
0.0413491353392601 -0.18996822834014893 0.5226820111274719 187 53 134
0.04212779179215431 -0.17958171665668488 0.5233408212661743 188 54 133
-0.026390524581074715 -0.13044755160808563 0.521169126033783 189 55 132
-0.07556594908237457 -0.08827531337738037 0.5074437260627747 189 55 132
-0.08902018517255783 -0.06264632940292358 0.5064136385917664 193 60 128
-0.09497752040624619 -0.06416821479797363 0.5068981051445007 195 62 127
-0.09795539081096649 -0.05135394632816315 0.5010650157928467 198 65 124
-0.10555091500282288 -0.043000727891922 0.5018377304077148 200 68 122
-0.10323598980903625 -0.03844583034515381 0.49547550082206726 202 70 120
-0.11547351628541946 -0.0363243967294693 0.4921208322048187 209 79 113
-0.11294268816709518 -0.03527069091796875 0.49132972955703735 215 86 108
-0.10700158774852753 -0.03392139822244644 0.48537319898605347 218 90 104
-0.10700535029172897 -0.031265128403902054 0.4901222288608551 220 94 102
-0.11927647143602371 -0.03125469386577606 0.47771692276000977 223 98 98
-0.13039614260196686 -0.014865772798657417 0.4566515386104584 228 106 93
-0.1504746526479721 -0.0055329157039523125 0.44140639901161194 232 112 89
-0.1390383094549179 -0.041945185512304306 0.4487171769142151 234 115 86
-0.08465512841939926 -0.07912804931402206 0.47004950046539307 234 115 86
-0.03152158856391907 -0.12776485085487366 0.4939504563808441 225 101 96
-0.031471725553274155 -0.14449624717235565 0.4985055923461914 227 103 95
-0.07555725425481796 -0.08998697251081467 0.4976418614387512 229 108 91
-0.08310859650373459 -0.0462154857814312 0.4824802577495575 232 112 89
-0.05542086437344551 -0.09838852286338806 0.4840224087238312 239 126 78
0.009651156142354012 -0.15329113602638245 0.499633252620697 239 126 78
0.057344116270542145 -0.1799933761358261 0.5040391087532043 236 119 84
0.07022617757320404 -0.19618332386016846 0.5088413953781128 237 121 82
0.061872001737356186 -0.19408252835273743 0.5046089291572571 234 116 85
0.049940358847379684 -0.17398706078529358 0.5059449672698975 229 108 91
0.04482695087790489 -0.15043915808200836 0.5131301879882812 229 108 91
0.021117284893989563 -0.13399125635623932 0.5093244314193726 229 108 91
0.0011827503331005573 -0.12500540912151337 0.5068327188491821 230 109 90
0.006081498693674803 -0.11594168841838837 0.5129266977310181 227 103 95
0.03103497438132763 -0.12191317975521088 0.5163848400115967 225 101 96
0.059717368334531784 -0.15145573019981384 0.5184062123298645 223 97 99
0.07947862148284912 -0.18418392539024353 0.5191579461097717 221 95 101
0.12757574021816254 -0.22347138822078705 0.5017068982124329 219 91 103
0.12912607192993164 -0.22195662558078766 0.5074019432067871 204 72 118
0.11222516745328903 -0.20082321763038635 0.510040819644928 209 79 113
0.09966972470283508 -0.19320860505104065 0.5132625102996826 206 74 117
0.1281062364578247 -0.21407879889011383 0.5045797824859619 201 69 121
0.15907937288284302 -0.24845322966575623 0.49679142236709595 201 69 121
0.19138114154338837 -0.26090627908706665 0.48921599984169006 203 71 119
0.2217503786087036 -0.2722959816455841 0.48057234287261963 203 71 119
0.2306911051273346 -0.2780296802520752 0.4828605055809021 196 63 126
0.22249239683151245 -0.2851540148258209 0.4776185154914856 192 59 129
0.2133113592863083 -0.28987351059913635 0.47394832968711853 190 56 131
0.21756015717983246 -0.28579115867614746 0.4717453122138977 183 48 138
0.21060283482074738 -0.2781062722206116 0.48078545928001404 186 52 135
0.20363275706768036 -0.2923622131347656 0.4823893904685974 188 54 133
0.1951206475496292 -0.2632901072502136 0.48156794905662537 193 60 128
0.22453360259532928 -0.3037691116333008 0.4461733400821686 194 61 128
0.29073455929756165 -0.36507105827331543 0.4129118323326111 193 60 128
0.35769417881965637 -0.3892693519592285 0.38217926025390625 193 60 128
0.4188360571861267 -0.43372198939323425 0.3507634997367859 195 62 127
0.42745447158813477 -0.4390279948711395 0.30218595266342163 196 63 126
0.4079258143901825 -0.4643763303756714 0.24978050589561462 197 64 125
0.3730717599391937 -0.38786715269088745 0.22934439778327942 195 62 127
0.309286892414093 -0.34722399711608887 0.2421015202999115 195 62 127
0.2921549677848816 -0.3688921630382538 0.17052067816257477 197 64 125
0.3136964738368988 -0.35856595635414124 0.14637179672718048 196 63 126
0.2855139374732971 -0.3074377775192261 0.15956538915634155 197 64 125
0.2685084342956543 -0.31295835971832275 0.17915260791778564 197 64 125
0.2588403522968292 -0.2622458040714264 0.17077751457691193 198 65 124
0.1914035826921463 -0.2811562716960907 0.11073814332485199 199 66 123
0.09330771118402481 -0.18804217875003815 0.0430525504052639 200 68 122
0.07380152493715286 -0.1094636544585228 0.04218345880508423 200 68 122
-0.025208331644535065 -0.0925292819738388 0.06692029535770416 201 69 121
-0.04808618873357773 -0.04293840005993843 0.11296548694372177 200 68 122
-0.061969708651304245 -0.016087932512164116 0.09875520318746567 199 66 123
-0.04399754852056503 -0.019442856311798096 0.09777837246656418 200 68 122
-0.06430886685848236 -0.017712293192744255 0.12974555790424347 198 65 124
-0.07286857068538666 -0.02400950714945793 0.15030167996883392 197 64 125
-0.09458582103252411 0.007147002033889294 0.15942271053791046 201 69 121
-0.07294761389493942 0.02214929834008217 0.16171367466449738 202 70 120
-0.012141402810811996 -0.014031626284122467 0.15951956808567047 203 71 119
0.018949313089251518 -0.07312002032995224 0.15915755927562714 202 70 120
0.041942257434129715 -0.11742470413446426 0.12661345303058624 202 70 120
0.06974232196807861 -0.1327168345451355 0.07873700559139252 202 70 120
0.0629061684012413 -0.12341263890266418 0.0363963283598423 200 68 122
0.006935275625437498 -0.09110411256551743 0.048393990844488144 200 68 122
-0.015581638552248478 -0.06760887056589127 0.08220890909433365 200 68 122
0.012683392502367496 -0.07116739451885223 0.07881398499011993 198 65 124
0.020031962543725967 -0.0712127760052681 0.07264837622642517 199 66 123
0.01333097368478775 -0.06648997217416763 0.049588896334171295 199 66 123
0.04283793270587921 -0.0979757234454155 0.08013865351676941 198 65 124
0.015583724714815617 -0.09958986192941666 0.08874926716089249 197 64 125
0.015358759090304375 -0.08699145168066025 0.10955335944890976 194 61 128
-0.01396777294576168 -0.07057791948318481 0.10170219093561172 194 61 128
-0.018888413906097412 -0.0693429633975029 0.08900417387485504 190 56 131
-0.030156701803207397 -0.031191904097795486 0.08390337228775024 188 54 133
-0.05133352801203728 -0.0015510969096794724 0.08177651464939117 186 52 135
-0.07561236619949341 0.029482292011380196 0.05715377256274223 187 53 134
-0.08955743163824081 0.04211072996258736 0.05268115922808647 190 56 131
-0.09971147030591965 0.029327820986509323 0.05572863295674324 188 54 133
-0.0757584422826767 0.025772904977202415 0.06121758371591568 192 59 129
-0.06067289784550667 0.00752671342343092 0.06383375823497772 192 59 129
-0.02826707251369953 -0.014029101468622684 0.07745334506034851 194 61 128
-0.026446713134646416 -0.042655136436223984 0.11012528836727142 193 60 128
-0.05449254810810089 -0.0048128580674529076 0.10784982889890671 189 55 132
-0.061615511775016785 0.04207436740398407 0.11113648861646652 185 51 136
-0.07602810859680176 0.030672000721096992 0.14692971110343933 185 51 136
-0.09852410852909088 0.021759536117315292 0.1261986345052719 185 51 136
-0.12454818934202194 0.06622587889432907 0.10515126585960388 184 50 137
-0.1454845666885376 0.08076309412717819 0.11404979228973389 183 48 138
-0.1106526106595993 0.03194229304790497 0.14836610853672028 181 46 140
-0.08257588744163513 0.028612004593014717 0.16246749460697174 181 46 140
-0.09550678730010986 0.034767597913742065 0.14410629868507385 174 39 145
-0.129328191280365 0.058710791170597076 0.13041257858276367 169 35 149
-0.13532336056232452 0.04132016375660896 0.1405247002840042 168 34 150
-0.10001344978809357 0.01802094280719757 0.12769533693790436 159 26 155
-0.07273035496473312 0.01569431833922863 0.11055664718151093 155 23 158
-0.11348006874322891 0.03154963254928589 0.12920652329921722 153 20 159
-0.1482955664396286 0.022008011117577553 0.14876024425029755 149 17 161
-0.1935730129480362 0.09689787030220032 0.10559812933206558 149 17 161
-0.22084857523441315 0.15706300735473633 0.05017084628343582 143 13 163
-0.22028402984142303 0.18496228754520416 -0.0044917454943060875 143 13 163
-0.23081429302692413 0.1945967972278595 -0.012707320041954517 151 19 160
-0.21364039182662964 0.17534752190113068 -0.007646763231605291 137 8 165
-0.21153122186660767 0.16396960616111755 -0.003984907642006874 151 19 160
-0.214864581823349 0.13995684683322906 0.0065581900998950005 178 44 142
-0.22022902965545654 0.15884113311767578 -0.008942254818975925 173 38 146
-0.22624026238918304 0.16412949562072754 -0.037763141095638275 186 52 135
-0.22840167582035065 0.16894055902957916 -0.05642499774694443 180 45 141
-0.23184871673583984 0.18770423531532288 -0.0629877820611 183 48 138
-0.23044414818286896 0.21782682836055756 -0.08629254996776581 192 59 129
-0.2530372738838196 0.22708092629909515 -0.10563616454601288 192 59 129
-0.2730051577091217 0.2587484121322632 -0.11841004341840744 197 64 125
-0.26463058590888977 0.25767409801483154 -0.13927869498729706 198 65 124
-0.2678046226501465 0.25012269616127014 -0.14889690279960632 176 42 143
-0.27370432019233704 0.2531939744949341 -0.133924663066864 149 17 161
-0.2717486321926117 0.2526015639305115 -0.12095893174409866 159 26 155
-0.2664279341697693 0.2489798218011856 -0.11523643136024475 164 30 152
-0.2725074887275696 0.2628871202468872 -0.11092435568571091 168 34 150
-0.28339797258377075 0.27304309606552124 -0.12107108533382416 164 30 152
-0.2842649519443512 0.28734466433525085 -0.1332274079322815 153 20 159
-0.2793308198451996 0.2883637249469757 -0.15157753229141235 153 20 159
-0.2748197913169861 0.2863282263278961 -0.156913161277771 151 19 160
-0.27834653854370117 0.2797373831272125 -0.15005053579807281 147 16 161
-0.27263471484184265 0.26714178919792175 -0.12960964441299438 146 15 162
-0.26295894384384155 0.2539210319519043 -0.11519825458526611 143 13 163
-0.2629375457763672 0.25079014897346497 -0.12261985242366791 142 12 164
-0.26119181513786316 0.25995418429374695 -0.12841056287288666 139 9 164
-0.26033052802085876 0.26774096488952637 -0.12409646809101105 133 6 166
-0.24909256398677826 0.26072046160697937 -0.11864073574542999 129 4 167
-0.240695521235466 0.24524186551570892 -0.11862283200025558 121 1 168
-0.2433858960866928 0.23933954536914825 -0.13589996099472046 120 1 168
-0.24121308326721191 0.24999603629112244 -0.14731360971927643 118 1 168
-0.2349192500114441 0.2505089044570923 -0.14408227801322937 112 0 168
-0.21318399906158447 0.23400244116783142 -0.1435733586549759 111 0 168
-0.1953769326210022 0.2264169454574585 -0.15750360488891602 104 0 167
-0.16969026625156403 0.20483756065368652 -0.1780252754688263 101 0 167
-0.1637081801891327 0.1868269294500351 -0.20393876731395721 106 0 167
-0.15984532237052917 0.1905117928981781 -0.21396973729133606 112 0 168
-0.18530097603797913 0.19079795479774475 -0.2069585919380188 118 1 168
-0.18932469189167023 0.17991484701633453 -0.21316930651664734 130 4 167
-0.17401079833507538 0.19118329882621765 -0.1904703974723816 140 10 164
-0.1606101244688034 0.1831325888633728 -0.1953975260257721 142 12 164
-0.13394230604171753 0.16390584409236908 -0.22187627851963043 146 15 162
-0.13142186403274536 0.17444662749767303 -0.24606458842754364 147 16 161
-0.13018973171710968 0.17822137475013733 -0.25853100419044495 151 19 160
-0.13013583421707153 0.1577569842338562 -0.24848802387714386 153 20 159
-0.09358139336109161 0.1509774625301361 -0.2603333592414856 158 25 156
-0.0561351515352726 0.12831911444664001 -0.27753084897994995 158 25 156
-0.047279126942157745 0.11530748009681702 -0.3033595681190491 163 29 153
-0.026549672707915306 0.11847703903913498 -0.3200725018978119 167 33 151
-0.007013850379735231 0.10684790462255478 -0.34676724672317505 176 42 143
0.02357160486280918 0.07762075960636139 -0.3750172257423401 187 53 134
0.051095325499773026 0.05302596464753151 -0.4119899868965149 198 65 124
0.06076759845018387 0.05749576911330223 -0.4229636788368225 206 74 117
0.09104152023792267 0.04124658182263374 -0.4340706467628479 214 85 109
0.11584914475679398 0.01746443286538124 -0.4278022050857544 222 96 100
0.1368882805109024 0.012426952831447124 -0.4268949031829834 232 113 88
0.15188585221767426 -0.007660245988518 -0.40642791986465454 242 133 74
0.17067024111747742 -0.04418680816888809 -0.3704076409339905 245 139 70
0.19210559129714966 -0.0687473863363266 -0.3376590609550476 250 156 59
0.2161131352186203 -0.08588312566280365 -0.31245359778404236 252 167 53
0.22286465764045715 -0.10106927156448364 -0.2954859435558319 252 172 50
0.2174195498228073 -0.11100892722606659 -0.27545419335365295 252 169 52
0.214908167719841 -0.11753647774457932 -0.2587205171585083 251 164 54
0.21478721499443054 -0.11811816692352295 -0.25046035647392273 252 169 52
0.2155010998249054 -0.12852561473846436 -0.24081775546073914 252 169 52
0.2165335863828659 -0.12929490208625793 -0.23154258728027344 252 169 52
0.217534139752388 -0.12436523288488388 -0.2186243236064911 252 169 52
0.22059664130210876 -0.1368144452571869 -0.20721670985221863 251 164 54
0.21378518640995026 -0.15628692507743835 -0.19478805363178253 250 160 57
0.22185172140598297 -0.15528832376003265 -0.18671296536922455 249 154 60
0.23120565712451935 -0.15114149451255798 -0.19040416181087494 248 150 63
0.23403869569301605 -0.14276228845119476 -0.20080170035362244 247 147 65
0.22470931708812714 -0.1441647857427597 -0.2093382477760315 247 146 65
0.22257404029369354 -0.14033785462379456 -0.21365278959274292 246 145 66
0.22429358959197998 -0.1343332827091217 -0.21245750784873962 246 143 67
0.21410813927650452 -0.1321433037519455 -0.2119807004928589 247 146 65
0.20266470313072205 -0.12402039766311646 -0.21655765175819397 247 147 65
0.1990029215812683 -0.11725866794586182 -0.2254551202058792 251 163 55
0.19819572567939758 -0.1132092997431755 -0.21530577540397644 250 157 58
0.20690758526325226 -0.12487278133630753 -0.19883932173252106 250 157 58
0.22442100942134857 -0.131074920296669 -0.1907999962568283 250 159 58
0.223257377743721 -0.1298011839389801 -0.1961754411458969 251 162 56
0.2136525958776474 -0.1224982962012291 -0.19902434945106506 250 159 58
0.20866292715072632 -0.12223175168037415 -0.18883611261844635 249 153 61
0.21372054517269135 -0.12401565164327621 -0.17571519315242767 248 150 63
0.225216805934906 -0.12689323723316193 -0.1694682389497757 246 143 67
0.22976990044116974 -0.13223406672477722 -0.16380159556865692 246 143 67
0.22893309593200684 -0.1397029608488083 -0.15907666087150574 246 142 68
0.21718373894691467 -0.1317140758037567 -0.15784047544002533 245 139 70
0.21020285785198212 -0.11391588300466537 -0.17552584409713745 245 141 69
0.2046276032924652 -0.10170246660709381 -0.192343071103096 245 141 69
0.1984831541776657 -0.10081671923398972 -0.1975894272327423 244 138 71
0.20210300385951996 -0.10891170054674149 -0.1914040893316269 244 138 71
0.21359699964523315 -0.11467477679252625 -0.1865026205778122 244 137 71
0.21284423768520355 -0.11582949012517929 -0.17590020596981049 244 137 71
0.2043493539094925 -0.11473027616739273 -0.1639079749584198 244 138 71
0.19498348236083984 -0.10557051748037338 -0.15325592458248138 243 135 72
0.19159865379333496 -0.1020045205950737 -0.1399584263563156 243 135 72
0.208400696516037 -0.11359654366970062 -0.1196507066488266 243 135 72
0.23361092805862427 -0.13613346219062805 -0.10123961418867111 243 135 72
0.23618267476558685 -0.15081745386123657 -0.09692642092704773 244 137 71
0.22685042023658752 -0.1407923400402069 -0.07344812899827957 244 137 71
0.2184327244758606 -0.12592066824436188 -0.06091993674635887 244 138 71
0.21710817515850067 -0.11604112386703491 -0.04997061565518379 244 138 71
0.23033690452575684 -0.10327844321727753 -0.019665541127324104 244 138 71
0.23713256418704987 -0.13000556826591492 0.00355106801725924 244 137 71
0.2445373833179474 -0.13768453896045685 0.002194578992202878 244 137 71
0.2502478063106537 -0.12295404076576233 -0.0179686788469553 244 137 71
0.24793078005313873 -0.10852179676294327 -0.04001055285334587 244 137 71
0.25308099389076233 -0.10703325271606445 -0.051786575466394424 244 137 71
0.26807108521461487 -0.11176230758428574 -0.06152404844760895 244 137 71
0.26897135376930237 -0.12580306828022003 -0.06867650896310806 244 137 71
0.25655850768089294 -0.10779009014368057 -0.07799071073532104 244 137 71
0.24027520418167114 -0.07266438752412796 -0.10738196223974228 244 137 71
0.22375282645225525 -0.051447123289108276 -0.120759017765522 244 138 71
0.22202759981155396 -0.03629014641046524 -0.14561429619789124 244 137 71
0.23706138134002686 -0.024307189509272575 -0.14142821729183197 244 137 71
0.2288789600133896 -0.03075353428721428 -0.14481520652770996 244 137 71
0.21530616283416748 -0.022160261869430542 -0.15714594721794128 244 137 71
0.19264750182628632 0.013291727751493454 -0.17991237342357635 244 137 71
0.17845624685287476 0.0357610359787941 -0.17931409180164337 244 138 71
0.19470272958278656 0.03507760167121887 -0.18600581586360931 245 139 70
0.19162346422672272 0.04595671966671944 -0.18480919301509857 245 139 70
0.16545599699020386 0.07200568914413452 -0.2137776017189026 245 141 69
0.16490764915943146 0.08179723471403122 -0.21105337142944336 246 142 68
0.1914871335029602 0.04677179828286171 -0.19751375913619995 244 137 71
0.20597828924655914 0.032919131219387054 -0.19020946323871613 243 135 72
0.2101888209581375 0.046109121292829514 -0.18455031514167786 242 132 75
0.20592200756072998 0.04265600070357323 -0.16502442955970764 242 132 75
0.22015860676765442 0.040898680686950684 -0.17112019658088684 241 130 76
0.20916840434074402 0.025239767506718636 -0.1897527277469635 239 126 78
0.20862405002117157 0.03656991943717003 -0.20615938305854797 238 124 80
0.22111038863658905 0.02381098084151745 -0.18971706926822662 237 123 81
0.2245441973209381 0.01002209261059761 -0.17338477075099945 236 120 83
0.19453904032707214 0.029612397775053978 -0.15198184549808502 232 112 89
0.17383763194084167 0.04146347567439079 -0.1295052319765091 225 101 96
0.18982909619808197 0.043014101684093475 -0.11154027283191681 219 91 103
0.19775868952274323 0.025938140228390694 -0.1165759488940239 214 85 109
0.19056212902069092 -0.005788626614958048 -0.10845784097909927 213 83 109
0.20129187405109406 -0.0010268250480294228 -0.12195044755935669 227 103 95
0.21262942254543304 0.03192337602376938 -0.12531784176826477 228 106 93
0.18609464168548584 0.04461301118135452 -0.14634597301483154 229 108 91
0.1631268709897995 0.06534812599420547 -0.17022426426410675 229 108 91
0.15680813789367676 0.068474680185318 -0.1888113170862198 229 107 92
0.15971216559410095 0.07324351370334625 -0.19602182507514954 227 104 94
0.15193220973014832 0.07827109843492508 -0.19585618376731873 227 103 95
0.15209850668907166 0.0821978747844696 -0.20580781996250153 229 107 92
0.16597028076648712 0.051629822701215744 -0.20468991994857788 227 104 94
0.1898379623889923 0.01759713515639305 -0.19995301961898804 232 112 89
0.21106618642807007 0.0012699527433142066 -0.2025478482246399 237 121 82
0.22058112919330597 -0.026402894407510757 -0.1752476841211319 237 121 82
0.230390265583992 -0.06323779374361038 -0.13550199568271637 238 124 80
0.22747792303562164 -0.09111945331096649 -0.11479318886995316 239 126 78
0.2356509417295456 -0.08511338382959366 -0.10489803552627563 240 128 77
0.22684955596923828 -0.09321456402540207 -0.1019623875617981 240 128 77
0.20260724425315857 -0.09457433223724365 -0.10329941660165787 237 121 82
0.2009025514125824 -0.07447610795497894 -0.10714112967252731 232 113 88
0.19704891741275787 -0.058700062334537506 -0.1275053173303604 228 106 93
0.17923671007156372 -0.043006375432014465 -0.13512662053108215 224 100 97
0.16668906807899475 -0.03617062047123909 -0.1364496797323227 220 94 102
0.17106188833713531 -0.026166830211877823 -0.14697960019111633 217 89 105
0.17327716946601868 -0.034877385944128036 -0.13803939521312714 214 85 109
0.18536432087421417 -0.04978558048605919 -0.1376226395368576 217 89 105
0.1984376460313797 -0.070523701608181 -0.1317535638809204 215 87 107
0.2022281289100647 -0.07551231235265732 -0.12727326154708862 215 87 107
0.1990175098180771 -0.07556826621294022 -0.12991292774677277 215 86 108
0.19629350304603577 -0.07446293532848358 -0.13325080275535583 216 88 106
0.18569034337997437 -0.07808274030685425 -0.14066961407661438 218 90 104
0.1789865642786026 -0.05573166534304619 -0.1546868234872818 219 91 103
0.1631517857313156 -0.04593572020530701 -0.16177286207675934 218 90 104
0.15218912065029144 -0.029674408957362175 -0.1706284135580063 215 87 107
0.1417263001203537 -0.021544121205806732 -0.17888523638248444 212 82 110
0.1331045776605606 -0.0034330321941524744 -0.18528881669044495 206 74 117
0.12240663915872574 -0.0028740791603922844 -0.18488971889019012 168 34 150
0.1334182620048523 -0.006101887207478285 -0.18931764364242554 199 66 123
0.14832836389541626 -0.021815966814756393 -0.18223397433757782 193 60 128
0.1588234156370163 -0.03235551714897156 -0.1659080982208252 203 71 119
0.14646188914775848 -0.022931497544050217 -0.15788859128952026 210 80 112
0.12413088977336884 -0.0018088084179908037 -0.16346301138401031 213 83 109
0.11024212837219238 0.032958246767520905 -0.18024449050426483 217 89 105
0.11001936346292496 0.03416886553168297 -0.18053187429904938 216 88 106
0.12478375434875488 0.010481595993041992 -0.18227238953113556 216 88 106
0.1411994844675064 0.0043562049977481365 -0.18735675513744354 219 91 103
0.13450908660888672 0.01978694275021553 -0.1965155452489853 223 97 99
0.11850082874298096 0.02859964780509472 -0.19655227661132812 231 110 90
0.12364421784877777 0.019706973806023598 -0.1882363110780716 239 125 79
0.13390877842903137 0.002129600616171956 -0.175346240401268 244 138 71
0.133238285779953 0.008389666676521301 -0.17150132358074188 249 153 61
0.12103348970413208 0.018293801695108414 -0.14830635488033295 252 167 53
0.1284840852022171 0.019735189154744148 -0.14416180551052094 252 169 52
0.12562154233455658 0.009438029490411282 -0.14468255639076233 253 182 45
0.13206151127815247 0.0038733112160116434 -0.14509719610214233 253 192 41
0.14001250267028809 0.008408665657043457 -0.13789013028144836 253 196 39
0.14668148756027222 -0.011508326046168804 -0.12697455286979675 253 195 40
0.15787816047668457 -0.027300376445055008 -0.12290661036968231 251 208 36
0.16803094744682312 -0.0375877320766449 -0.1125587597489357 249 219 36
0.1729363203048706 -0.05676421895623207 -0.09949836134910583 250 213 36
0.17868903279304504 -0.06736438721418381 -0.09959059953689575 253 196 39
0.179686039686203 -0.06562415510416031 -0.09887775033712387 253 188 42
0.18598732352256775 -0.06780416518449783 -0.08864985406398773 253 185 43
0.19436192512512207 -0.08518397808074951 -0.06937643140554428 253 181 45
0.19823098182678223 -0.08786343038082123 -0.07275084406137466 253 178 47
0.19408486783504486 -0.07745423913002014 -0.0861285999417305 253 175 49
0.19449622929096222 -0.08048789203166962 -0.08118978142738342 253 179 46
0.20578958094120026 -0.10127559304237366 -0.07100524008274078 253 176 48
0.20607197284698486 -0.11683275550603867 -0.07047884166240692 252 172 50
0.2026604861021042 -0.10896506160497665 -0.08297974616289139 251 164 54
0.1958494335412979 -0.09011136740446091 -0.09435807168483734 250 159 58
0.1864255666732788 -0.08561817556619644 -0.09150207042694092 250 156 59
0.1806407868862152 -0.08479396253824234 -0.08619506657123566 251 164 54
0.1814904659986496 -0.08366009593009949 -0.08512935042381287 250 159 58
0.172652930021286 -0.09029144048690796 -0.09089775383472443 237 123 81
0.1850341558456421 -0.08155911415815353 -0.08998353779315948 237 121 82
0.19780758023262024 -0.09410381317138672 -0.07084934413433075 229 107 92
0.21848739683628082 -0.11969330906867981 -0.055974528193473816 229 107 92
0.22365853190422058 -0.13398118317127228 -0.05694587528705597 240 129 77
0.23759189248085022 -0.14478693902492523 -0.0593242421746254 249 153 61
0.24051451683044434 -0.15266452729701996 -0.06962142139673233 250 159 58
0.23040741682052612 -0.13180238008499146 -0.09542597085237503 250 156 59
0.22376954555511475 -0.10457324981689453 -0.1223265752196312 243 135 72
0.21433080732822418 -0.10776419192552567 -0.131655752658844 248 152 62
0.21441994607448578 -0.11569155752658844 -0.1419396549463272 250 157 58
0.2116740643978119 -0.11432981491088867 -0.1534537672996521 252 166 53
0.21669960021972656 -0.1259506344795227 -0.14547494053840637 252 170 51
0.22344043850898743 -0.13164854049682617 -0.1342257261276245 252 169 52
0.21833817660808563 -0.1260966807603836 -0.13187894225120544 252 166 53
0.20542842149734497 -0.12184947729110718 -0.131301611661911 251 164 54
0.20376063883304596 -0.1213725209236145 -0.1285255402326584 252 166 53
0.20874738693237305 -0.12261182814836502 -0.11884190142154694 252 166 53
0.20421238243579865 -0.12101864814758301 -0.12353970110416412 252 166 53
0.19492460787296295 -0.12056253105401993 -0.1266060769557953 251 164 54
0.19899725914001465 -0.11832523345947266 -0.12257980555295944 251 163 55
0.2120979130268097 -0.12718035280704498 -0.1146809458732605 251 163 55
0.22136163711547852 -0.13025513291358948 -0.09165415912866592 251 162 56
0.21327053010463715 -0.13036131858825684 -0.08644025772809982 251 162 56
0.19977019727230072 -0.11890308558940887 -0.09478546679019928 251 162 56
0.19470766186714172 -0.10729154199361801 -0.10740769654512405 251 162 56
0.19457414746284485 -0.09278310090303421 -0.11818630248308182 251 163 55
0.1881369799375534 -0.10103271901607513 -0.12306913733482361 251 163 55
0.19602563977241516 -0.10626906156539917 -0.11962609738111496 251 163 55
0.20827116072177887 -0.11133953183889389 -0.09967338293790817 251 163 55
0.2204744666814804 -0.13753974437713623 -0.08720296621322632 251 163 55
0.228265643119812 -0.1397891342639923 -0.08394755423069 251 162 56
0.22071057558059692 -0.13508519530296326 -0.08477430790662766 251 163 55
0.21147826313972473 -0.12239257991313934 -0.08508989959955215 251 163 55
0.21028576791286469 -0.11601534485816956 -0.08797325938940048 251 163 55
0.21459706127643585 -0.11946950107812881 -0.08301739394664764 251 163 55
0.2197800874710083 -0.12788018584251404 -0.08094277232885361 251 163 55
0.21878129243850708 -0.11493951082229614 -0.0905747264623642 252 166 53
0.2011260986328125 -0.09575345367193222 -0.10291405767202377 251 163 55
