ply
format ascii 1.0
element vertex 677
property float x
property float y
property float z
property uchar red
property uchar green
property uchar blue
end_header
-0.30784910917282104 -0.3020104169845581 -0.9022298455238342 173 38 146
-0.36548569798469543 -0.3400956988334656 -0.8664612174034119 205 73 117
-0.3682275414466858 -0.33674749732017517 -0.8666080832481384 153 20 159
-0.3666728138923645 -0.3424611985683441 -0.8650268316268921 150 18 160
-0.33903518319129944 -0.39438310265541077 -0.854117751121521 140 10 164
-0.37233027815818787 -0.39518433809280396 -0.8397615551948547 133 6 166
-0.38113975524902344 -0.38345667719841003 -0.841245174407959 130 4 167
-0.42152276635169983 -0.35066288709640503 -0.8362739682197571 139 9 164
-0.4429734945297241 -0.3569558560848236 -0.8224092721939087 136 7 165
-0.4644586741924286 -0.34054699540138245 -0.8174997568130493 132 5 166
-0.4268891215324402 -0.347913533449173 -0.8346986770629883 134 7 166
-0.4141818881034851 -0.36476728320121765 -0.8339053392410278 142 12 164
-0.44605615735054016 -0.37501516938209534 -0.8126484751701355 137 8 165
-0.5010599493980408 -0.3494011461734772 -0.7917435169219971 139 9 164
-0.5821644067764282 -0.3766496479511261 -0.7205689549446106 140 10 164
-0.5677313208580017 -0.3663185238838196 -0.7372190356254578 140 10 164
-0.5679799318313599 -0.34426388144493103 -0.7475835084915161 140 10 164
-0.5789685845375061 -0.35231703519821167 -0.7353013753890991 134 7 166
-0.5623497366905212 -0.3453727662563324 -0.751319169998169 130 4 167
-0.5726959705352783 -0.3838425278663635 -0.7243509292602539 130 4 167
-0.5599476099014282 -0.4139389097690582 -0.7177138924598694 127 3 167
-0.567891001701355 -0.40560442209243774 -0.7162297368049622 130 4 167
-0.6610643863677979 -0.3644823133945465 -0.6558555960655212 129 4 167
-0.7347187995910645 -0.3086405098438263 -0.6040937900543213 127 3 167
-0.7704654932022095 -0.31590592861175537 -0.5537024140357971 117 0 168
-0.7486881613731384 -0.2956463396549225 -0.5933457612991333 114 0 168
-0.7357211709022522 -0.28213536739349365 -0.6157224178314209 106 0 167
-0.7805463075637817 -0.2745164930820465 -0.5615942478179932 98 0 166
-0.8108869194984436 -0.27603790163993835 -0.5160092115402222 97 0 166
-0.8323405385017395 -0.2357138842344284 -0.5016454458236694 95 0 166
-0.8678617477416992 -0.2561943829059601 -0.42565298080444336 95 0 166
-0.8604538440704346 -0.24705050885677338 -0.44562897086143494 92 0 165
-0.8810164332389832 -0.22367683053016663 -0.416867733001709 92 0 165
-0.8890827894210815 -0.20792244374752045 -0.4077991545200348 94 0 165
-0.863128662109375 -0.27698367834091187 -0.4222428500652313 94 0 165
-0.8401420712471008 -0.32194021344184875 -0.4364811182022095 94 0 165
-0.8714779019355774 -0.30978772044181824 -0.3802075684070587 95 0 166
-0.8748772144317627 -0.3216533064842224 -0.3621171712875366 98 0 166
-0.890722393989563 -0.32288554310798645 -0.31993526220321655 101 0 167
-0.8983362913131714 -0.2984209656715393 -0.3223923146724701 98 0 166
-0.9108042120933533 -0.3083413541316986 -0.2745201289653778 101 0 167
-0.8840702176094055 -0.35612526535987854 -0.3026459217071533 103 0 167
-0.8479543924331665 -0.4124448597431183 -0.332960307598114 101 0 167
-0.8456190228462219 -0.42923152446746826 -0.3173150420188904 103 0 167
-0.8502320051193237 -0.40362119674682617 -0.33792808651924133 103 0 167
-0.8757645487785339 -0.3532227873802185 -0.3290441036224365 103 0 167
-0.8834695816040039 -0.34158605337142944 -0.32062503695487976 97 0 166
-0.9033904671669006 -0.2997264862060547 -0.30667510628700256 92 0 165
-0.9131585359573364 -0.2703927457332611 -0.30500689148902893 87 1 164
-0.8665004968643188 -0.30715397000312805 -0.39348873496055603 86 1 163
-0.8866258859634399 -0.29560738801956177 -0.35568368434906006 90 0 165
-0.8739112615585327 -0.3195338249206543 -0.3663020431995392 136 7 165
-0.8661068081855774 -0.32789626717567444 -0.3772837519645691 92 0 165
-0.8781267404556274 -0.3155521750450134 -0.35961100459098816 89 1 164
-0.9132890105247498 -0.2866252064704895 -0.2893943190574646 84 1 163
-0.9206444621086121 -0.26817378401756287 -0.2837193012237549 82 1 163
-0.9329630732536316 -0.2405739277601242 -0.2677760720252991 74 2 160
-0.9293686151504517 -0.2250528186559677 -0.29261794686317444 68 3 158
-0.9150044322013855 -0.2635328471660614 -0.3054787218570709 63 3 156
-0.9248507022857666 -0.2542751133441925 -0.2828345000743866 68 3 158
-0.9178937673568726 -0.22918805480003357 -0.32395046949386597 71 2 159
-0.9279386401176453 -0.24164846539497375 -0.28378844261169434 84 1 163
-0.9217370748519897 -0.2485296130180359 -0.29771435260772705 94 0 165
-0.9234171509742737 -0.25421908497810364 -0.2875298261642456 101 0 167
-0.9193059206008911 -0.25808462500572205 -0.29710090160369873 112 0 168
-0.9456614851951599 -0.2119746059179306 -0.2465585172176361 117 0 168
-0.9491691589355469 -0.21284133195877075 -0.2318972498178482 120 1 168
-0.9600764513015747 -0.19152770936489105 -0.20388811826705933 120 1 168
-0.9684329032897949 -0.14796233177185059 -0.20061159133911133 117 0 168
-0.9671055674552917 -0.09742572158575058 -0.23497895896434784 117 0 168
-0.9624729156494141 -0.09696922451257706 -0.253461629152298 121 1 168
-0.9636940360069275 -0.10648445785045624 -0.24485664069652557 124 2 167
-0.9530279636383057 -0.10163938254117966 -0.2853192687034607 120 1 168
-0.9569714665412903 -0.16691575944423676 -0.23737022280693054 121 1 168
-0.9307256937026978 -0.1884118914604187 -0.3134496510028839 121 1 168
-0.8993769288063049 -0.24102310836315155 -0.36473149061203003 124 2 167
-0.8984797596931458 -0.2471712976694107 -0.36282292008399963 136 7 165
-0.8805951476097107 -0.29088935256004333 -0.3740796744823456 150 18 160
-0.8736823797225952 -0.29845067858695984 -0.3841955065727234 167 33 151
-0.8477892279624939 -0.28980591893196106 -0.4441463351249695 183 48 138
-0.8529368042945862 -0.3056674301624298 -0.4231620728969574 194 61 128
-0.8571224212646484 -0.29031747579574585 -0.4255077838897705 204 72 118
-0.8268018364906311 -0.3092820942401886 -0.4698333442211151 213 83 109
-0.8226555585861206 -0.3546070456504822 -0.444400429725647 218 90 104
-0.802765429019928 -0.421306848526001 -0.42198115587234497 228 106 93
-0.8249495029449463 -0.40612199902534485 -0.3930944800376892 227 104 94
-0.766859233379364 -0.45395857095718384 -0.4537052810192108 231 110 90
-0.733572781085968 -0.5217645168304443 -0.4354684352874756 237 121 82
-0.7528676390647888 -0.4259903132915497 -0.5017195343971252 244 137 71
-0.7181687355041504 -0.404790461063385 -0.5660197734832764 248 150 63
-0.7079280614852905 -0.4116455316543579 -0.5739214420318604 250 160 57
-0.6322140097618103 -0.45157158374786377 -0.6295940279960632 251 163 55
-0.5875877141952515 -0.4727049171924591 -0.6567273736000061 250 159 58
-0.4738626778125763 -0.4796667695045471 -0.7384943962097168 250 160 57
-0.44105979800224304 -0.5161721706390381 -0.7341883182525635 250 160 57
-0.3990630805492401 -0.5241985321044922 -0.7523061037063599 250 160 57
-0.2904522120952606 -0.5810874104499817 -0.7602466344833374 251 163 55
-0.18710404634475708 -0.6232961416244507 -0.7592719793319702 251 162 56
-0.17757713794708252 -0.6124088168144226 -0.7703387141227722 250 160 57
-0.16914871335029602 -0.6498207449913025 -0.7410274744033813 250 160 57
-0.11160506308078766 -0.6236464977264404 -0.7736984491348267 250 160 57
-0.08387929201126099 -0.6421929597854614 -0.7619398236274719 251 162 56
-0.12726028263568878 -0.6608763337135315 -0.7396263480186462 250 160 57
-0.17082463204860687 -0.6152443289756775 -0.7696060538291931 250 157 58
-0.22186149656772614 -0.6220383048057556 -0.750896692276001 249 153 61
-0.19814348220825195 -0.6653671860694885 -0.7197400331497192 248 152 62
-0.15848807990550995 -0.6510184407234192 -0.742331862449646 249 153 61
-0.22772079706192017 -0.6588687896728516 -0.7169623970985413 246 145 66
-0.24346284568309784 -0.6501894593238831 -0.7197079658508301 247 146 65
-0.3169364035129547 -0.6491395831108093 -0.6914976835250854 243 134 73
-0.2310425192117691 -0.6475202441215515 -0.7261797189712524 239 125 79
-0.22015273571014404 -0.650235116481781 -0.7271362543106079 236 120 83
-0.1758551299571991 -0.6713588237762451 -0.7199668288230896 236 120 83
-0.18629209697246552 -0.6690871119499207 -0.7194565534591675 236 120 83
-0.22565244138240814 -0.6632631421089172 -0.7135565876960754 235 118 84
-0.2891448736190796 -0.6382668018341064 -0.7134498357772827 235 118 84
-0.27915075421333313 -0.6531311869621277 -0.703913688659668 234 116 85
-0.22714535892009735 -0.6722773909568787 -0.7045906782150269 235 118 84
-0.2213081419467926 -0.6697719097137451 -0.7088217735290527 234 116 85
-0.2112632542848587 -0.6935737133026123 -0.6887113451957703 236 119 84
-0.22953078150749207 -0.7075761556625366 -0.6683199405670166 236 119 84
-0.2336900532245636 -0.6964967846870422 -0.678440272808075 236 119 84
-0.2693233788013458 -0.6912494897842407 -0.6705513000488281 235 118 84
-0.2646465003490448 -0.7028669714927673 -0.6602576971054077 236 119 84
-0.2370682805776596 -0.7116522192955017 -0.6613242030143738 235 118 84
-0.19822336733341217 -0.7048017978668213 -0.681147575378418 235 118 84
-0.2606830894947052 -0.7218339443206787 -0.6410929560661316 236 119 84
-0.24724848568439484 -0.7269592881202698 -0.6406234502792358 235 118 84
-0.27290403842926025 -0.7154191732406616 -0.6431941986083984 234 116 85
-0.24692599475383759 -0.7135921120643616 -0.6556019186973572 234 116 85
-0.2379087209701538 -0.7176587581634521 -0.6544961929321289 235 118 84
-0.23792019486427307 -0.7048424482345581 -0.6682746410369873 238 124 80
-0.26756808161735535 -0.6825686693191528 -0.6800789833068848 236 120 83
-0.2777656018733978 -0.7024046182632446 -0.6553426384925842 235 118 84
-0.2861776053905487 -0.7002062797546387 -0.6540746092796326 236 120 83
-0.2684628963470459 -0.6901488900184631 -0.6720283031463623 237 123 81
-0.24841277301311493 -0.7037867307662964 -0.6655640006065369 232 112 89
-0.23315028846263885 -0.7091903686523438 -0.665349543094635 229 108 91
-0.1974683552980423 -0.7068713903427124 -0.6792194843292236 230 109 90
-0.1760372519493103 -0.7298228740692139 -0.6605826020240784 224 100 97
-0.20177008211612701 -0.7441810965538025 -0.6367756724357605 219 91 103
-0.14997991919517517 -0.6872377395629883 -0.7107815742492676 215 86 108
-0.13251128792762756 -0.6752591133117676 -0.7255797386169434 211 81 111
-0.2308548539876938 -0.6531769633293152 -0.7211558222770691 209 78 114
-0.2857920825481415 -0.6309230327606201 -0.721289873123169 204 72 118
-0.2713611125946045 -0.6347776651382446 -0.7234780788421631 196 63 126
-0.28604501485824585 -0.6368582248687744 -0.7159537672996521 193 60 128
-0.32808440923690796 -0.6624213457107544 -0.6734675765037537 190 56 131
-0.2963690757751465 -0.6699700355529785 -0.6806655526161194 189 55 132
-0.27078187465667725 -0.6607766151428223 -0.7000367641448975 184 50 137
-0.2963603734970093 -0.7137026190757751 -0.6346645951271057 177 43 143
-0.2894172966480255 -0.6926140189170837 -0.6606991291046143 174 39 145
-0.37128880620002747 -0.6667352318763733 -0.6462265849113464 173 38 146
-0.38688895106315613 -0.6364554166793823 -0.6672641038894653 170 36 148
-0.42591962218284607 -0.6254717707633972 -0.6537412405014038 170 36 148
-0.4392241835594177 -0.6408299803733826 -0.629618227481842 172 37 147
-0.4420926570892334 -0.645146369934082 -0.6231696009635925 172 37 147
-0.47659069299697876 -0.6350136995315552 -0.6079629063606262 168 34 150
-0.5096640586853027 -0.6281490921974182 -0.5879380106925964 164 30 152
-0.522230863571167 -0.6302106976509094 -0.5745514631271362 157 24 157
-0.5065726041793823 -0.6378797888755798 -0.5800806879997253 153 20 159
-0.5266009569168091 -0.6470304131507874 -0.5514010190963745 149 17 161
-0.5682799816131592 -0.6277078986167908 -0.5320155620574951 144 14 163
-0.5763869285583496 -0.61370450258255 -0.5395784378051758 142 12 164
-0.6610390543937683 -0.571333110332489 -0.4864215552806854 140 10 164
-0.6374050974845886 -0.5876496434211731 -0.4983799457550049 130 4 167
-0.6708807945251465 -0.5968397855758667 -0.44011494517326355 124 2 167
-0.6720852851867676 -0.6026604771614075 -0.43023455142974854 124 2 167
-0.6943080425262451 -0.5722677111625671 -0.43640121817588806 121 1 168
-0.7297447919845581 -0.5579143166542053 -0.39522674679756165 123 2 168
-0.7486064434051514 -0.5480296611785889 -0.3731645941734314 129 4 167
-0.7630313634872437 -0.55862957239151 -0.3251403570175171 137 8 165
-0.7739896178245544 -0.5285950899124146 -0.34860754013061523 140 10 164
-0.7695122361183167 -0.5352685451507568 -0.3483366072177887 144 14 163
-0.7930309772491455 -0.4957272410392761 -0.3540569841861725 143 13 163
-0.804107666015625 -0.49081337451934814 -0.33542951941490173 146 15 162
-0.8161275386810303 -0.4607401192188263 -0.34878990054130554 153 20 159
-0.8310500383377075 -0.461669385433197 -0.31018900871276855 154 21 158
-0.8342053890228271 -0.4754645824432373 -0.27934715151786804 155 23 158
-0.8528961539268494 -0.4456866383552551 -0.2719036042690277 150 18 160
-0.8636211156845093 -0.4597150981426239 -0.20693150162696838 146 15 162
-0.8514963388442993 -0.48932763934135437 -0.1884472668170929 142 12 164
-0.7894169688224792 -0.5426233410835266 -0.2870202362537384 137 8 165
-0.765720009803772 -0.5717561841011047 -0.29456356167793274 136 7 165
-0.6942533850669861 -0.6327126026153564 -0.34305539727211 136 7 165
-0.6975224018096924 -0.6298960447311401 -0.34160420298576355 137 8 165
-0.7755265831947327 -0.5941683650016785 -0.21335969865322113 137 8 165
-0.7995325922966003 -0.594683825969696 -0.08425439149141312 143 13 163
-0.8404223322868347 -0.5419172644615173 -0.004003032576292753 147 16 161
-0.8019062876701355 -0.5974377393722534 0.0037929012905806303 154 21 158
-0.7023842930793762 -0.7097976207733154 -0.053326766937971115 167 33 151
-0.6718058586120605 -0.7355399131774902 -0.08750934153795242 165 31 151
-0.5964851379394531 -0.7842631340026855 -0.1706949770450592 175 40 144
-0.659424901008606 -0.7362273931503296 -0.15207886695861816 181 46 140
-0.7379850745201111 -0.6726924180984497 -0.05350688099861145 189 55 132
-0.6615809202194214 -0.7484421730041504 -0.04631403833627701 195 62 127
-0.5889822244644165 -0.8005949854850769 -0.11021629720926285 200 68 122
-0.6125291585922241 -0.7706185579299927 -0.17594024538993835 204 72 118
-0.7163838148117065 -0.6922892928123474 -0.08677355945110321 206 74 117
-0.6535252332687378 -0.7501908540725708 -0.10059044510126114 210 80 112
-0.6180070638656616 -0.7675879001617432 -0.16992953419685364 210 80 112
-0.5373038649559021 -0.8086206912994385 -0.23966068029403687 212 82 110
-0.48637595772743225 -0.8396352529525757 -0.24176649749279022 213 83 109
-0.33983176946640015 -0.9124703407287598 -0.2278425246477127 217 89 105
-0.24193255603313446 -0.9551032781600952 -0.171015664935112 219 91 103
-0.07721880823373795 -0.9511078000068665 -0.29905036091804504 223 97 99
-0.07400625944137573 -0.9855415225028992 -0.15241751074790955 224 100 97
0.2244090884923935 -0.9433844685554504 -0.24426686763763428 224 100 97
0.2462834268808365 -0.9575774669647217 -0.14963246881961823 227 103 95
0.24852633476257324 -0.9288354516029358 -0.2747713625431061 223 97 99
0.2150358408689499 -0.9371466040611267 -0.27480149269104004 223 97 99
0.19157658517360687 -0.889243483543396 -0.4153846800327301 223 97 99
0.175384059548378 -0.8472290635108948 -0.501441240310669 225 101 96
0.13088665902614594 -0.8781329989433289 -0.46016424894332886 228 106 93
0.16457636654376984 -0.850482165813446 -0.4995945394039154 230 109 90
0.06827031821012497 -0.9013063907623291 -0.4277685284614563 231 110 90
-0.08096188306808472 -0.8623977303504944 -0.49971523880958557 229 108 91
-0.14923095703125 -0.8447358012199402 -0.5139567255973816 227 104 94
-0.1840962916612625 -0.8520796298980713 -0.48996827006340027 229 108 91
-0.1711961030960083 -0.8369249701499939 -0.5198543071746826 229 108 91
-0.08483286947011948 -0.8093570470809937 -0.5811578035354614 229 107 92
-0.042634617537260056 -0.819645345211029 -0.5712826251983643 229 107 92
0.22602814435958862 -0.7815531492233276 -0.5814515948295593 227 104 94
0.4375603199005127 -0.6249207258224487 -0.6465408802032471 230 109 90
0.6156710386276245 -0.43301743268966675 -0.6583654880523682 229 108 91
0.7592864036560059 -0.2580265402793884 -0.5974165201187134 236 119 84
0.7518503665924072 -0.26859384775161743 -0.6021448373794556 241 130 76
0.7187448143959045 -0.27758604288101196 -0.6374572515487671 237 121 82
0.7145475745201111 -0.2276434451341629 -0.66151362657547 232 113 88
0.652327299118042 -0.2698100209236145 -0.7082878947257996 234 115 86
0.5489020347595215 -0.3103027939796448 -0.7761564254760742 233 114 87
0.38096264004707336 -0.3601604998111725 -0.8515585064888 234 116 85
0.2193097025156021 -0.40943342447280884 -0.8855887651443481 232 112 89
0.08388166129589081 -0.41166025400161743 -0.9074687957763672 232 113 88
-0.10812283307313919 -0.41226959228515625 -0.9046232104301453 229 108 91
-0.1871783435344696 -0.36832937598228455 -0.9106578230857849 211 81 111
-0.2546178698539734 -0.4314929246902466 -0.8654384613037109 212 82 110
-0.14060792326927185 -0.4809681475162506 -0.8653895258903503 212 82 110
-0.17850321531295776 -0.49122366309165955 -0.852546751499176 209 79 113
-0.23910899460315704 -0.4666537046432495 -0.8515052199363708 212 82 110
-0.2942497730255127 -0.43626004457473755 -0.8503495454788208 191 57 130
-0.3219713568687439 -0.46816131472587585 -0.8228970170021057 181 46 140
-0.37925827503204346 -0.46802008152008057 -0.7981982231140137 181 46 140
-0.3530368208885193 -0.462363064289093 -0.8133789896965027 181 46 140
-0.43268024921417236 -0.47137489914894104 -0.7685008645057678 174 39 145
-0.4420676529407501 -0.4606354832649231 -0.7696695327758789 159 26 155
-0.42613744735717773 -0.46535801887512207 -0.7757890820503235 150 18 160
-0.3359459936618805 -0.4790188670158386 -0.8109754920005798 142 12 164
-0.3717896044254303 -0.4980124831199646 -0.7834258675575256 134 7 166
-0.43412646651268005 -0.4558308720588684 -0.7770150899887085 129 4 167
-0.5492385625839233 -0.4144040048122406 -0.7256764769554138 118 1 168
-0.5738086700439453 -0.4191668629646301 -0.7035927772521973 109 0 168
-0.6160731315612793 -0.44165951013565063 -0.652219831943512 101 0 167
-0.6287364363670349 -0.46216505765914917 -0.6253750324249268 100 0 167
-0.6621519923210144 -0.5052220225334167 -0.5534487366676331 100 0 167
-0.6437453031539917 -0.502118706703186 -0.5774675607681274 101 0 167
-0.6379258036613464 -0.5297598242759705 -0.5589321851730347 106 0 167
-0.6300605535507202 -0.5398017168045044 -0.5582453608512878 109 0 168
-0.6440040469169617 -0.5615110397338867 -0.519580602645874 109 0 168
-0.6807484030723572 -0.5155516266822815 -0.5203730463981628 111 0 168
-0.7585471868515015 -0.47353631258010864 -0.4476265013217926 109 0 168
-0.7419378161430359 -0.507947564125061 -0.43762722611427307 112 0 168
-0.7843097448348999 -0.47068244218826294 -0.404123991727829 123 2 168
-0.8010997176170349 -0.45012015104293823 -0.3945010304450989 127 3 167
-0.8148956298828125 -0.45892906188964844 -0.35401859879493713 123 2 168
-0.8071249723434448 -0.4709544777870178 -0.35602113604545593 121 1 168
-0.8082011342048645 -0.4791613519191742 -0.3423672914505005 124 2 167
-0.8023476600646973 -0.507926344871521 -0.31344714760780334 132 5 166
-0.7562107443809509 -0.5695220232009888 -0.3221644163131714 129 4 167
-0.744705855846405 -0.6034715175628662 -0.28501832485198975 127 3 167
-0.7283596396446228 -0.616645872592926 -0.2987308204174042 124 2 167
-0.7232481837272644 -0.594389796257019 -0.35158616304397583 115 0 168
-0.7380397319793701 -0.5901646018028259 -0.3271133303642273 104 0 167
-0.7686964273452759 -0.5787805914878845 -0.2722477316856384 106 0 167
-0.7637942433357239 -0.5772558450698853 -0.28878021240234375 103 0 167
-0.7913561463356018 -0.5440244674682617 -0.2789134979248047 104 0 167
-0.7702597975730896 -0.5541558861732483 -0.3156123459339142 108 0 168
-0.7376025319099426 -0.5987802743911743 -0.3120972514152527 115 0 168
-0.7503328323364258 -0.6159207820892334 -0.24008798599243164 120 1 168
-0.7629906535148621 -0.5887473821640015 -0.2668743133544922 121 1 168
-0.7972261309623718 -0.5757170915603638 -0.18160487711429596 118 1 168
-0.7947824001312256 -0.5660606026649475 -0.21885216236114502 127 3 167
-0.8135054111480713 -0.5445430874824524 -0.20416122674942017 130 4 167
-0.8111100792884827 -0.5312349796295166 -0.24472394585609436 129 4 167
-0.7949691414833069 -0.5652008652687073 -0.22039064764976501 126 3 167
-0.790203332901001 -0.5700364112854004 -0.22502708435058594 121 1 168
-0.7726540565490723 -0.5805937647819519 -0.2567422389984131 112 0 168
-0.7814879417419434 -0.551418125629425 -0.2919154167175293 115 0 168
-0.7911758422851562 -0.5381448864936829 -0.2905871272087097 114 0 168
-0.7892928719520569 -0.5595427751541138 -0.25284120440483093 111 0 168
-0.738361120223999 -0.5790122747421265 -0.345785528421402 94 0 165
-0.7661118507385254 -0.5760387778282166 -0.28504735231399536 89 1 164
-0.7797152996063232 -0.5369592308998108 -0.32205408811569214 81 1 162
-0.8301399350166321 -0.4764290153980255 -0.2896255552768707 71 2 159
-0.8527840971946716 -0.4356757402420044 -0.2880033254623413 63 3 156
-0.8485928177833557 -0.441964328289032 -0.2907882332801819 56 4 153
-0.8304300308227539 -0.4908962845802307 -0.26345181465148926 52 4 152
-0.7921779751777649 -0.5279960036277771 -0.3060624599456787 47 4 149
-0.7971996665000916 -0.5142368674278259 -0.3162801265716553 41 5 147
-0.8107874393463135 -0.48719364404678345 -0.3244472146034241 43 5 148
-0.8084368109703064 -0.49983951449394226 -0.31078994274139404 49 4 150
-0.803477942943573 -0.50994473695755 -0.3072126805782318 58 4 154
-0.8331611156463623 -0.5127097964286804 -0.20729506015777588 61 3 155
-0.8414564728736877 -0.4646836221218109 -0.2757175862789154 68 3 158
-0.866750180721283 -0.43440699577331543 -0.24501968920230865 73 2 159
-0.8491250276565552 -0.4751240611076355 -0.2307460457086563 79 2 162
-0.8100557923316956 -0.5108238458633423 -0.28786900639533997 92 0 165
-0.8122835755348206 -0.5284271836280823 -0.2469010353088379 100 0 167
-0.8541592955589294 -0.4730777442455292 -0.21589189767837524 114 0 168
-0.8399523496627808 -0.5028218030929565 -0.2040841430425644 130 4 167
-0.827826738357544 -0.5016584992408752 -0.25108101963996887 144 14 163
-0.8224430084228516 -0.5041276812553406 -0.26351985335350037 155 23 158
-0.8501840233802795 -0.4733850657939911 -0.23042084276676178 170 36 148
-0.8346241116523743 -0.5001712441444397 -0.2307191789150238 185 51 136
-0.7720361948013306 -0.5342223644256592 -0.3443349599838257 197 64 125
-0.7257840037345886 -0.5462517738342285 -0.4181464910507202 206 74 117
-0.7074832320213318 -0.5675534605979919 -0.42113009095191956 209 79 113
-0.7003109455108643 -0.6192009449005127 -0.3551826477050781 214 85 109
-0.6794931888580322 -0.6386393308639526 -0.36114922165870667 212 82 110
-0.6068894863128662 -0.6635102033615112 -0.43753793835639954 209 78 114
-0.6162522435188293 -0.6360644102096558 -0.46438688039779663 204 72 118
-0.7075915932655334 -0.579207718372345 -0.40476226806640625 202 70 120
-0.7466177344322205 -0.5739591121673584 -0.3363523781299591 197 64 125
-0.6351386904716492 -0.567828893661499 -0.5236117243766785 187 53 134
-0.6037624478340149 -0.6056591272354126 -0.5183124542236328 182 47 139
-0.5208119750022888 -0.5430226922035217 -0.6586966514587402 172 37 147
-0.43539711833000183 -0.5207639932632446 -0.7343257069587708 170 36 148
-0.45648837089538574 -0.5418704748153687 -0.7056874632835388 168 34 150
-0.45104193687438965 -0.5224374532699585 -0.7236161231994629 170 36 148
-0.492627888917923 -0.4972339868545532 -0.7141961455345154 170 36 148
-0.4986816644668579 -0.5228195190429688 -0.691358208656311 170 36 148
-0.5177453756332397 -0.5225533843040466 -0.677405059337616 165 31 151
-0.5768911838531494 -0.479094922542572 -0.6615622043609619 162 28 154
-0.6220182776451111 -0.43625375628471375 -0.6502122282981873 163 29 153
-0.6504552960395813 -0.35786277055740356 -0.6699568629264832 162 28 154
-0.6340877413749695 -0.3873995840549469 -0.6692191362380981 162 28 154
-0.6486378908157349 -0.4516088664531708 -0.6126322746276855 160 27 155
-0.6874421834945679 -0.45654067397117615 -0.5647954344749451 163 29 153
-0.7201753854751587 -0.4580004811286926 -0.5211362838745117 164 30 152
-0.7123495936393738 -0.47487467527389526 -0.5167708396911621 165 31 151
-0.7766554355621338 -0.4008794128894806 -0.48590320348739624 163 29 153
-0.7735041975975037 -0.3726256489753723 -0.51268070936203 167 33 151
-0.7276466488838196 -0.42047256231307983 -0.5419716238975525 167 33 151
-0.7220852375030518 -0.44533267617225647 -0.5294069051742554 168 34 150
-0.6521632075309753 -0.4964085817337036 -0.572941243648529 164 30 152
-0.6483112573623657 -0.5250657200813293 -0.551360547542572 163 29 153
-0.635715901851654 -0.5489790439605713 -0.5426669120788574 157 24 157
-0.6539809107780457 -0.5015347599983215 -0.5663672685623169 160 27 155
-0.6517491340637207 -0.5197922587394714 -0.5523033738136292 164 30 152
-0.6070173978805542 -0.5615257024765015 -0.5623332858085632 173 38 146
-0.580185055732727 -0.6030268669128418 -0.5474887490272522 160 27 155
-0.5889856219291687 -0.5698309540748596 -0.5730519890785217 153 20 159
-0.6045079827308655 -0.584281861782074 -0.5414654016494751 173 38 146
-0.5949022769927979 -0.58451247215271 -0.5517576932907104 167 33 151
-0.6147773861885071 -0.5695173144340515 -0.5456176996231079 162 28 154
-0.6896420121192932 -0.5346408486366272 -0.48841890692710876 158 25 156
-0.6825279593467712 -0.5107387900352478 -0.5227823853492737 158 25 156
-0.6766453981399536 -0.5296692252159119 -0.5114699602127075 154 21 158
-0.6788257360458374 -0.5325917601585388 -0.5055112242698669 155 23 158
-0.7059284448623657 -0.5231752991676331 -0.47744396328926086 153 20 159
-0.6951092481613159 -0.5488370060920715 -0.46432843804359436 155 23 158
-0.6609736084938049 -0.5841217041015625 -0.47107940912246704 180 45 141
-0.6791698932647705 -0.552747905254364 -0.4829058349132538 182 47 139
-0.6765748858451843 -0.5474636554718018 -0.49247342348098755 157 24 157
-0.5840040445327759 -0.6089206337928772 -0.5368005633354187 164 30 152
-0.5467926859855652 -0.6494929790496826 -0.5283716917037964 162 28 154
-0.45496222376823425 -0.6719076037406921 -0.5844223499298096 159 26 155
-0.4056532084941864 -0.7114968299865723 -0.5737749934196472 180 45 141
-0.34619614481925964 -0.7263286113739014 -0.5937971472740173 181 46 140
-0.36289161443710327 -0.730418860912323 -0.5786173343658447 176 42 143
-0.39182335138320923 -0.7357387542724609 -0.5524155497550964 167 33 151
-0.4494319558143616 -0.7040711641311646 -0.5498133301734924 176 42 143
-0.4435620605945587 -0.6877314448356628 -0.5746983289718628 185 51 136
-0.4039955735206604 -0.6941450834274292 -0.5957769751548767 189 55 132
-0.3639577031135559 -0.6765580773353577 -0.6401593089103699 190 56 131
-0.3578801155090332 -0.6822376251220703 -0.6375528573989868 192 59 129
-0.39535239338874817 -0.6761702299118042 -0.6216834783554077 195 62 127
-0.4410720765590668 -0.6568546295166016 -0.6115532517433167 192 59 129
-0.4679557979106903 -0.6342761516571045 -0.6153951287269592 185 51 136
-0.5023369193077087 -0.6133301854133606 -0.6094946265220642 178 44 142
-0.5690087080001831 -0.5735803842544556 -0.5892661809921265 173 38 146
-0.5637719035148621 -0.5751572251319885 -0.5927524566650391 164 30 152
-0.5361018776893616 -0.5721371173858643 -0.620688259601593 163 29 153
-0.35771456360816956 -0.6145187020301819 -0.7031408548355103 160 27 155
-0.2711741328239441 -0.6123570799827576 -0.7426193356513977 162 28 154
-0.1526620239019394 -0.6312311291694641 -0.7604220509529114 158 25 156
-0.0567551888525486 -0.6579816937446594 -0.7508921027183533 158 25 156
-0.03351135551929474 -0.6620451211929321 -0.7487143874168396 167 33 151
-0.05353938415646553 -0.6380478739738464 -0.7681330442428589 174 39 145
-0.10150608420372009 -0.658571720123291 -0.7456405162811279 175 40 144
-0.1989801675081253 -0.656368613243103 -0.7277274131774902 180 45 141
-0.2480023205280304 -0.677210807800293 -0.6927339434623718 191 57 130
-0.28118985891342163 -0.6733163595199585 -0.6837962865829468 193 60 128
-0.3519085943698883 -0.6734601259231567 -0.6500860452651978 197 64 125
-0.3280012607574463 -0.660563051700592 -0.6753307580947876 200 68 122
-0.3531254529953003 -0.6711208820343018 -0.6518428921699524 204 72 118
-0.2699081301689148 -0.7156699895858765 -0.6441786885261536 207 75 116
-0.20245575904846191 -0.6878693103790283 -0.6970276832580566 208 77 115
-0.14892004430294037 -0.6988471150398254 -0.699596643447876 212 82 110
-0.14724253118038177 -0.7017903923988342 -0.6970006823539734 218 90 104
-0.08986716717481613 -0.7009525895118713 -0.7075234055519104 226 102 96
-0.13498534262180328 -0.7000952363014221 -0.7011744379997253 232 113 88
-0.11623530834913254 -0.7319642305374146 -0.671355128288269 237 123 81
-0.04754110425710678 -0.7398733496665955 -0.6710643768310547 240 129 77
-0.0025049152318388224 -0.7099289894104004 -0.7042688131332397 242 132 75
0.048147737979888916 -0.6653547286987305 -0.7449730634689331 242 133 74
0.04801981896162033 -0.640811026096344 -0.7661953568458557 243 135 72
0.16192160546779633 -0.6101985573768616 -0.7755250930786133 243 135 72
0.21838714182376862 -0.647946834564209 -0.7297068238258362 244 137 71
0.2894422113895416 -0.6128488779067993 -0.7352819442749023 245 141 69
0.3134216368198395 -0.6081223487854004 -0.7293517589569092 247 147 65
0.32653647661209106 -0.6255253553390503 -0.7085844874382019 250 157 58
0.3121090829372406 -0.6404418349266052 -0.7017280459403992 252 170 51
0.32154279947280884 -0.6842684745788574 -0.6545126438140869 246 145 66
0.3629964590072632 -0.6873081922531128 -0.6291589736938477 249 154 60
0.46260666847229004 -0.6553701758384705 -0.5970636010169983 250 159 58
0.46194368600845337 -0.6878434419631958 -0.559892475605011 251 164 54
0.4821658134460449 -0.6563102006912231 -0.5803215503692627 250 156 59
0.48707491159439087 -0.6470599174499512 -0.5865760445594788 247 147 65
0.47867950797080994 -0.6279213428497314 -0.6136618852615356 246 145 66
0.47435319423675537 -0.5978652238845825 -0.646178126335144 246 145 66
0.47990289330482483 -0.5887526869773865 -0.6504332423210144 246 145 66
0.48800671100616455 -0.5831815004348755 -0.6494219303131104 247 146 65
0.5175302624702454 -0.5783270597457886 -0.6306347250938416 246 142 68
0.5355378985404968 -0.5533169507980347 -0.6379966139793396 245 139 70
0.537915825843811 -0.5491971373558044 -0.6395537257194519 244 137 71
0.48664942383766174 -0.5944435596466064 -0.6401635408401489 243 135 72
0.4483569860458374 -0.5997018814086914 -0.6628225445747375 243 134 73
0.4382932186126709 -0.591884970664978 -0.6764401793479919 243 135 72
0.3741517961025238 -0.6292485594749451 -0.6812171339988708 226 102 96
0.36940452456474304 -0.5947256684303284 -0.714031994342804 240 128 77
0.3105912506580353 -0.5980272889137268 -0.7388480305671692 237 121 82
0.35433274507522583 -0.5627464056015015 -0.7468365430831909 236 119 84
0.3503878712654114 -0.5792242288589478 -0.7360215187072754 237 121 82
0.3739721477031708 -0.5471760034561157 -0.7488279342651367 243 134 73
0.378021776676178 -0.5320463180541992 -0.7576451301574707 241 130 76
0.38693901896476746 -0.5497532486915588 -0.7403036952018738 232 113 88
0.3859650194644928 -0.5831848978996277 -0.7147912383079529 234 116 85
0.36854982376098633 -0.5811992287635803 -0.7255194187164307 236 119 84
0.35939931869506836 -0.5750551223754883 -0.734944760799408 240 128 77
0.36274152994155884 -0.5854784250259399 -0.7250058650970459 239 125 79
0.37066763639450073 -0.574157178401947 -0.7300335764884949 236 120 83
0.36274030804634094 -0.5781232714653015 -0.7308851480484009 234 116 85
0.3626241087913513 -0.5800542235374451 -0.7294113039970398 235 118 84
0.36325332522392273 -0.5733209848403931 -0.7344045639038086 237 121 82
0.3853762149810791 -0.5661179423332214 -0.7286944389343262 238 124 80
0.39791589975357056 -0.5546569228172302 -0.7307658195495605 241 130 76
0.3639371693134308 -0.5940786600112915 -0.7173704504966736 240 128 77
0.3694334328174591 -0.5842838883399963 -0.7225865125656128 248 149 64
0.3659934997558594 -0.5784034729003906 -0.7290392518043518 243 134 73
0.383357971906662 -0.569306492805481 -0.7272735834121704 250 159 58
0.3752693235874176 -0.5783773064613342 -0.7243290543556213 250 160 57
0.38900211453437805 -0.5660932660102844 -0.7267845869064331 244 137 71
0.3520626723766327 -0.5813952088356018 -0.7335063219070435 242 133 74
0.3513387143611908 -0.5403825044631958 -0.7645573019981384 244 138 71
0.3567006587982178 -0.540137529373169 -0.7622441649436951 243 134 73
0.3432634770870209 -0.5265675783157349 -0.777751088142395 240 128 77
0.328794926404953 -0.5689272880554199 -0.7538008093833923 237 121 82
0.3502733111381531 -0.5486323833465576 -0.7591515183448792 233 114 87
0.36955875158309937 -0.5473664402961731 -0.7508770227432251 227 104 94
0.38307586312294006 -0.5360084772109985 -0.7522950172424316 217 89 105
0.38314154744148254 -0.4985195994377136 -0.7776122093200684 210 80 112
0.2995174825191498 -0.5563450455665588 -0.7750931978225708 206 74 117
0.22196774184703827 -0.5564489364624023 -0.8006840944290161 203 71 119
0.19155210256576538 -0.5864485502243042 -0.7870107293128967 196 63 126
0.2141139805316925 -0.579589307308197 -0.7862770557403564 193 60 128
0.2709577679634094 -0.5899388194084167 -0.7606274485588074 186 52 135
0.2926758825778961 -0.5740326046943665 -0.7647401690483093 181 46 140
0.30785396695137024 -0.5635067820549011 -0.766606867313385 177 43 143
0.2848028540611267 -0.5718446373939514 -0.7693380117416382 176 42 143
0.23028571903705597 -0.5833978056907654 -0.7788552045822144 174 39 145
0.2184043824672699 -0.5302699208259583 -0.8192150592803955 174 39 145
0.18716946244239807 -0.5190848112106323 -0.8339775204658508 175 40 144
0.2928752899169922 -0.5263897180557251 -0.7982091903686523 177 43 143
0.40439730882644653 -0.517941415309906 -0.7537901997566223 178 44 142
0.4312123954296112 -0.5415939688682556 -0.7216174602508545 178 44 142
0.428005188703537 -0.5655120015144348 -0.7049877047538757 176 42 143
0.40094709396362305 -0.5812369585037231 -0.7080995440483093 175 40 144
0.32948026061058044 -0.6880092024803162 -0.6465957164764404 174 39 145
0.35467180609703064 -0.6448389887809753 -0.6770455241203308 174 39 145
0.3365480899810791 -0.720262348651886 -0.6065950989723206 173 38 146
0.24839964509010315 -0.7545889616012573 -0.6073657274246216 173 38 146
0.2509259879589081 -0.7213084697723389 -0.645561933517456 170 36 148
0.309359073638916 -0.6972782015800476 -0.6466066837310791 165 31 151
0.40933674573898315 -0.6693462133407593 -0.6200153827667236 162 28 154
0.49299106001853943 -0.6597113013267517 -0.5672220587730408 164 30 152
0.40641066431999207 -0.6759207844734192 -0.6147856712341309 170 36 148
0.4121434986591339 -0.6833702921867371 -0.6026133894920349 175 40 144
0.5233396291732788 -0.6920506358146667 -0.497173547744751 180 45 141
0.6312798857688904 -0.6572049856185913 -0.41178539395332336 184 50 137
0.6304008364677429 -0.7488974928855896 -0.2043219357728958 185 51 136
0.523468017578125 -0.8323339223861694 -0.1822127252817154 186 52 135
0.3486965298652649 -0.9180586338043213 -0.18862447142601013 184 50 137
0.2642957866191864 -0.9587721824645996 -0.1044207438826561 182 47 139
0.24937881529331207 -0.9639266729354858 -0.09303490072488785 182 47 139
0.09789761155843735 -0.9950869679450989 0.014765072613954544 181 46 140
-0.09029707312583923 -0.9959137439727783 0.001515958341769874 180 45 141
-0.264688104391098 -0.9643318057060242 0.002092671813443303 178 44 142
-0.31190046668052673 -0.9492915272712708 -0.03954228758811951 181 46 140
-0.29730117321014404 -0.9538520574569702 -0.04216925799846649 185 51 136
-0.23052889108657837 -0.9671215415000916 0.10738904029130936 188 54 133
-0.2993909418582916 -0.8753282427787781 0.37969133257865906 189 55 132
-0.18995150923728943 -0.8955640196800232 0.4023476243019104 191 57 130
0.03043227270245552 -0.9575613141059875 0.28661876916885376 187 53 134
0.05795379728078842 -0.9305002093315125 0.36167776584625244 186 52 135
-0.1266639530658722 -0.9477701187133789 0.2927252948284149 186 52 135
-0.24977299571037292 -0.8813883662223816 0.40095895528793335 185 51 136
-0.255743145942688 -0.8523771166801453 0.45612356066703796 186 52 135
-0.20390942692756653 -0.8653110265731812 0.4578840434551239 187 53 134
-0.2041664719581604 -0.8238598108291626 0.5287448167800903 189 55 132
-0.20413537323474884 -0.8592831492424011 0.46900027990341187 190 56 131
-0.25627416372299194 -0.7355303764343262 0.6271512508392334 188 54 133
-0.2080458402633667 -0.7414932250976562 0.6378908157348633 189 55 132
-0.17338880896568298 -0.7590096592903137 0.6275673508644104 188 54 133
-0.20203496515750885 -0.6696392297744751 0.7146782875061035 184 50 137
-0.21947243809700012 -0.6912194490432739 0.6885111331939697 184 50 137
-0.2405821830034256 -0.6996354460716248 0.6727781891822815 186 52 135
-0.3014817535877228 -0.6969481110572815 0.6506705284118652 182 47 139
-0.15587809681892395 -0.7381969690322876 0.6563286185264587 177 43 143
-0.08714989572763443 -0.5963053107261658 0.7980131506919861 175 40 144
-0.10096119344234467 -0.4435110092163086 0.8905643820762634 178 44 142
-0.1905890554189682 -0.3892408013343811 0.9012032747268677 180 45 141
-0.10247748345136642 -0.42019882798194885 0.9016270041465759 178 44 142
-0.09714927524328232 -0.247918039560318 0.9638976454734802 178 44 142
-0.0054226648062467575 -0.22019511461257935 0.9754407405853271 183 48 138
-0.03526529669761658 -0.41076868772506714 0.9110572934150696 184 50 137
-0.0986613854765892 -0.38787129521369934 0.9164179563522339 182 47 139
-0.27711188793182373 -0.252168208360672 0.9271570444107056 183 48 138
-0.27978357672691345 -0.26473844051361084 0.9228405952453613 183 48 138
-0.2213946431875229 -0.23867008090019226 0.9455268383026123 181 46 140
-0.18249329924583435 -0.10266432911157608 0.9778323769569397 182 47 139
-0.212979257106781 0.02468712441623211 0.9767447710037231 180 45 141
-0.18049485981464386 0.03560829535126686 0.9829311966896057 177 43 143
-0.087333545088768 0.03483026847243309 0.9955700039863586 175 40 144
-0.007274087518453598 0.062208142131567 0.9980366826057434 178 44 142
0.0892605260014534 0.0814438983798027 0.9926729202270508 184 50 137
0.19836711883544922 0.005417850334197283 0.9801127910614014 187 53 134
0.17877531051635742 -0.0012893020175397396 0.983889102935791 191 57 130
0.08074408769607544 -0.02835247293114662 0.996331512928009 191 57 130
0.056724913418293 -0.035138584673404694 0.9977713227272034 191 57 130
0.09477410465478897 -0.033275339752435684 0.9949424862861633 188 54 133
0.15178066492080688 0.007157070562243462 0.9883882403373718 184 50 137
0.17177703976631165 0.025666553527116776 0.9848014116287231 185 51 136
0.17813917994499207 0.032127924263477325 0.9834806323051453 177 43 143
0.19526486098766327 0.029499612748622894 0.9803068041801453 172 37 147
0.09129656851291656 0.0013448026729747653 0.9958228468894958 176 42 143
-0.008996439166367054 0.02940422296524048 0.9995271563529968 185 51 136
-0.010911328718066216 -0.010888309217989445 0.9998811483383179 194 61 128
0.00448396522551775 0.03714076057076454 0.9993000030517578 202 70 120
0.012528606690466404 0.041693173348903656 0.9990519881248474 210 80 112
0.03261725604534149 0.0002798992791213095 0.9994679093360901 217 89 105
0.04930902644991875 -0.022537700831890106 0.9985292553901672 221 95 101
0.10305500775575638 -0.06853493303060532 0.9923117160797119 224 100 97
0.11717294156551361 -0.04450554773211479 0.9921137690544128 224 100 97
0.15273885428905487 -0.05520062893629074 0.986723780632019 223 97 99
0.2218344658613205 -0.043799977749586105 0.9741000533103943 220 93 102
0.20492467284202576 -0.011325127445161343 0.978712260723114 219 91 103
0.2521115243434906 -0.06325255334377289 0.9656287431716919 217 89 105
0.25708842277526855 -0.03164730221033096 0.9658695459365845 215 87 107
0.2400120198726654 0.0007137974025681615 0.9707696437835693 213 83 109
0.3201829493045807 -0.0030280116479843855 0.9473509192466736 213 83 109
0.4087629020214081 -0.0048729246482253075 0.9126275777816772 215 86 108
0.46647313237190247 0.041172709316015244 0.8835766315460205 215 86 108
0.47502464056015015 0.07923401147127151 0.8763980269432068 215 86 108
0.4573405086994171 0.07588484138250351 0.8860480189323425 217 89 105
0.4319256842136383 0.09214753657579422 0.8971895575523376 219 91 103
0.4009647071361542 0.13078084588050842 0.9067103862762451 220 94 102
0.37649083137512207 0.14361482858657837 0.9152209758758545 212 82 110
0.4136062264442444 0.11263496428728104 0.9034618139266968 196 63 126
0.40100574493408203 0.14158348739147186 0.9050682783126831 206 74 117
0.3798956573009491 0.13486553728580475 0.9151451587677002 220 94 102
0.38975203037261963 0.12807074189186096 0.9119710922241211 221 95 101
0.3851257562637329 0.11649910360574722 0.9154813289642334 220 94 102
0.38804784417152405 0.1550573706626892 0.9085021018981934 219 91 103
0.3855130672454834 0.16704824566841125 0.9074549674987793 214 85 109
0.35579511523246765 0.15404044091701508 0.9217816591262817 217 89 105
0.3661225140094757 0.13589681684970856 0.9205902218818665 217 89 105
0.37217533588409424 0.15747958421707153 0.9147052764892578 216 88 106
0.35366135835647583 0.11602535843849182 0.9281496405601501 196 63 126
0.28218093514442444 0.06659338623285294 0.9570471048355103 186 52 135
0.31079909205436707 0.02667509950697422 0.9501012563705444 186 52 135
0.29026734828948975 0.025294125080108643 0.9566112160682678 189 55 132
0.22092276811599731 0.04875301197171211 0.9740719795227051 191 57 130
0.23186300694942474 0.019785577431321144 0.9725472331047058 187 53 134
0.2769405245780945 0.002191502833738923 0.9608845710754395 187 53 134
0.31288647651672363 0.016247741878032684 0.9496515393257141 190 56 131
0.3289513885974884 0.0284589771181345 0.943917989730835 186 52 135
0.3047749400138855 0.013531006872653961 0.9523282647132874 208 77 115
0.236328586935997 -0.006883142050355673 0.9716488122940063 215 87 107
0.15344251692295074 0.02816164679825306 0.9877561926841736 188 54 133
0.17394475638866425 0.029851237311959267 0.9843028783798218 193 60 128
0.22997404634952545 -0.009418795816600323 0.9731511473655701 192 59 129
0.2585046589374542 -0.01885061338543892 0.9658260345458984 189 55 132
0.27199044823646545 -0.00805260706692934 0.9622662663459778 189 55 132
0.2712743580341339 -0.021546117961406708 0.9622608423233032 192 59 129
0.23670348525047302 -0.015197229571640491 0.9714630246162415 189 55 132
0.1735510677099228 -0.010197647847235203 0.9847720861434937 193 60 128
0.12808005511760712 -0.00913565419614315 0.9917218089103699 188 54 133
0.11677070707082748 -0.036983147263526917 0.9924700856208801 192 59 129
0.13768932223320007 -0.03310694918036461 0.9899219870567322 213 83 109
0.18106070160865784 -0.012316275388002396 0.9833948016166687 215 87 107
0.2196582555770874 -0.002519497647881508 0.9755736589431763 215 86 108
0.2114117443561554 0.04656127840280533 0.9762874245643616 192 59 129
0.22378762066364288 0.054794248193502426 0.973096489906311 192 59 129
0.23810823261737823 0.06915883719921112 0.9687731862068176 191 57 130
0.258199006319046 0.10261515527963638 0.9606265425682068 187 53 134
0.2814143896102905 0.10747696459293365 0.9535484313964844 190 56 131
0.30129510164260864 0.12336831539869308 0.9455165266990662 197 64 125
0.3158915936946869 0.14009623229503632 0.9383951425552368 184 50 137
0.32086730003356934 0.14124108850955963 0.9365335702896118 189 55 132
0.32094284892082214 0.1411258727312088 0.9365251064300537 189 55 132
0.2942323684692383 0.13234779238700867 0.9465259909629822 190 56 131
0.3056705594062805 0.09520897269248962 0.9473652243614197 191 57 130
0.3185354769229889 0.10047288984060287 0.9425711035728455 191 57 130
0.31968894600868225 0.0931072011590004 0.942936897277832 193 60 128
0.32943853735923767 0.08535970002412796 0.940310537815094 189 55 132
0.32793688774108887 0.07129576802253723 0.9420055150985718 189 55 132
0.3010439872741699 0.08023659139871597 0.950228750705719 187 53 134
0.2863890826702118 0.07437442988157272 0.9552223682403564 187 53 134
0.2953454852104187 0.07460910826921463 0.9524728059768677 189 55 132
0.2813880443572998 0.08006315678358078 0.9562482237815857 190 56 131
0.2529323697090149 0.08083119988441467 0.9641013741493225 188 54 133
0.2053970992565155 0.08932429552078247 0.9745938777923584 192 59 129
0.22340288758277893 0.06772502511739731 0.9723705053329468 190 56 131
0.26465263962745667 0.04326096549630165 0.9633729457855225 191 57 130
0.27957624197006226 0.05630286782979965 0.9584711790084839 185 51 136
0.2479041963815689 0.06968981772661209 0.9662746787071228 186 52 135
0.24949505925178528 0.04291010648012161 0.9674248695373535 184 50 137
0.27457815408706665 0.05173565819859505 0.9601719975471497 187 53 134
0.3015466332435608 0.07585172355175018 0.9504294991493225 211 81 111
0.2872857451438904 0.10082873702049255 0.9525231719017029 215 86 108
0.22864975035190582 0.10350605100393295 0.9679905772209167 214 85 109
0.18492816388607025 0.08048555999994278 0.9794506430625916 217 89 105
0.1306249499320984 0.14435061812400818 0.9808669090270996 219 91 103
0.1581610143184662 0.1301269680261612 0.9788013696670532 220 94 102
0.14802418649196625 0.11930935829877853 0.9817607402801514 221 95 101
0.14059387147426605 0.12285614758729935 0.9824152588844299 226 102 96
0.15578000247478485 0.12528276443481445 0.9798146486282349 228 106 93
0.1746412217617035 0.17583821713924408 0.968804121017456 230 109 90
0.1316758096218109 0.22328248620033264 0.9658190608024597 231 110 90
0.06549504399299622 0.2683008015155792 0.9611061215400696 229 108 91
0.02272886410355568 0.2510794997215271 0.9676995873451233 227 104 94
0.045632582157850266 0.2509365975856781 0.9669274091720581 226 102 96
0.05980992317199707 0.25797250866889954 0.964299201965332 221 95 101
0.10997931659221649 0.3110605776309967 0.9440051913261414 219 91 103
0.1996667981147766 0.32491225004196167 0.9244269728660583 220 93 102
0.3009068965911865 0.3399045765399933 0.8910217881202698 221 95 101
0.3123927414417267 0.34302887320518494 0.8858566284179688 222 96 100
0.3248971402645111 0.365543007850647 0.8722500205039978 223 97 99
0.31903302669525146 0.38301587104797363 0.866900622844696 223 98 98
0.23243026435375214 0.3732568621635437 0.8981399536132812 223 98 98
0.25854113698005676 0.342292845249176 0.9033228158950806 223 98 98
0.2910180389881134 0.3184451162815094 0.9021646976470947 224 100 97
0.3211709260940552 0.32791197299957275 0.8884385228157043 226 102 96
0.34880530834198 0.3345107138156891 0.875464141368866 227 103 95
0.3600236177444458 0.3342973589897156 0.8709926605224609 226 102 96
0.4192689061164856 0.3551967442035675 0.8354932069778442 225 101 96
0.45087337493896484 0.3530693054199219 0.8197897672653198 225 101 96
0.4525565505027771 0.3819977641105652 0.8057730793952942 225 101 96
0.45540598034858704 0.3655540347099304 0.8117731213569641 225 101 96
0.42692500352859497 0.3331278860569 0.8406906127929688 226 102 96
0.4092954397201538 0.3589940369129181 0.838809072971344 227 103 95
0.4009876251220703 0.3329208791255951 0.8534475564956665 227 104 94
0.37765806913375854 0.34647136926651 0.8586803674697876 227 104 94
0.3411077857017517 0.34206342697143555 0.8755786418914795 227 103 95
0.3346312344074249 0.30155080556869507 0.8927984237670898 227 103 95
0.35430142283439636 0.3037980794906616 0.8844078183174133 226 102 96
0.3367484509944916 0.29375723004341125 0.8945988416671753 227 103 95
0.30746594071388245 0.2968215346336365 0.9040805101394653 227 103 95
0.3473512530326843 0.2767828106880188 0.8959566950798035 227 104 94
0.37264955043792725 0.24013718962669373 0.8963629007339478 228 106 93
0.3660276532173157 0.25240209698677063 0.895721435546875 229 107 92
0.3212989866733551 0.26146095991134644 0.9101676940917969 229 107 92
0.30879294872283936 0.2591896951198578 0.9151325821876526 228 106 93
0.2956331968307495 0.2707873582839966 0.9161196351051331 227 104 94
0.32153013348579407 0.24211733043193817 0.9154220819473267 227 104 94
0.35914668440818787 0.20920763909816742 0.909530520439148 227 104 94
