ply
format ascii 1.0
element vertex 689
property float x
property float y
property float z
property uchar red
property uchar green
property uchar blue
end_header
0.6323076486587524 0.6556890606880188 -0.41262441873550415 207 75 116
0.6175695657730103 0.6027213335037231 -0.5053067207336426 212 82 110
0.593338131904602 0.513468861579895 -0.6199190616607666 218 90 104
0.5597407221794128 0.4594419300556183 -0.6896400451660156 220 94 102
0.4960156977176666 0.3869667053222656 -0.7773192524909973 222 96 100
0.4610426723957062 0.3389483094215393 -0.8200936913490295 225 101 96
0.454007089138031 0.3231062591075897 -0.8303492665290833 221 95 101
0.43419909477233887 0.24281272292137146 -0.867475152015686 233 114 87
0.41548025608062744 0.15560071170330048 -0.8961945176124573 232 113 88
0.37734538316726685 0.0894019827246666 -0.9217471480369568 232 112 89
0.34393978118896484 0.1025771051645279 -0.9333720803260803 232 112 89
0.3444786071777344 0.07317779213190079 -0.935937762260437 237 123 81
0.3088701367378235 0.022815078496932983 -0.9508305191993713 237 121 82
0.3246396780014038 0.02105380967259407 -0.9456034898757935 236 120 83
0.3483920693397522 0.08585233986377716 -0.9334090352058411 237 121 82
0.36229029297828674 0.11620233207941055 -0.9247933626174927 237 121 82
0.38251686096191406 0.12968000769615173 -0.9148026704788208 236 119 84
0.39054980874061584 0.10469953715801239 -0.9146085381507874 235 118 84
0.3990306258201599 0.08761631697416306 -0.912742018699646 234 116 85
0.37582412362098694 0.12297806888818741 -0.9184947609901428 233 114 87
0.39832645654678345 0.17076484858989716 -0.9012077450752258 234 115 86
0.3834908902645111 0.1997690349817276 -0.9016801714897156 234 116 85
0.3968087434768677 0.18036828935146332 -0.9000056385993958 236 119 84
0.40580302476882935 0.20315857231616974 -0.8910951018333435 237 123 81
0.39848974347114563 0.19542774558067322 -0.8961104154586792 238 124 80
0.4075872600078583 0.17081674933433533 -0.8970475196838379 240 129 77
0.3878667950630188 0.1619156301021576 -0.9073823094367981 234 116 85
0.38782981038093567 0.14553332328796387 -0.910169243812561 232 112 89
0.39669710397720337 0.17390546202659607 -0.9013258218765259 237 121 82
0.36361950635910034 0.16426920890808105 -0.9169495701789856 221 95 101
0.35547688603401184 0.13845616579055786 -0.9243733882904053 225 101 96
0.3318778872489929 0.16495487093925476 -0.928787887096405 220 93 102
0.3007098436355591 0.12595610320568085 -0.9453616142272949 215 87 107
0.2720382809638977 0.06836957484483719 -0.9598545432090759 215 86 108
0.2728803753852844 0.0682334378361702 -0.9596251845359802 240 128 77
0.26797643303871155 0.06980080157518387 -0.9608935713768005 242 133 74
0.2563052177429199 0.058680277317762375 -0.9648131132125854 241 130 76
0.23288393020629883 0.07858086377382278 -0.9693245887756348 239 126 78
0.2128702849149704 0.055164650082588196 -0.975521981716156 241 130 76
0.2083907574415207 0.022353550419211388 -0.9777901768684387 247 147 65
0.1945732831954956 0.03413163498044014 -0.9802939891815186 247 147 65
0.22170205414295197 0.04931805655360222 -0.9738664627075195 235 118 84
0.23567509651184082 0.061962466686964035 -0.9698545336723328 213 83 109
0.23529085516929626 0.06126316636800766 -0.9699922800064087 208 77 115
0.26426947116851807 0.05150141939520836 -0.9630728363990784 216 88 106
0.25425535440444946 0.05648041516542435 -0.965486466884613 223 98 98
0.2542324960231781 0.05471673980355263 -0.9655940532684326 231 110 90
0.2581701874732971 0.07544312626123428 -0.9631492495536804 234 115 86
0.25481727719306946 0.09155609458684921 -0.9626450538635254 227 104 94
0.21408216655254364 0.08335655182600021 -0.9732525944709778 227 103 95
0.2088884711265564 0.05457329377532005 -0.9764155745506287 223 98 98
0.18896546959877014 0.07760346680879593 -0.9789125323295593 220 94 102
0.1539735496044159 0.11724105477333069 -0.9810945987701416 213 83 109
0.17985931038856506 0.1315973550081253 -0.9748501181602478 212 82 110
0.18645551800727844 0.17499767243862152 -0.9667523503303528 214 85 109
0.17502637207508087 0.18283811211585999 -0.9674378633499146 214 85 109
0.1970367431640625 0.17428196966648102 -0.9647809863090515 202 70 120
0.16545598208904266 0.16968922317028046 -0.9715090990066528 192 59 129
0.16112792491912842 0.17375612258911133 -0.9715177416801453 188 54 133
0.14085988700389862 0.13859611749649048 -0.9802803993225098 204 72 118
0.1165512204170227 0.17459677159786224 -0.9777176380157471 209 79 113
0.13639599084854126 0.2036321610212326 -0.9694998860359192 215 86 108
0.17506548762321472 0.27520909905433655 -0.9453105330467224 220 93 102
0.15520554780960083 0.3612971603870392 -0.9194431304931641 224 100 97
0.13995668292045593 0.4403979480266571 -0.8868268132209778 229 107 92
0.09790880978107452 0.4824904501438141 -0.8704118728637695 229 108 91
0.04546937346458435 0.5161783695220947 -0.8552732467651367 229 107 92
-0.03311946243047714 0.5002375245094299 -0.8652545809745789 230 109 90
-0.12337718904018402 0.4637565612792969 -0.87732994556427 228 106 93
-0.10942438989877701 0.45354917645454407 -0.8844882249832153 227 104 94
-0.0762571319937706 0.5293420553207397 -0.8449744582176208 226 102 96
-0.05303467810153961 0.552354097366333 -0.8319208025932312 223 97 99
-0.013196087442338467 0.5428664088249207 -0.8397153615951538 223 98 98
-0.016310030594468117 0.508836567401886 -0.8607086539268494 212 82 110
-0.00986961368471384 0.47440478205680847 -0.8802514672279358 216 88 106
-0.06869185715913773 0.42062678933143616 -0.9046295285224915 215 87 107
-0.10903862118721008 0.43300506472587585 -0.8947721123695374 215 86 108
-0.032370053231716156 0.486998975276947 -0.8728024959564209 215 86 108
0.010045659728348255 0.5564149618148804 -0.8308438062667847 220 94 102
0.060916874557733536 0.5968827605247498 -0.8000125288963318 223 98 98
0.06652775406837463 0.5515421032905579 -0.8314898610115051 227 104 94
0.0480981208384037 0.5512415766716003 -0.8329582214355469 231 110 90
0.003553158137947321 0.5313401222229004 -0.8471511602401733 235 118 84
-0.02838166616857052 0.6182641983032227 -0.7854577302932739 237 123 81
-0.05197335407137871 0.6860392093658447 -0.7257058620452881 236 120 83
-0.1027994379401207 0.6655360460281372 -0.7392523884773254 239 125 79
-0.20319779217243195 0.5436911582946777 -0.8143160939216614 241 130 76
-0.2054089903831482 0.4260568618774414 -0.8810690641403198 223 98 98
-0.137556791305542 0.4237224757671356 -0.8952862024307251 229 107 92
-0.1187061071395874 0.34345319867134094 -0.9316376447677612 225 101 96
-0.1292492151260376 0.3391164243221283 -0.9318233132362366 237 123 81
-0.139438197016716 0.30481088161468506 -0.9421504139900208 240 128 77
-0.14974527060985565 0.2642781734466553 -0.9527504444122314 239 125 79
-0.14896158874034882 0.2616268992424011 -0.9536046385765076 242 133 74
-0.14916054904460907 0.23650997877120972 -0.9601114988327026 241 130 76
-0.1416167914867401 0.21793133020401 -0.965634822845459 239 125 79
-0.10087867826223373 0.28196415305137634 -0.9541066884994507 244 137 71
-0.09859858453273773 0.2671755850315094 -0.9585903882980347 242 132 75
-0.07191208750009537 0.28553280234336853 -0.9556671380996704 241 130 76
-0.039243441075086594 0.317004919052124 -0.9476116895675659 240 129 77
-0.04043850675225258 0.3205646872520447 -0.9463630318641663 237 123 81
-0.0015981458127498627 0.34339645504951477 -0.9391891956329346 227 104 94
-0.01131020300090313 0.33256447315216064 -0.9430127143859863 225 101 96
-0.005792544223368168 0.32399970293045044 -0.9460394978523254 224 100 97
-0.004028496332466602 0.30250826478004456 -0.9531382322311401 226 102 96
0.02649538964033127 0.3101765513420105 -0.950309693813324 237 123 81
0.030651303008198738 0.2943878769874573 -0.955194354057312 241 130 76
0.0512794591486454 0.36455196142196655 -0.9297699928283691 242 132 75
0.075266033411026 0.40099766850471497 -0.9129818081855774 242 132 75
0.04455330967903137 0.39604800939559937 -0.9171482920646667 243 135 72
0.04211603105068207 0.3454086482524872 -0.9375067949295044 229 108 91
-0.03683314472436905 0.2510198652744293 -0.967280924320221 228 106 93
-0.07720445096492767 0.1553836613893509 -0.9848327040672302 249 153 61
-0.09027548134326935 0.2151505947113037 -0.9723993539810181 249 153 61
-0.06861744076013565 0.29063576459884644 -0.9543702006340027 246 145 66
-0.04486788064241409 0.32567593455314636 -0.9444162249565125 245 139 70
0.03415355831384659 0.3250105082988739 -0.9450934529304504 243 135 72
0.05102682486176491 0.3121582865715027 -0.9486587643623352 230 109 90
0.05549439415335655 0.28846797347068787 -0.9558800458908081 229 107 92
0.07614067941904068 0.29506802558898926 -0.9524376392364502 227 103 95
0.04966188222169876 0.25555774569511414 -0.9655174016952515 237 121 82
0.08803453296422958 0.24302388727664948 -0.9660173058509827 239 125 79
0.07173118740320206 0.28023040294647217 -0.9572489261627197 223 97 99
0.0827881246805191 0.2765018343925476 -0.9574407935142517 220 93 102
0.13666653633117676 0.2922469973564148 -0.9465272426605225 216 88 106
0.14574046432971954 0.3338959813117981 -0.9312750697135925 210 80 112
0.19326172769069672 0.3798774480819702 -0.9046231508255005 200 68 122
0.21139664947986603 0.4621843695640564 -0.8612183928489685 194 61 128
0.17170657217502594 0.561673104763031 -0.8093454837799072 192 59 129
0.15052281320095062 0.651487410068512 -0.7435771822929382 189 55 132
0.1304687261581421 0.7419810891151428 -0.6576032042503357 180 45 141
0.1372869610786438 0.8141937851905823 -0.5641283988952637 178 44 142
0.1256272941827774 0.8863354921340942 -0.4456760287284851 176 42 143
0.13250786066055298 0.903085470199585 -0.40850749611854553 193 60 128
0.13016879558563232 0.9467707276344299 -0.29441675543785095 208 77 115
0.13101786375045776 0.9568025469779968 -0.25954434275627136 173 38 146
0.060356151312589645 0.9812716841697693 -0.18292906880378723 205 73 117
0.027792949229478836 0.9882311820983887 -0.1504218727350235 153 20 159
0.0475451685488224 0.9973569512367249 -0.054941315203905106 150 18 160
0.09334719181060791 0.994814395904541 -0.04038229212164879 140 10 164
0.09944465011358261 0.9946944117546082 -0.026338700205087662 133 6 166
0.21217700839042664 0.9772310256958008 0.0006714180344715714 130 4 167
0.20329521596431732 0.9768209457397461 0.06702162325382233 139 9 164
0.18776758015155792 0.9773664474487305 0.09745831787586212 136 7 165
0.17340651154518127 0.9740307331085205 0.14558275043964386 132 5 166
0.1510620415210724 0.9767102003097534 0.1523725390434265 134 7 166
0.16159696877002716 0.959604024887085 0.23031850159168243 142 12 164
0.19891171157360077 0.9489234089851379 0.24490511417388916 137 8 165
0.23989704251289368 0.946109414100647 0.21754640340805054 139 9 164
0.31129589676856995 0.9225244522094727 0.22813063859939575 140 10 164
0.38869139552116394 0.9016834497451782 0.18943606317043304 140 10 164
0.38845276832580566 0.9068012833595276 0.1637556105852127 140 10 164
0.40889471769332886 0.9004504680633545 0.14830352365970612 134 7 166
0.3873751759529114 0.9059612154960632 0.17080608010292053 130 4 167
0.4069046378135681 0.896626353263855 0.17461363971233368 130 4 167
0.4244597554206848 0.8898413181304932 0.1673811674118042 127 3 167
0.42924371361732483 0.8872818350791931 0.1687629520893097 130 4 167
0.4340071678161621 0.8768318891525269 0.20689037442207336 129 4 167
0.44770553708076477 0.8621717095375061 0.2371072918176651 127 3 167
0.46268048882484436 0.8434311151504517 0.27303969860076904 117 0 168
0.4854004979133606 0.8351553082466125 0.2586539685726166 114 0 168
0.4693285822868347 0.8497995138168335 0.23994064331054688 106 0 167
0.5092912912368774 0.8318070769309998 0.2207249402999878 98 0 166
0.5109169483184814 0.8458259701728821 0.15343526005744934 97 0 166
0.47611570358276367 0.8658756017684937 0.15353620052337646 95 0 166
0.4942835867404938 0.8556957840919495 0.15319405496120453 95 0 166
0.48520150780677795 0.8658353686332703 0.1221008226275444 92 0 165
0.47079816460609436 0.8770166635513306 0.09586931765079498 92 0 165
0.47079187631607056 0.8764277696609497 0.1011403501033783 94 0 165
0.4677400588989258 0.8771386742591858 0.10884411633014679 94 0 165
0.4808843731880188 0.8615491390228271 0.16273656487464905 94 0 165
0.5072237849235535 0.843856930732727 0.17501312494277954 95 0 166
0.491349458694458 0.8523276448249817 0.1792020946741104 98 0 166
0.4771057963371277 0.8586046695709229 0.18753132224082947 101 0 167
0.4823434054851532 0.85463947057724 0.1921881139278412 98 0 166
0.48402130603790283 0.8616711497306824 0.1524667739868164 101 0 167
0.4879957139492035 0.8641840219497681 0.12266279011964798 103 0 167
0.5432076454162598 0.8362253904342651 0.07518389075994492 101 0 167
0.5516420602798462 0.8337823748588562 0.02231675200164318 103 0 167
0.5620759129524231 0.8266089558601379 0.028076810762286186 103 0 167
0.5880149006843567 0.8056397438049316 0.0719948559999466 103 0 167
0.5735608339309692 0.817228376865387 0.05626590922474861 97 0 166
0.5822563171386719 0.8095139861106873 0.07526431232690811 92 0 165
0.6030997633934021 0.7928876876831055 0.08717646449804306 87 1 164
0.6011080145835876 0.7984353303909302 0.034207817167043686 86 1 163
0.632900595664978 0.7735206484794617 0.03320552781224251 90 0 165
0.6590700149536133 0.7512049078941345 -0.03630189597606659 136 7 165
0.7080488204956055 0.7058001160621643 -0.022652259096503258 92 0 165
0.7315787076950073 0.6816562414169312 -0.011713706888258457 89 1 164
0.7047594785690308 0.7094441056251526 0.0017827521078288555 84 1 163
0.7159830331802368 0.6967107653617859 0.044298019260168076 82 1 163
0.6830779910087585 0.7254412770271301 0.08449529856443405 74 2 160
0.6458479166030884 0.7564654350280762 0.10315272212028503 68 3 158
0.641231894493103 0.7595124244689941 0.10937358438968658 63 3 156
0.6720001101493835 0.7274214029312134 0.13883091509342194 68 3 158
0.642526388168335 0.7520407438278198 0.1469506323337555 71 2 159
0.6386443376541138 0.7531449198722839 0.15781709551811218 84 1 163
0.6346436738967896 0.7632229328155518 0.12131834775209427 94 0 165
0.6051654815673828 0.782530665397644 0.14635758101940155 101 0 167
0.6104273200035095 0.775670051574707 0.1603570431470871 112 0 168
0.5819401741027832 0.7881296277046204 0.20049262046813965 117 0 168
0.5916309356689453 0.7782430052757263 0.2105010747909546 120 1 168
0.6242398023605347 0.7492667436599731 0.2211878001689911 120 1 168
0.6020067930221558 0.7646200656890869 0.23009569942951202 117 0 168
0.5808035731315613 0.7783796191215515 0.2383119761943817 117 0 168
0.5911296010017395 0.7861282825469971 0.18046672642230988 121 1 168
0.5895862579345703 0.7976128458976746 0.12728577852249146 124 2 167
0.6045770049095154 0.7938341498374939 0.0656822994351387 120 1 168
0.6351910829544067 0.7723498940467834 0.002825874835252762 121 1 168
0.6587529182434082 0.7500327229499817 -0.05912356078624725 121 1 168
0.6841807961463928 0.7245967388153076 -0.08280257880687714 124 2 167
0.6761752367019653 0.7226921916007996 -0.14318928122520447 136 7 165
0.6666466593742371 0.7382904887199402 -0.10251524299383163 150 18 160
0.697719395160675 0.7094303965568542 -0.09947941452264786 167 33 151
0.6777434945106506 0.7297670245170593 -0.0900212973356247 183 48 138
0.6914618015289307 0.7167017459869385 -0.0906599909067154 194 61 128
0.6843710541725159 0.7223610281944275 -0.09915002435445786 204 72 118
0.6742008328437805 0.7279236316680908 -0.12482146918773651 213 83 109
0.7070797085762024 0.694878339767456 -0.13108131289482117 218 90 104
0.7442781329154968 0.6496679782867432 -0.1548597514629364 228 106 93
0.7638930082321167 0.6358606219291687 -0.11022121459245682 227 104 94
0.7537185549736023 0.6325180530548096 -0.1784077137708664 231 110 90
0.7459080815315247 0.614438533782959 -0.2570727467536926 237 121 82
0.6998067498207092 0.6392597556114197 -0.31877514719963074 244 137 71
0.7009177803993225 0.6221943497657776 -0.3486953675746918 248 150 63
0.729871392250061 0.5530878901481628 -0.40172314643859863 250 160 57
0.7221722602844238 0.4847930371761322 -0.4933992922306061 251 163 55
0.7215168476104736 0.4301077723503113 -0.542605459690094 250 159 58
0.6817029118537903 0.4396454095840454 -0.5848017334938049 250 160 57
0.6806780695915222 0.4044436514377594 -0.6108213663101196 250 160 57
0.6762211918830872 0.3958648145198822 -0.6213017106056213 250 160 57
0.6627872586250305 0.3211895823478699 -0.6764246821403503 251 163 55
0.6515253186225891 0.24647089838981628 -0.717472493648529 251 162 56
0.6196956038475037 0.24164359271526337 -0.7467166781425476 250 160 57
0.6022697687149048 0.23423753678798676 -0.7631539106369019 250 160 57
0.5740275382995605 0.252798855304718 -0.7788357138633728 250 160 57
0.5612388253211975 0.2635664939880371 -0.7845659255981445 251 162 56
0.5633266568183899 0.271454393863678 -0.7803688645362854 250 160 57
0.5569856762886047 0.2887343168258667 -0.778716504573822 250 157 58
0.57338947057724 0.2760220766067505 -0.771385908126831 249 153 61
0.5688195824623108 0.23181769251823425 -0.7891165018081665 248 152 62
0.5904958844184875 0.23123887181282043 -0.7732031941413879 249 153 61
0.6190434098243713 0.2594473958015442 -0.7412640452384949 246 145 66
0.6189507246017456 0.23456254601478577 -0.749586820602417 247 146 65
0.6278477311134338 0.19141332805156708 -0.7544323801994324 243 134 73
0.6279293298721313 0.22838088870048523 -0.7440073490142822 239 125 79
0.6320481300354004 0.24032947421073914 -0.7367203831672668 236 120 83
0.6286633610725403 0.17858219146728516 -0.7568954825401306 236 120 83
0.6462658047676086 0.1816103607416153 -0.7411870956420898 236 120 83
0.6847849488258362 0.20461304485797882 -0.6994305849075317 235 118 84
0.6934635639190674 0.16888520121574402 -0.7004185914993286 235 118 84
0.7081518173217773 0.159650981426239 -0.6877736449241638 234 116 85
0.7254061698913574 0.19715821743011475 -0.6594805717468262 235 118 84
0.7466352581977844 0.23730771243572235 -0.6214667558670044 234 116 85
0.7590817809104919 0.227275088429451 -0.610033392906189 236 119 84
0.7727968692779541 0.2275099754333496 -0.592473030090332 236 119 84
0.8030138611793518 0.20852072536945343 -0.5582901239395142 236 119 84
0.8194160461425781 0.23840203881263733 -0.5212693810462952 235 118 84
0.8430942893028259 0.2083517163991928 -0.4957635998725891 236 119 84
0.8623481392860413 0.195633202791214 -0.4669938385486603 235 118 84
0.8603514432907104 0.24200662970542908 -0.4485846161842346 235 118 84
0.8534116148948669 0.2293664962053299 -0.46805933117866516 236 119 84
0.8586971163749695 0.20580434799194336 -0.4693441092967987 235 118 84
0.8880562782287598 0.1872347593307495 -0.41987985372543335 234 116 85
0.8855860233306885 0.2024681121110916 -0.4180237650871277 234 116 85
0.896980345249176 0.23295386135578156 -0.37571093440055847 235 118 84
0.8974409103393555 0.21694804728031158 -0.38410070538520813 238 124 80
0.8998159170150757 0.20985546708106995 -0.38248130679130554 236 120 83
0.885299563407898 0.1905631422996521 -0.4241819977760315 235 118 84
0.8910096883773804 0.1994035691022873 -0.4078478217124939 236 120 83
0.8944389820098877 0.20835401117801666 -0.3956862986087799 237 123 81
0.9080828428268433 0.18106691539287567 -0.3776244819164276 232 112 89
0.8965726494789124 0.1434849500656128 -0.4190102815628052 229 108 91
0.8783474564552307 0.10379873216152191 -0.4666171669960022 230 109 90
0.8526673316955566 0.02836383692920208 -0.5216838121414185 224 100 97
0.8263855576515198 0.00546308234333992 -0.5630782246589661 219 91 103
0.8040696382522583 0.04888996109366417 -0.5925215482711792 215 86 108
0.8084746599197388 0.0923493355512619 -0.5812402963638306 211 81 111
0.8148323893547058 0.1598415970802307 -0.5572242736816406 209 78 114
0.8369985222816467 0.15944397449493408 -0.5234607458114624 204 72 118
0.8764694929122925 0.13767589628696442 -0.4613531231880188 196 63 126
0.8719238638877869 0.1506280153989792 -0.4658967852592468 193 60 128
0.8797304034233093 0.16435180604457855 -0.44616472721099854 190 56 131
0.8841761350631714 0.1647464483976364 -0.4371398091316223 189 55 132
0.8959327340126038 0.13440930843353271 -0.42336589097976685 184 50 137
0.904021680355072 0.09244606643915176 -0.41737106442451477 177 43 143
0.9099510908126831 0.14477992057800293 -0.38862279057502747 174 39 145
0.9244939684867859 0.14092305302619934 -0.35419148206710815 173 38 146
0.9376506209373474 0.14600074291229248 -0.31542834639549255 170 36 148
0.9476867318153381 0.21096380054950714 -0.23954996466636658 170 36 148
0.9600244760513306 0.2285335659980774 -0.1616339236497879 172 37 147
0.9669340252876282 0.22715352475643158 -0.11593030393123627 172 37 147
0.9624335169792175 0.2643626928329468 -0.06192011386156082 168 34 150
0.932905912399292 0.3591674268245697 -0.026178907603025436 164 30 152
0.9314435124397278 0.36325231194496155 -0.021464552730321884 157 24 157
0.939994215965271 0.3376380205154419 -0.04910719022154808 153 20 159
0.9286335706710815 0.3698393404483795 -0.029301492497324944 149 17 161
0.9074831604957581 0.4194062352180481 0.023932719603180885 144 14 163
0.9147827625274658 0.40123650431632996 0.04671017453074455 142 12 164
0.9154506921768188 0.38770589232444763 0.10786166042089462 140 10 164
0.9087886810302734 0.40326225757598877 0.10715736448764801 130 4 167
0.9133913516998291 0.39685213565826416 0.09068956971168518 124 2 167
0.9391406774520874 0.3367273807525635 0.06804091483354568 124 2 167
0.9438719153404236 0.32173076272010803 0.07480072975158691 121 1 168
0.9327766299247742 0.35765737295150757 0.04481958597898483 123 2 168
0.9070582389831543 0.4210033118724823 0.0012842167634516954 129 4 167
0.8889127969741821 0.4572700262069702 -0.02716836892068386 137 8 165
0.8932265639305115 0.4465029537677765 -0.05273944512009621 140 10 164
0.8963334560394287 0.44014137983322144 -0.053495436906814575 144 14 163
0.8766998648643494 0.4810217022895813 -0.003934486303478479 143 13 163
0.8559916615486145 0.5156261324882507 0.03752271458506584 146 15 162
0.8465378284454346 0.5301786065101624 0.04779447615146637 153 20 159
0.8832088112831116 0.4684615731239319 0.022043418139219284 154 21 158
0.9025152921676636 0.4293738305568695 -0.03322906047105789 155 23 158
0.8769806623458862 0.4804881513118744 0.006003109738230705 150 18 160
0.8496332168579102 0.5273509621620178 0.004924287553876638 146 15 162
0.8369357585906982 0.547234058380127 0.008567331358790398 142 12 164
0.8362995386123657 0.5468793511390686 -0.03906361758708954 137 8 165
0.8200864791870117 0.571393609046936 -0.0311055239289999 136 7 165
0.8254005908966064 0.5615863800048828 -0.05774589255452156 136 7 165
0.8513049483299255 0.5171177387237549 -0.0887082889676094 137 8 165
0.8638538718223572 0.4977000653743744 -0.07778909802436829 137 8 165
0.8518013954162598 0.5228524208068848 -0.03255629166960716 143 13 163
0.7724403142929077 0.63508141040802 0.0027390741743147373 147 16 161
0.7845779657363892 0.6199259161949158 0.011368440464138985 154 21 158
0.7512114644050598 0.6576216816902161 0.05670151114463806 167 33 151
0.810456395149231 0.5830463767051697 0.05672203749418259 165 31 151
0.8145505785942078 0.5728476643562317 0.09139450639486313 175 40 144
0.7577706575393677 0.6269564628601074 0.1808566153049469 181 46 140
0.7596805691719055 0.612189769744873 0.21933770179748535 189 55 132
0.7876739501953125 0.5571566224098206 0.2629566192626953 195 62 127
0.772710382938385 0.5974926948547363 0.2142920196056366 200 68 122
0.733962893486023 0.6391778588294983 0.22967387735843658 204 72 118
0.728480339050293 0.6459653973579407 0.2281339019536972 206 74 117
0.7566018104553223 0.6190970540046692 0.21041063964366913 210 80 112
0.7869053483009338 0.5814155340194702 0.20672698318958282 210 80 112
0.8163497447967529 0.5549944639205933 0.15985706448554993 212 82 110
0.8337077498435974 0.5452176332473755 0.08757320791482925 213 83 109
0.8056883811950684 0.5876226425170898 0.07460492849349976 217 89 105
0.8817541003227234 0.46882516145706177 0.05208500847220421 219 91 103
0.9112269282341003 0.4073292315006256 -0.06122329458594322 223 97 99
0.9283710718154907 0.3432353436946869 -0.14253634214401245 224 100 97
0.8921072483062744 0.3814765214920044 -0.24211640655994415 224 100 97
0.8507304787635803 0.5039989948272705 -0.1491396725177765 227 103 95
0.8254115581512451 0.5523722171783447 -0.1165367066860199 223 97 99
0.8407790064811707 0.5299918055534363 -0.110450379550457 223 97 99
0.844513475894928 0.5170570611953735 -0.1394602507352829 223 97 99
0.791614294052124 0.5747056603431702 -0.20750965178012848 225 101 96
0.7823742628097534 0.5813127160072327 -0.2235308438539505 228 106 93
0.7649102807044983 0.5589830875396729 -0.32007840275764465 230 109 90
0.7376304864883423 0.6151819229125977 -0.2783028781414032 231 110 90
0.7215844988822937 0.641057014465332 -0.2614608407020569 229 108 91
0.7274336218833923 0.6245509386062622 -0.2842121124267578 227 104 94
0.7887476682662964 0.5577582120895386 -0.25842395424842834 229 108 91
0.7446877360343933 0.6192647814750671 -0.2489001452922821 229 108 91
0.7254713773727417 0.6274445652961731 -0.28285089135169983 229 107 92
0.7269805073738098 0.6239084005355835 -0.28677108883857727 229 107 92
0.7024058699607849 0.5513228178024292 -0.45018789172172546 227 104 94
0.6275551915168762 0.399338036775589 -0.6683589220046997 230 109 90
0.572523832321167 0.3172960877418518 -0.7560023665428162 229 108 91
0.5190191268920898 0.20773139595985413 -0.8291361331939697 236 119 84
0.3936728537082672 0.0723423957824707 -0.9163996577262878 241 130 76
0.3511659502983093 0.05256150662899017 -0.934836745262146 237 121 82
0.3219832181930542 0.02691027522087097 -0.9463629126548767 232 113 88
0.3269404172897339 -0.004022941924631596 -0.9450363516807556 234 115 86
0.3910846710205078 -0.010041645728051662 -0.9202998876571655 233 114 87
0.4638632535934448 0.029709115624427795 -0.8854084610939026 234 116 85
0.500872790813446 0.10239063203334808 -0.8594431281089783 232 112 89
0.5736830234527588 0.18363015353679657 -0.7982279062271118 232 113 88
0.7015475630760193 0.1285819262266159 -0.7009264230728149 229 108 91
0.6937180757522583 0.1406056135892868 -0.7063888907432556 211 81 111
0.6971418261528015 0.16769056022167206 -0.6970459818840027 212 82 110
0.6779611110687256 0.17694829404354095 -0.7134830355644226 212 82 110
0.6906967163085938 0.21740631759166718 -0.6896902322769165 209 79 113
0.705170214176178 0.21056127548217773 -0.6770517230033875 212 82 110
0.7098411321640015 0.23667247593402863 -0.6634091734886169 191 57 130
0.7420413494110107 0.185444176197052 -0.6441935300827026 181 46 140
0.7324475049972534 0.22097814083099365 -0.6439636945724487 181 46 140
0.7407834529876709 0.25587156414985657 -0.6211035251617432 181 46 140
0.7413025498390198 0.25187328457832336 -0.6221176385879517 174 39 145
0.7447910308837891 0.28840020298957825 -0.6017572283744812 159 26 155
0.7565221786499023 0.264481782913208 -0.5980998873710632 150 18 160
0.7443622350692749 0.3667369782924652 -0.5580582022666931 142 12 164
0.7608226537704468 0.45043331384658813 -0.4671816825866699 134 7 166
0.8050504326820374 0.479481965303421 -0.3492719829082489 129 4 167
0.8051406741142273 0.5583759546279907 -0.19991204142570496 118 1 168
0.7887520790100098 0.6057291030883789 -0.1047014519572258 109 0 168
0.7997164726257324 0.5995754599571228 -0.031029751524329185 101 0 167
0.7993062138557434 0.5972769856452942 0.06610506772994995 100 0 167
0.7837185263633728 0.6040164828300476 0.14473894238471985 100 0 167
0.7789864540100098 0.6076414585113525 0.1547640711069107 101 0 167
0.7878960967063904 0.596512496471405 0.15294606983661652 106 0 167
0.7608842253684998 0.6275661587715149 0.16497236490249634 109 0 168
0.7698906660079956 0.6087584495544434 0.19152423739433289 109 0 168
0.7531090378761292 0.6195111274719238 0.22143352031707764 111 0 168
0.7368223071098328 0.6294211149215698 0.2468237727880478 109 0 168
0.733142077922821 0.630555272102356 0.25476011633872986 112 0 168
0.7445569634437561 0.6059597730636597 0.2800852358341217 123 2 168
0.7300428152084351 0.632300615310669 0.25929421186447144 127 3 167
0.7285480499267578 0.6258039474487305 0.2785446047782898 123 2 168
0.742803156375885 0.5775824189186096 0.3385883867740631 121 1 168
0.750487744808197 0.5676866173744202 0.3383784294128418 124 2 167
0.7522389888763428 0.5658851265907288 0.33750632405281067 132 5 166
0.7660239934921265 0.5601606965065002 0.31532084941864014 129 4 167
0.7757223844528198 0.5571714639663696 0.29633551836013794 127 3 167
0.792219340801239 0.5370544195175171 0.28976041078567505 124 2 167
0.7939102053642273 0.516162097454071 0.3213769495487213 115 0 168
0.7654675841331482 0.5433428883552551 0.34472885727882385 104 0 167
0.773071825504303 0.5358695387840271 0.3394169211387634 106 0 167
0.7560045123100281 0.561927080154419 0.335701048374176 103 0 167
0.7652161717414856 0.551325261592865 0.3323923349380493 104 0 167
0.7512704133987427 0.5771852135658264 0.32007819414138794 108 0 168
0.7419541478157043 0.5671830177307129 0.3575015664100647 115 0 168
0.7285140752792358 0.555294930934906 0.4011420011520386 120 1 168
0.731903612613678 0.5503268837928772 0.4018176794052124 121 1 168
0.7073231935501099 0.5499020218849182 0.4441865086555481 118 1 168
0.7064940333366394 0.5382571220397949 0.45950567722320557 127 3 167
0.7108697295188904 0.4972754418849945 0.4973744750022888 130 4 167
0.6824710965156555 0.4832606017589569 0.5483543276786804 129 4 167
0.6526511311531067 0.5018051266670227 0.5676602125167847 126 3 167
0.6490112543106079 0.532255232334137 0.5435888767242432 121 1 168
0.6537855863571167 0.5214459896087646 0.5483233332633972 112 0 168
0.6342766880989075 0.5310284495353699 0.5618736147880554 115 0 168
0.6352037191390991 0.5482775568962097 0.5439741015434265 114 0 168
0.6411117315292358 0.5623830556869507 0.5222078561782837 111 0 168
0.6503727436065674 0.5843287110328674 0.4853610098361969 94 0 165
0.6535781621932983 0.5885913968086243 0.4758106768131256 89 1 164
0.6245278716087341 0.5937431454658508 0.5073795318603516 81 1 162
0.600395917892456 0.6177239418029785 0.5078797936439514 71 2 159
0.6328288912773132 0.6062113642692566 0.4817005395889282 63 3 156
0.6319695711135864 0.6020641922950745 0.4879888892173767 56 4 153
0.6387709379196167 0.5991645455360413 0.48267343640327454 52 4 152
0.6370669603347778 0.6027321815490723 0.480478435754776 47 4 149
0.6291653513908386 0.5869942903518677 0.5094983577728271 41 5 147
0.6332263946533203 0.5699018836021423 0.5236757397651672 43 5 148
0.6281508207321167 0.6051236987113953 0.4891337752342224 49 4 150
0.6230774521827698 0.6272554397583008 0.4672527313232422 58 4 154
0.6453982591629028 0.6100444197654724 0.45968130230903625 61 3 155
0.6515669226646423 0.5888048410415649 0.4782983660697937 68 3 158
0.6640002131462097 0.5916892886161804 0.4571734666824341 73 2 159
0.6836247444152832 0.5860329866409302 0.43499717116355896 79 2 162
0.6749714612960815 0.610717236995697 0.41405072808265686 92 0 165
0.6926974058151245 0.6073899865150452 0.38890567421913147 100 0 167
0.6891025304794312 0.6075685620307922 0.3949662148952484 114 0 168
0.7053583860397339 0.6142215728759766 0.353838175535202 130 4 167
0.7088891863822937 0.6142787337303162 0.3466089367866516 144 14 163
0.7228689193725586 0.6031481027603149 0.33715417981147766 155 23 158
0.7016947865486145 0.6309897303581238 0.330872118473053 170 36 148
0.7085224390029907 0.6327452659606934 0.31245699524879456 185 51 136
0.7159602642059326 0.641252875328064 0.27603575587272644 197 64 125
0.7456544041633606 0.6151403188705444 0.2561285197734833 206 74 117
0.7671215534210205 0.6037122011184692 0.2169240266084671 209 79 113
0.759915292263031 0.628529965877533 0.16576755046844482 214 85 109
0.7765125632286072 0.6116514801979065 0.15136286616325378 212 82 110
0.7920218110084534 0.5993144512176514 0.11629100888967514 209 78 114
0.7937767505645752 0.6042815446853638 0.06900836527347565 204 72 118
0.8095727562904358 0.585166335105896 0.04660890996456146 202 70 120
0.82454913854599 0.5655081868171692 0.017869625240564346 197 64 125
0.847533643245697 0.5275407433509827 -0.05820263922214508 187 53 134
0.8532882928848267 0.5120428800582886 -0.09854549914598465 182 47 139
0.8639184832572937 0.4772709906101227 -0.16080158948898315 172 37 147
0.8867573738098145 0.4292435646057129 -0.17149731516838074 170 36 148
0.8717692494392395 0.44556665420532227 -0.2036876380443573 168 34 150
0.8751421570777893 0.43252798914909363 -0.2169000655412674 170 36 148
0.8831773400306702 0.43486374616622925 -0.17575959861278534 170 36 148
0.886088490486145 0.44131213426589966 -0.14174185693264008 170 36 148
0.8807408213615417 0.46305328607559204 -0.09938462823629379 165 31 151
0.9025542140007019 0.4261872172355652 -0.06132107973098755 162 28 154
0.898724377155304 0.4370993375778198 -0.03519335761666298 163 29 153
0.9144716262817383 0.404649943113327 0.00026647571939975023 162 28 154
0.9070370197296143 0.4210468828678131 -0.0018395941006019711 162 28 154
0.9281919002532959 0.3714669644832611 0.02172592096030712 160 27 155
0.9265002608299255 0.3701712191104889 0.06760457158088684 163 29 153
0.9162976741790771 0.38565441966056824 0.1080247089266777 164 30 152
0.9023312330245972 0.39687833189964294 0.1681840568780899 165 31 151
0.8904536366462708 0.38835278153419495 0.23722237348556519 163 29 153
0.8964930176734924 0.35793885588645935 0.2611130177974701 167 33 151
0.9061139225959778 0.33902183175086975 0.2530251145362854 167 33 151
0.9112467169761658 0.32265353202819824 0.2559767961502075 168 34 150
0.9216113090515137 0.2975499629974365 0.2491920292377472 164 30 152
0.9286038279533386 0.2692231833934784 0.25536996126174927 163 29 153
0.9388143420219421 0.23637738823890686 0.2505064010620117 157 24 157
0.9481045007705688 0.17637528479099274 0.26455554366111755 160 27 155
0.9524565935134888 0.1477072387933731 0.2664750814437866 164 30 152
0.95050448179245 0.14784663915634155 0.2732810080051422 173 38 146
0.9540985822677612 0.12866877019405365 0.27044478058815 160 27 155
0.9561022520065308 0.14709660410881042 0.2534386217594147 153 20 159
0.9566670656204224 0.16002172231674194 0.24327197670936584 173 38 146
0.9514254927635193 0.16189460456371307 0.26187726855278015 167 33 151
0.96108078956604 0.1385730355978012 0.23900067806243896 162 28 154
0.9575915932655334 0.15602247416973114 0.24222980439662933 158 25 156
0.9617084860801697 0.17263558506965637 0.2128702849149704 158 25 156
0.973353385925293 0.11535568535327911 0.19818232953548431 154 21 158
0.9785267114639282 0.11738617718219757 0.16942812502384186 155 23 158
0.9837706089019775 0.09450595080852509 0.15252551436424255 153 20 159
0.9875560998916626 0.0745551586151123 0.1384725421667099 155 23 158
0.9934422373771667 0.022127613425254822 0.11217335611581802 180 45 141
0.9939334392547607 0.04737453907728195 0.0992574691772461 182 47 139
0.9937440752983093 0.07513025403022766 0.08263318985700607 157 24 157
0.9975221157073975 0.05578989535570145 0.04286319389939308 164 30 152
0.9992976188659668 0.01254468783736229 0.03531143069267273 162 28 154
0.9998960494995117 0.0003345435543451458 0.014412213116884232 159 26 155
0.9985193014144897 0.03768889233469963 0.039227601140737534 180 45 141
0.9976251721382141 0.06039157509803772 0.033119216561317444 181 46 140
0.9966414570808411 0.0643189325928688 0.05068479850888252 176 42 143
0.9919559359550476 0.11427855491638184 0.05444147810339928 167 33 151
0.9859675765037537 0.15907226502895355 0.05063566938042641 176 42 143
0.982373833656311 0.18664364516735077 0.010288299061357975 185 51 136
0.9862818717956543 0.1578007936477661 -0.048446621745824814 189 55 132
0.9928306341171265 0.1021442711353302 -0.06208012253046036 190 56 131
0.9947620034217834 0.06609044969081879 -0.07797816395759583 192 59 129
0.9957730174064636 0.07533934712409973 -0.05253618583083153 195 62 127
0.9945725202560425 0.10048851370811462 -0.02697174809873104 192 59 129
0.9916826486587524 0.12837576866149902 0.009231817908585072 185 51 136
0.9843270778656006 0.17634889483451843 0.0011882914695888758 178 44 142
0.9752321243286133 0.22113415598869324 -0.00469628069549799 173 38 146
0.9744685292243958 0.22294430434703827 -0.026588350534439087 164 30 152
0.9846592545509338 0.1637602597475052 -0.060239069163799286 163 29 153
0.9840256571769714 0.1354445219039917 -0.11553558707237244 160 27 155
0.9835816025733948 0.16256630420684814 -0.07835457473993301 162 28 154
0.9869361519813538 0.12048108875751495 -0.10696414858102798 158 25 156
0.983465313911438 0.0649217739701271 -0.1690599024295807 158 25 156
0.9769976139068604 0.06775280088186264 -0.2022009938955307 167 33 151
0.9675723910331726 0.09987272322177887 -0.23201091587543488 174 39 145
0.9660705924034119 0.1310020536184311 -0.22258947789669037 175 40 144
0.9722051024436951 0.12221730500459671 -0.19970014691352844 180 45 141
0.9739411473274231 0.12457533925771713 -0.1895245462656021 191 57 130
0.9704546332359314 0.1451987624168396 -0.19270455837249756 193 60 128
0.9732771515846252 0.1498740315437317 -0.17398086190223694 197 64 125
0.9714032411575317 0.16217054426670074 -0.17342548072338104 200 68 122
0.9721831679344177 0.16734197735786438 -0.16387976706027985 204 72 118
0.9736005067825317 0.13938528299331665 -0.18075929582118988 207 75 116
0.9709415435791016 0.1059732660651207 -0.21457445621490479 208 77 115
0.9690645337104797 0.09100677818059921 -0.22941580414772034 212 82 110
0.9706339240074158 0.057799700647592545 -0.23351432383060455 218 90 104
0.9687179327011108 0.0703367218375206 -0.2379879653453827 226 102 96
0.9679262638092041 0.08484382927417755 -0.23647448420524597 232 113 88
0.9494097232818604 0.03173882141709328 -0.31243202090263367 237 123 81
0.9407879710197449 0.0005904534482397139 -0.33899492025375366 240 129 77
0.9310498833656311 0.027734389528632164 -0.3638363480567932 242 132 75
0.9220449924468994 0.029992977157235146 -0.38591885566711426 242 133 74
0.9013202786445618 0.01973891071975231 -0.43270328640937805 243 135 72
0.8790212869644165 -0.02177179418504238 -0.47628524899482727 243 135 72
0.8467157483100891 -0.09565820544958115 -0.5233755111694336 244 137 71
0.8199971914291382 -0.14437566697597504 -0.5538594126701355 245 141 69
0.7906453609466553 -0.18160893023014069 -0.5847205519676208 247 147 65
0.7565599083900452 -0.21974122524261475 -0.6158984303474426 250 157 58
0.7472477555274963 -0.23740622401237488 -0.6206923127174377 252 170 51
0.715852677822113 -0.2456429898738861 -0.6536164879798889 246 145 66
0.7110253572463989 -0.25932592153549194 -0.6536000370979309 249 154 60
0.6832602620124817 -0.2691921889781952 -0.6787422299385071 250 159 58
0.668476402759552 -0.2748882472515106 -0.6910685896873474 251 164 54
0.674531877040863 -0.25715315341949463 -0.6920108795166016 250 156 59
0.6459636092185974 -0.26356202363967896 -0.7164259552955627 247 147 65
0.6609591245651245 -0.20551663637161255 -0.7217313051223755 246 145 66
0.6351205110549927 -0.21697598695755005 -0.7413119077682495 246 145 66
0.5774371027946472 -0.2822842001914978 -0.7660822868347168 246 145 66
0.5455936789512634 -0.3248806595802307 -0.7725154161453247 247 146 65
0.5571358799934387 -0.3231842517852783 -0.7649519443511963 246 142 68
0.5774217844009399 -0.2594360113143921 -0.7741297483444214 245 139 70
0.5997012853622437 -0.19939658045768738 -0.7749834060668945 244 137 71
0.6029633283615112 -0.15743669867515564 -0.782079815864563 243 135 72
0.6065436601638794 -0.15149949491024017 -0.780482292175293 243 134 73
0.6054302453994751 -0.1463598608970642 -0.7823253273963928 243 135 72
0.6349123120307922 -0.13476423919200897 -0.7607397437095642 226 102 96
0.6817634105682373 -0.14371128380298615 -0.7173184752464294 240 128 77
0.6964985132217407 -0.14682970941066742 -0.702375054359436 237 121 82
0.6781817078590393 -0.1696774810552597 -0.7150379419326782 236 119 84
0.6619406342506409 -0.1946435123682022 -0.7238427996635437 237 121 82
0.6886160969734192 -0.1595269739627838 -0.707360565662384 243 134 73
0.6954129338264465 -0.13049861788749695 -0.7066618800163269 241 130 76
0.7010816335678101 -0.10315942764282227 -0.7055797576904297 232 113 88
0.7092904448509216 -0.10151363909244537 -0.6975686550140381 234 116 85
0.7297627925872803 -0.08448617905378342 -0.6784602999687195 236 119 84
0.7218915820121765 -0.08117067813873291 -0.6872290968894958 240 128 77
0.717037558555603 -0.07277915626764297 -0.6932246088981628 239 125 79
0.7248331904411316 -0.03959218040108681 -0.687785804271698 236 120 83
0.7144235372543335 -0.06460842490196228 -0.6967242956161499 234 116 85
0.7175434827804565 -0.05890212953090668 -0.6940186619758606 235 118 84
0.710781455039978 -0.07248970866203308 -0.699667751789093 237 121 82
0.679118812084198 -0.1093936488032341 -0.7258309721946716 238 124 80
0.6966882348060608 -0.1114838570356369 -0.7086585164070129 241 130 76
0.7036600708961487 -0.09856521338224411 -0.703667163848877 240 128 77
0.7077539563179016 -0.07202403992414474 -0.7027778625488281 248 149 64
0.6882855892181396 -0.0223284512758255 -0.7250961065292358 243 134 73
0.6761866807937622 -0.021857401356101036 -0.7364060282707214 250 159 58
0.6823269724845886 -0.036937277764081955 -0.7301133871078491 250 160 57
0.6812073588371277 -0.041703786700963974 -0.7309017181396484 244 137 71
0.6631124019622803 -0.07050187885761261 -0.7451921701431274 242 133 74
0.6705582737922668 -0.08339735120534897 -0.7371543049812317 244 138 71
0.67366623878479 -0.06732908636331558 -0.7359623908996582 243 134 73
0.6668524146080017 -0.03800700977444649 -0.7442200183868408 240 128 77
0.658602237701416 -0.052755679935216904 -0.7506396770477295 237 121 82
0.6491270065307617 -0.0623847059905529 -0.75811767578125 233 114 87
0.6423435211181641 -0.07649720460176468 -0.7625896334648132 227 104 94
0.6617047190666199 -0.05903904512524605 -0.7474364638328552 217 89 105
0.6687719225883484 0.008964436128735542 -0.7434136271476746 210 80 112
0.6672911643981934 0.0004440904303919524 -0.744796872138977 206 74 117
0.7206358313560486 0.09063716977834702 -0.6873638033866882 203 71 119
0.7351933121681213 0.14132019877433777 -0.6629626154899597 196 63 126
0.746597945690155 0.12428651750087738 -0.6535629034042358 193 60 128
0.730400562286377 0.04968518391251564 -0.6812095642089844 186 52 135
0.7421031594276428 0.05794768035411835 -0.6677760481834412 181 46 140
0.7630217671394348 0.07068954408168793 -0.6424957513809204 177 43 143
0.8044748306274414 0.08124944567680359 -0.588403582572937 176 42 143
0.8344256281852722 0.13239534199237823 -0.5349816083908081 174 39 145
0.8572016954421997 0.16626647114753723 -0.4874019920825958 174 39 145
0.8793110847473145 0.1648346185684204 -0.4468126595020294 175 40 144
0.874405562877655 0.08749403059482574 -0.4772418737411499 177 43 143
0.8983170986175537 0.11796865612268448 -0.4232136607170105 178 44 142
0.909064531326294 0.2235676348209381 -0.3515951931476593 178 44 142
0.9233483076095581 0.1972157508134842 -0.3294447362422943 176 42 143
0.9264904260635376 0.1754189282655716 -0.33293214440345764 175 40 144
0.931545615196228 0.15202324092388153 -0.3303206264972687 174 39 145
0.9328494668006897 0.21326576173305511 -0.29036104679107666 174 39 145
0.9068678021430969 0.25074905157089233 -0.33869704604148865 173 38 146
0.9092108011245728 0.20338349044322968 -0.3632780909538269 173 38 146
0.8835636377334595 0.18114341795444489 -0.43185925483703613 170 36 148
0.9042718410491943 0.14801432192325592 -0.4004799723625183 165 31 151
0.8939076066017151 0.16925278306007385 -0.41506969928741455 162 28 154
0.8768180012702942 0.18889471888542175 -0.4421640634536743 164 30 152
0.8656116127967834 0.23603308200836182 -0.44159358739852905 170 36 148
0.8535171747207642 0.24522793292999268 -0.4597519636154175 175 40 144
0.8524753451347351 0.09000562131404877 -0.5149610042572021 180 45 141
0.843047022819519 0.04637327045202255 -0.5358368754386902 184 50 137
0.8283087611198425 0.07480628043413162 -0.5552554726600647 185 51 136
0.8475203514099121 0.1784955859184265 -0.4998485743999481 186 52 135
0.8483561277389526 0.28012415766716003 -0.4492463171482086 184 50 137
0.8407534956932068 0.3663743734359741 -0.39862677454948425 182 47 139
0.833713948726654 0.43334028124809265 -0.34225305914878845 182 47 139
0.8483445048332214 0.4232821762561798 -0.3180311620235443 181 46 140
0.8352310061454773 0.48508790135383606 -0.25899559259414673 180 45 141
0.8349534273147583 0.5148262977600098 -0.19443947076797485 178 44 142
0.890852689743042 0.4032178223133087 -0.2092772126197815 181 46 140
0.9273965358734131 0.3223201036453247 -0.18985648453235626 185 51 136
0.9432386755943298 0.22231896221637726 -0.24672873318195343 188 54 133
0.9375447630882263 0.21867458522319794 -0.27053898572921753 189 55 132
0.9337007403373718 0.2117825448513031 -0.28870588541030884 191 57 130
0.8982870578765869 0.13776522874832153 -0.41725417971611023 187 53 134
0.9125800728797913 0.10194239020347595 -0.3959864377975464 186 52 135
0.9140028357505798 0.12214511632919312 -0.3868843913078308 186 52 135
0.918522298336029 0.17053867876529694 -0.3566979169845581 185 51 136
0.9256604909896851 0.12976320087909698 -0.35540714859962463 186 52 135
0.9365983605384827 0.0950547456741333 -0.3372659683227539 187 53 134
0.9444390535354614 0.07978226989507675 -0.3188568949699402 189 55 132
0.946391224861145 0.07309029251337051 -0.31464502215385437 190 56 131
0.9700962901115417 0.08503685146570206 -0.22733664512634277 188 54 133
0.971559464931488 0.14055189490318298 -0.19057127833366394 189 55 132
0.977228045463562 0.12831412255764008 -0.1689993441104889 188 54 133
0.9823639392852783 0.1554591804742813 -0.10389166325330734 184 50 137
0.9665130972862244 0.24126902222633362 -0.08741571009159088 184 50 137
0.9569495320320129 0.2770760655403137 -0.08646665513515472 186 52 135
0.9573546051979065 0.273657888174057 -0.09264665096998215 182 47 139
0.9753492474555969 0.1967417150735855 -0.09993285685777664 177 43 143
0.9748390913009644 0.21673527359962463 -0.052100587636232376 175 40 144
0.9564425945281982 0.29183411598205566 -0.007097064051777124 178 44 142
0.9318793416023254 0.3542129695415497 0.07831930369138718 180 45 141
0.8629008531570435 0.48230013251304626 0.1509590744972229 178 44 142
0.8237720727920532 0.5253757238388062 0.2130257785320282 178 44 142
0.8389845490455627 0.492480605840683 0.2314472496509552 183 48 138
0.906000554561615 0.39907053112983704 0.14108745753765106 184 50 137
0.947138249874115 0.31327804923057556 0.06918038427829742 182 47 139
0.9395237565040588 0.33969515562057495 0.04361570626497269 183 48 138
0.9048294425010681 0.408709853887558 0.11933151632547379 183 48 138
0.9290658235549927 0.3567107617855072 0.09794986993074417 181 46 140
0.9163420796394348 0.37605544924736023 0.13747535645961761 182 47 139
0.91205894947052 0.36813613772392273 0.18062183260917664 180 45 141
0.9212337732315063 0.35404470562934875 0.16118496656417847 177 43 143
0.9270698428153992 0.3392917513847351 0.15944470465183258 175 40 144
0.9331863522529602 0.2606150507926941 0.24747341871261597 178 44 142
0.9319751262664795 0.2344450056552887 0.2765100300312042 184 50 137
0.8791441917419434 0.32221412658691406 0.35111767053604126 187 53 134
0.8625484108924866 0.3574634790420532 0.3580923080444336 191 57 130
0.8447989821434021 0.4187028110027313 0.3331708312034607 191 57 130
0.8262328505516052 0.42342934012413025 0.37154659628868103 191 57 130
0.8527185916900635 0.34736400842666626 0.39014002680778503 188 54 133
0.8037844896316528 0.3488001525402069 0.4819427728652954 184 50 137
0.7494761347770691 0.29975268244743347 0.5902827382087708 185 51 136
0.7322930693626404 0.2904987633228302 0.6159198880195618 177 43 143
0.6946446299552917 0.3219235837459564 0.6432992815971375 172 37 147
0.6846930980682373 0.35850557684898376 0.634562075138092 176 42 143
0.6708537936210632 0.4331531822681427 0.6019414663314819 185 51 136
0.6517215371131897 0.43041151762008667 0.6245038509368896 194 61 128
0.5830968618392944 0.4590003490447998 0.670310914516449 202 70 120
0.5179914236068726 0.49567317962646484 0.6971319913864136 210 80 112
0.49280107021331787 0.5046576857566833 0.7088495492935181 217 89 105
0.43263915181159973 0.4821876585483551 0.7617863416671753 221 95 101
0.44970864057540894 0.40996211767196655 0.793532133102417 224 100 97
0.4513682723045349 0.3839472830295563 0.8055129647254944 224 100 97
