ply
format ascii 1.0
element vertex 671
property float x
property float y
property float z
property uchar red
property uchar green
property uchar blue
end_header
-0.2700011730194092 0.25215399265289307 -0.19315926730632782 220 93 102
-0.1710234135389328 0.3241618275642395 -0.12426699697971344 216 88 106
-0.1545182764530182 0.24725113809108734 -0.1844910979270935 213 83 109
-0.15006089210510254 0.28778958320617676 -0.02331497333943844 229 107 92
-0.1485287845134735 0.08382615447044373 -0.16288132965564728 230 109 90
-0.19952118396759033 0.08900386840105057 -0.060660190880298615 232 112 89
-0.20170699059963226 0.06692136079072952 -0.11468318104743958 234 116 85
-0.15752437710762024 0.39173418283462524 -0.050183556973934174 237 121 82
0.15477851033210754 0.47738176584243774 0.041392263025045395 242 133 74
0.20696760714054108 0.3614497780799866 -0.29130062460899353 248 149 64
0.038903310894966125 0.5448464751243591 -0.21337515115737915 252 166 53
-0.04838710278272629 0.47782081365585327 -0.077432781457901 253 179 46
0.04258210211992264 0.46993881464004517 -0.08486111462116241 253 188 42
-0.08315998315811157 0.33456969261169434 -0.5154607892036438 253 188 42
-0.0503484271466732 0.284161776304245 -0.39680489897727966 253 190 41
-0.1790265589952469 0.12010550498962402 -0.21607565879821777 253 190 41
-0.21798403561115265 0.297848641872406 -0.19022132456302643 253 192 41
-0.09969495981931686 0.36496466398239136 -0.1660275012254715 253 192 41
-0.09046509116888046 0.40509986877441406 -0.1483190804719925 253 188 42
-0.16235291957855225 0.2989062964916229 -0.17669758200645447 253 187 43
-0.13843996822834015 0.3079126477241516 -0.10642784833908081 253 185 43
-0.015225703828036785 0.3953924775123596 -0.3253032863140106 253 185 43
0.008470644243061543 0.32202115654945374 -0.30967816710472107 253 181 45
0.11582490056753159 0.17030394077301025 -0.25868985056877136 253 179 46
0.16124379634857178 0.20059655606746674 -0.2076459527015686 253 179 46
0.21419444680213928 0.3160814344882965 -0.25980761647224426 253 184 44
0.22498299181461334 0.3468947112560272 -0.18417178094387054 253 184 44
0.24760878086090088 0.35307881236076355 -0.21847285330295563 253 185 43
0.27052319049835205 0.3775520324707031 -0.1847808063030243 253 182 45
0.2114902138710022 0.2765449583530426 -0.2195214331150055 253 179 46
0.13977918028831482 0.2771088480949402 -0.24987417459487915 253 179 46
0.1435694545507431 0.28789156675338745 -0.2173631489276886 253 182 45
0.019054125994443893 0.29787421226501465 -0.16113092005252838 253 178 47
0.09667233377695084 0.3175344467163086 -0.2703302204608917 253 184 44
0.12148505449295044 0.36912262439727783 -0.2072506546974182 253 184 44
0.007917294278740883 0.4798659086227417 0.02280549705028534 253 185 43
0.17039722204208374 0.45108604431152344 0.14986193180084229 253 182 45
-0.08022835105657578 0.40886667370796204 0.0520128570497036 253 187 43
0.1100555881857872 0.2613082528114319 -0.08877921104431152 253 185 43
-0.18034608662128448 0.2240367978811264 -0.08593638241291046 253 188 42
-0.17543524503707886 0.24046850204467773 0.07300840318202972 253 188 42
0.08130694925785065 0.5342558026313782 -0.0246579572558403 253 190 41
0.07337857782840729 0.6391953825950623 -0.18732044100761414 253 192 41
0.1843048483133316 0.6233918070793152 -0.3611542582511902 253 192 41
0.2548707127571106 0.6309301257133484 -0.3538651466369629 253 192 41
0.18488124012947083 0.6067047715187073 -0.3908282220363617 253 195 40
0.18951734900474548 0.6300069689750671 -0.34099477529525757 253 195 40
0.1702786386013031 0.5706669092178345 -0.24284987151622772 253 198 38
0.2947613596916199 0.5634516477584839 -0.2237403243780136 252 201 38
0.2008935958147049 0.4123918414115906 -0.2453402429819107 252 204 37
0.11398972570896149 0.3556106388568878 -0.2497910112142563 252 203 37
0.25836488604545593 0.3425997495651245 -0.22617220878601074 252 201 38
0.15008097887039185 0.3216788172721863 -0.20746538043022156 253 196 39
0.14957129955291748 0.26889556646347046 -0.19540439546108246 253 192 41
0.216669961810112 0.32776927947998047 -0.2512778043746948 253 190 41
0.1843060553073883 0.4193609654903412 -0.28107351064682007 252 173 49
0.19358645379543304 0.4572280943393707 -0.2797713577747345 253 181 45
0.17093737423419952 0.4369293749332428 -0.1765064001083374 253 187 43
0.2531029284000397 0.4032347500324249 -0.26416492462158203 253 193 40
0.17797699570655823 0.28668299317359924 -0.2779695391654968 253 196 39
0.2008943259716034 0.14863960444927216 -0.2508540451526642 253 196 39
0.23339274525642395 0.10931172966957092 -0.22198008000850677 253 195 40
0.2052670270204544 0.098098985850811 -0.08801029622554779 253 193 40
0.25802260637283325 0.12029460817575455 -0.15452682971954346 253 193 40
0.2485991269350052 0.12247028201818466 -0.09422298520803452 253 193 40
0.21695075929164886 0.1257079541683197 -0.1043819710612297 253 190 41
0.22263170778751373 0.2568848133087158 -0.03840487450361252 253 181 45
0.2543652057647705 0.24322161078453064 -0.058342475444078445 252 169 52
0.26290813088417053 0.2840365469455719 -0.08460160344839096 252 172 50
0.2989253103733063 0.23068857192993164 -0.05004901438951492 253 178 47
0.27039965987205505 0.09724897146224976 -0.01453307829797268 253 182 45
0.23044520616531372 0.029144158586859703 0.04046972468495369 253 187 43
0.30634593963623047 0.05600159615278244 0.05181137099862099 253 184 44
0.29006481170654297 0.013946177437901497 0.04452979937195778 253 184 44
0.2076006978750229 0.022822236642241478 0.005845998879522085 253 176 48
0.22524288296699524 0.12663710117340088 -0.05529043450951576 253 178 47
0.2568845748901367 0.22153371572494507 -0.12654021382331848 253 188 42
0.23327264189720154 0.28225019574165344 -0.09751134365797043 253 176 48
0.26327988505363464 0.3511062264442444 -0.035466328263282776 253 196 39
0.25939279794692993 0.32895752787590027 -0.09453921020030975 253 196 39
0.21479572355747223 0.25692516565322876 -0.08444810658693314 253 182 45
0.19666574895381927 0.2444469928741455 -0.07061125338077545 251 163 55
0.243987575173378 0.17485620081424713 -0.016765989363193512 250 159 58
0.2688518464565277 0.20876137912273407 0.040719904005527496 248 149 64
0.30278629064559937 0.17240871489048004 0.07507146149873734 246 143 67
0.324459969997406 0.15842567384243011 0.11294393241405487 245 139 70
0.29687872529029846 0.20950670540332794 0.0818779319524765 240 129 77
0.2760508954524994 0.2110104262828827 0.13153955340385437 236 119 84
0.1871216893196106 0.3284415602684021 0.1001286581158638 236 119 84
0.2901303768157959 0.1849149614572525 0.08657795190811157 233 114 87
0.2745530307292938 0.05059647560119629 0.18948616087436676 226 102 96
0.30411794781684875 0.10611119121313095 0.1509990394115448 222 96 100
0.32714980840682983 0.16688331961631775 0.14467237889766693 223 97 99
0.3154565989971161 0.08875110745429993 0.21216386556625366 225 101 96
0.2924882173538208 0.2028653621673584 0.23401466012001038 226 102 96
0.28079232573509216 0.10750393569469452 0.2518371343612671 227 103 95
0.23840349912643433 -0.010940182954072952 0.41618412733078003 228 106 93
0.1904083639383316 -0.12376600503921509 0.42838990688323975 231 110 90
0.20518794655799866 -0.1871773898601532 0.44120708107948303 232 112 89
0.1969534456729889 -0.09430605173110962 0.3995388150215149 236 120 83
0.23109787702560425 0.009314603172242641 0.29032108187675476 237 121 82
0.2877531051635742 0.1475287228822708 0.24445520341396332 237 123 81
0.3124445676803589 0.17947962880134583 0.16510839760303497 237 123 81
0.22591044008731842 0.3610701262950897 0.05388658866286278 238 124 80
0.231292262673378 0.34577980637550354 0.11211524158716202 236 120 83
0.2505991756916046 0.344749391078949 0.03749128431081772 237 123 81
0.1840003877878189 0.27132633328437805 0.06675104051828384 236 120 83
0.31446534395217896 0.18358901143074036 0.16022169589996338 230 109 90
0.24918055534362793 0.10171913355588913 0.1574564278125763 240 129 77
0.1928790956735611 0.15907368063926697 0.15226173400878906 244 137 71
0.22996798157691956 0.053911637514829636 0.2548518180847168 244 138 71
0.2750082015991211 -0.04809242859482765 0.26012733578681946 243 134 73
0.10815457999706268 -0.14321643114089966 0.39540642499923706 245 139 70
0.12297891080379486 -0.3135008215904236 0.3857792913913727 246 145 66
-0.02468634955585003 -0.43171605467796326 0.40244606137275696 247 147 65
-0.1875791847705841 -0.5255561470985413 0.5253660678863525 246 145 66
-0.14587029814720154 -0.4359865188598633 0.4779670238494873 248 150 63
-0.14476099610328674 -0.47820717096328735 0.5077219009399414 247 147 65
-0.006631617434322834 -0.5336248278617859 0.5656171441078186 247 146 65
-0.06016097590327263 -0.559179425239563 0.4267702102661133 247 146 65
0.0482647642493248 -0.5306082367897034 0.43042290210723877 247 146 65
-0.02863701432943344 -0.47600317001342773 0.4070138931274414 248 152 62
-0.18021507561206818 -0.517130434513092 0.3233409821987152 250 156 59
0.02786637470126152 -0.45458340644836426 0.49857452511787415 250 159 58
-0.07634517550468445 -0.523313045501709 0.42597371339797974 250 159 58
-0.07415144145488739 -0.6018526554107666 0.44240620732307434 250 157 58
0.059728220105171204 -0.527559220790863 0.3604263365268707 250 160 57
0.11159589886665344 -0.4010840654373169 0.24206745624542236 251 162 56
0.1272761970758438 -0.42158567905426025 0.2612857222557068 251 164 54
0.12738347053527832 -0.37813887000083923 0.28457778692245483 252 166 53
0.15269456803798676 -0.42905479669570923 0.31765371561050415 252 166 53
0.2605058252811432 -0.33779460191726685 0.2878032326698303 252 166 53
0.2021835297346115 -0.21006032824516296 0.22106383740901947 252 169 52
0.15744780004024506 -0.34136006236076355 0.26581957936286926 252 170 51
0.11762718856334686 -0.28517037630081177 0.3345275819301605 252 170 51
0.10104603320360184 -0.4349709451198578 0.2761436998844147 252 172 50
0.14830897748470306 -0.3341558277606964 0.16256925463676453 252 173 49
0.10458998382091522 -0.307831734418869 0.18901963531970978 252 173 49
0.1567734181880951 -0.2802017033100128 0.14987674355506897 252 170 51
0.12565504014492035 -0.1209813803434372 0.13453951478004456 251 164 54
0.17698310315608978 -0.23226092755794525 0.1438646763563156 250 157 58
0.08498340100049973 -0.2170953005552292 0.1975405067205429 249 153 61
0.20987391471862793 -0.2509956657886505 0.19323411583900452 248 150 63
0.17112962901592255 -0.22294647991657257 0.22487811744213104 246 142 68
0.20418664813041687 -0.31274887919425964 0.2303849458694458 236 119 84
0.12074509263038635 -0.1164260059595108 0.10676929354667664 245 141 69
0.1777404099702835 -0.023030288517475128 -0.12317610532045364 245 141 69
0.16473151743412018 0.02764529548585415 -0.11871475726366043 245 139 70
0.12137272953987122 0.0425700843334198 -0.12163861095905304 245 141 69
0.05280707776546478 0.09959442913532257 -0.23158665001392365 245 139 70
0.18866388499736786 0.09271319955587387 -0.16708746552467346 246 142 68
0.1242944523692131 0.14743775129318237 -0.15819944441318512 247 146 65
0.09857872873544693 0.18033333122730255 -0.13343751430511475 248 149 64
0.18432871997356415 0.2907445728778839 -0.2860535681247711 248 152 62
0.16631829738616943 0.23608539998531342 -0.15544655919075012 248 152 62
0.2955318093299866 0.04624660313129425 -0.015724625438451767 248 150 63
0.1867571473121643 -0.16638942062854767 0.06468059122562408 248 149 64
0.11983617395162582 -0.3740195035934448 0.2097209393978119 247 146 65
0.05251773074269295 -0.4454720616340637 0.27673986554145813 247 146 65
0.17805704474449158 -0.47390228509902954 0.40098342299461365 248 149 64
0.07762545347213745 -0.4348887503147125 0.5200757384300232 247 147 65
0.18486177921295166 -0.5323400497436523 0.41919082403182983 246 145 66
0.002740994095802307 -0.481201171875 0.3850644528865814 246 142 68
0.0633402019739151 -0.3703213334083557 0.15880586206912994 242 132 75
0.162983238697052 0.018805665895342827 -0.1850922703742981 242 132 75
0.15055057406425476 0.09051625430583954 -0.23602956533432007 242 132 75
0.12064539641141891 0.23816226422786713 -0.2512339949607849 239 126 78
0.07066135853528976 0.2828788459300995 -0.2202017605304718 243 134 73
0.219869926571846 0.4217098355293274 -0.13447122275829315 246 142 68
0.08731503784656525 0.24891728162765503 -0.05150739476084709 245 141 69
0.2059618979692459 0.20551124215126038 0.16060467064380646 245 139 70
0.13151179254055023 -0.0035616320092231035 0.1574379950761795 245 139 70
0.02697746269404888 -0.1517569124698639 0.3145005404949188 245 139 70
0.10859917104244232 -0.4501281976699829 0.41829031705856323 245 141 69
0.01755850575864315 -0.33140674233436584 0.15418626368045807 245 141 69
0.17019614577293396 -0.12766394019126892 -0.27129408717155457 243 135 72
0.08807620406150818 -0.040953364223241806 -0.29370757937431335 242 132 75
0.07828143984079361 0.00826355256140232 -0.3041497468948364 242 132 75
0.29073166847229004 -0.0902634859085083 -0.030715212225914 243 134 73
0.16003091633319855 -0.2030215710401535 0.14513486623764038 244 138 71
0.2560010552406311 -0.18530209362506866 0.10882173478603363 245 139 70
0.2872471213340759 -0.19114312529563904 0.1492892950773239 245 139 70
0.19819587469100952 -0.22361280024051666 0.15469039976596832 246 142 68
0.18979507684707642 -0.13797922432422638 0.08712384849786758 246 143 67
0.1732684075832367 -0.05607394129037857 0.02201921120285988 246 145 66
0.17359593510627747 -0.01034772302955389 -0.0050632101483643055 246 145 66
0.1333729326725006 0.019531065598130226 -0.06833631545305252 248 150 63
0.09195664525032043 0.0190191138535738 -0.05533280223608017 248 149 64
0.11816275119781494 0.007395760156214237 -0.054596271365880966 247 147 65
0.09411878138780594 0.10485300421714783 -0.09150770306587219 245 141 69
0.09667647629976273 0.15117736160755157 -0.07277523726224899 245 139 70
0.16025251150131226 0.31354421377182007 -0.24818569421768188 247 146 65
0.12082472443580627 0.32177066802978516 -0.33338528871536255 248 152 62
0.0899868831038475 0.3715340495109558 -0.2628871202468872 249 153 61
-0.05613958090543747 0.2946418821811676 -0.21666885912418365 249 154 60
0.02323724515736103 0.2592490613460541 -0.19780507683753967 249 153 61
-0.002426787978038192 0.32943761348724365 -0.23988699913024902 249 153 61
0.08192260563373566 0.24163542687892914 -0.3096234202384949 249 153 61
0.052266545593738556 0.34974706172943115 -0.3747304379940033 248 152 62
0.01970762573182583 0.3842855989933014 -0.4971725344657898 248 149 64
0.08092200756072998 0.4258563220500946 -0.34318476915359497 248 150 63
0.2637319266796112 0.18192051351070404 -0.2682630717754364 248 150 63
0.1747998297214508 0.023927442729473114 -0.21211594343185425 248 149 64
0.19543270766735077 -0.019970586523413658 -0.16735030710697174 248 149 64
0.19727107882499695 0.04394055902957916 -0.10052839666604996 248 152 62
0.12565986812114716 -0.10970879346132278 0.06982504576444626 249 153 61
0.05713782086968422 -0.17918585240840912 0.0753282904624939 250 156 59
0.1291368454694748 -0.058278072625398636 0.12422001361846924 250 157 58
0.1705075055360794 -0.20802870392799377 0.1960226446390152 250 157 58
0.2081872671842575 -0.2621266841888428 0.1469985693693161 250 157 58
0.16173294186592102 -0.13566093146800995 -0.0709817036986351 250 157 58
0.18682034313678741 -0.046314459294080734 -0.14643093943595886 249 153 61
0.2177385538816452 -0.013856678269803524 -0.12562760710716248 248 149 64
0.17221994698047638 -0.07637251913547516 -0.017751086503267288 247 146 65
0.15684068202972412 -0.09357991069555283 -0.014707176946103573 246 143 67
0.1476781964302063 -0.06757639348506927 -0.022555571049451828 244 138 71
0.13042707741260529 -0.02586088329553604 -0.03775458037853241 242 133 74
0.2434573471546173 0.025843409821391106 0.03598302602767944 242 132 75
0.19998258352279663 -0.05291272699832916 -0.01837705262005329 239 125 79
0.1673138588666916 -0.005714546423405409 0.025857461616396904 237 123 81
0.1546119600534439 0.08638103306293488 -0.0617448128759861 237 123 81
0.24568113684654236 0.14943493902683258 -0.12747548520565033 239 125 79
0.16593660414218903 0.061294157058000565 -0.18361526727676392 239 125 79
0.17635288834571838 0.0035259074065834284 -0.2225913405418396 237 123 81
0.1316513568162918 -0.08567659556865692 -0.22736872732639313 238 124 80
0.17253169417381287 -0.009589298628270626 -0.07738352566957474 238 124 80
0.16626596450805664 -0.06905234605073929 0.006913033314049244 239 126 78
0.17354759573936462 -0.1342567503452301 -0.05767100304365158 242 132 75
0.16005490720272064 0.05778717249631882 -0.12050514668226242 244 137 71
0.17582353949546814 0.10432374477386475 -0.06695830821990967 245 139 70
0.15595285594463348 0.005107166711241007 -0.08253306895494461 246 142 68
0.18271003663539886 0.007678380236029625 -0.1397165060043335 245 139 70
0.15210282802581787 0.07250330597162247 -0.1196204349398613 244 138 71
0.0868363007903099 -0.03444317355751991 -0.04001033678650856 245 141 69
0.07223524153232574 -0.0049302284605801105 -0.16515903174877167 245 139 70
0.06514529138803482 0.11762074381113052 -0.10825254768133163 237 123 81
0.1388564258813858 0.12607522308826447 -0.2162998616695404 239 125 79
0.13129238784313202 0.23249587416648865 -0.3060941994190216 234 115 86
0.05845591798424721 0.19298486411571503 -0.29068055748939514 228 106 93
0.052977703511714935 0.1850205510854721 -0.2440158724784851 223 97 99
0.01700466312468052 0.08533334732055664 -0.11961264163255692 221 95 101
-0.0046240645460784435 0.050974346697330475 -0.09718029946088791 215 86 108
-0.006108980160206556 0.20958730578422546 -0.16878806054592133 212 82 110
0.07086365669965744 -0.004642846528440714 -0.0855366438627243 212 82 110
0.2073754519224167 0.09937014430761337 -0.07809364050626755 212 82 110
0.021432306617498398 0.19974954426288605 -0.21564283967018127 211 81 111
0.035295818001031876 -0.0069090090692043304 -0.2936570346355438 211 81 111
-0.07589177787303925 -0.11453130096197128 -0.2538546621799469 211 81 111
-0.08522043377161026 -0.11889103800058365 -0.2321801483631134 217 89 105
-0.08522043377161026 -0.11889103800058365 -0.2321801483631134 218 90 104
-0.08522043377161026 -0.11889103800058365 -0.2321801483631134 216 88 106
-0.08522043377161026 -0.11889103800058365 -0.2321801483631134 212 82 110
-0.08522043377161026 -0.11889103800058365 -0.2321801483631134 215 86 108
-0.08522043377161026 -0.11889103800058365 -0.2321801483631134 213 83 109
-0.08522043377161026 -0.11889103800058365 -0.2321801483631134 210 80 112
-0.08522043377161026 -0.11889103800058365 -0.2321801483631134 210 80 112
-0.08522043377161026 -0.11889103800058365 -0.2321801483631134 210 80 112
-0.08522043377161026 -0.11889103800058365 -0.2321801483631134 212 82 110
-0.08522043377161026 -0.11889103800058365 -0.2321801483631134 213 83 109
-0.08522043377161026 -0.11889103800058365 -0.2321801483631134 215 86 108
-0.08522043377161026 -0.11889103800058365 -0.2321801483631134 211 81 111
-0.0692422091960907 -0.1232905238866806 -0.2502911388874054 210 80 112
-0.04433256760239601 -0.10816671699285507 -0.36454251408576965 210 80 112
-0.15998044610023499 -0.06117817386984825 -0.3772178292274475 212 82 110
-0.19336800277233124 0.1884135603904724 -0.11570442467927933 212 82 110
-0.15456606447696686 0.31170937418937683 -0.06717855483293533 213 83 109
-0.1966518759727478 0.3834504187107086 -0.0429098941385746 213 83 109
-0.16873568296432495 0.39899128675460815 -0.05780838802456856 212 82 110
-0.15155276656150818 0.4009822607040405 -0.07355762273073196 211 81 111
-0.12393935769796371 0.39717283844947815 -0.06855010986328125 209 79 113
-0.13433679938316345 0.4294946491718292 -0.05301506444811821 206 74 117
-0.12386563420295715 0.4176672101020813 -0.04849239066243172 200 68 122
-0.10933229327201843 0.38381925225257874 -0.030421167612075806 192 59 129
-0.1990944743156433 0.29334157705307007 0.050969332456588745 185 51 136
-0.12838134169578552 0.22928670048713684 0.009249530732631683 185 51 136
-0.07400724291801453 0.16849999129772186 0.034455832093954086 186 52 135
-0.15500149130821228 0.10526242107152939 0.026768295094370842 189 55 132
-0.21237815916538239 0.10445601493120193 0.01030552014708519 192 59 129
-0.23209244012832642 0.3166268765926361 -0.06932149827480316 189 55 132
-0.1005752831697464 0.559223473072052 -0.22568079829216003 187 53 134
-0.14254488050937653 0.4587354362010956 -0.14661484956741333 185 51 136
-0.04295764118432999 0.4347723126411438 -0.1976739913225174 177 43 143
-0.11371356248855591 0.4462675452232361 -0.0834069773554802 170 36 148
0.03302532434463501 0.36811861395835876 -0.14697447419166565 167 33 151
-0.01808704435825348 0.3173562288284302 -0.21705542504787445 167 33 151
-0.06204407289624214 0.10851099342107773 -0.28359583020210266 163 29 153
-0.16755859553813934 0.03414011001586914 -0.4722161293029785 150 18 160
-0.18033090233802795 -0.13753557205200195 -0.13403959572315216 137 8 165
-0.2584894895553589 0.1429007202386856 -0.1298602968454361 129 4 167
-0.25006499886512756 0.43202534317970276 -0.21199055016040802 127 3 167
-0.24049583077430725 0.3622145652770996 -0.08561138808727264 123 2 168
-0.21986283361911774 0.2581300735473633 -0.03661572188138962 118 1 168
-0.2133350819349289 0.16961470246315002 -0.07307907193899155 121 1 168
-0.14648579061031342 0.17009758949279785 -0.2577805519104004 132 5 166
0.04263528436422348 0.05118776112794876 -0.2809339165687561 136 7 165
0.03568529337644577 -0.05049959942698479 -0.1534775346517563 132 5 166
0.06298123300075531 0.0357503779232502 -0.0862790048122406 134 7 166
0.140440434217453 0.16311463713645935 0.09285813570022583 139 9 164
0.09296402335166931 0.07122708857059479 0.12885425984859467 149 17 161
-0.01927158422768116 0.24929751455783844 0.04770786315202713 158 25 156
0.04367469623684883 0.3171129524707794 -0.04611758515238762 165 31 151
-0.10184575617313385 -0.16711314022541046 0.038199059665203094 175 40 144
-0.1577283889055252 -0.23295390605926514 -0.07090473920106888 167 33 151
-0.15155915915966034 -0.22659482061862946 0.14661845564842224 164 30 152
-0.07861252874135971 -0.1724146604537964 0.036651257425546646 163 29 153
0.17344391345977783 0.06644806265830994 -0.0839318186044693 163 29 153
0.057568274438381195 0.2612605690956116 -0.05800250917673111 160 27 155
0.16242124140262604 0.31872451305389404 -0.13451474905014038 153 20 159
-0.16719871759414673 0.21643494069576263 -0.10958842933177948 154 21 158
-0.2844548225402832 0.08640999346971512 -0.15792039036750793 154 21 158
-0.21525335311889648 0.19046802818775177 -0.13167262077331543 133 6 166
-0.09232389181852341 0.2950970530509949 -0.05441167205572128 112 0 168
-0.18329298496246338 0.20551033318042755 -0.23756583034992218 94 0 165
-0.09383109956979752 0.40511560440063477 -0.19085407257080078 92 0 165
-0.09310437738895416 0.4029792547225952 -0.244126096367836 101 0 167
0.21799619495868683 0.3279159963130951 -0.3417007029056549 111 0 168
0.05865137651562691 0.22741632163524628 -0.23315836489200592 112 0 168
0.0809098556637764 0.2549208402633667 -0.3291703760623932 108 0 168
-0.0652804970741272 0.31824323534965515 -0.4001082181930542 94 0 165
-0.1149233728647232 0.31902801990509033 -0.2906178832054138 78 2 161
0.01300025824457407 0.36513230204582214 -0.25852954387664795 63 3 156
-0.08525006473064423 0.4229052662849426 -0.2813776731491089 52 4 152
-0.004031989257782698 0.38598549365997314 -0.31578439474105835 47 4 149
-0.039598651230335236 0.42208626866340637 -0.33515554666519165 51 4 151
-0.074837826192379 0.44739267230033875 -0.23860813677310944 66 3 157
0.050020378082990646 0.3287636339664459 -0.2528628706932068 71 2 159
0.12055906653404236 0.10899624973535538 -0.2417277842760086 59 3 154
-0.049675747752189636 0.014095553196966648 -0.4072945713996887 59 3 154
-0.09944028407335281 0.0564921535551548 -0.11716382950544357 58 4 154
-0.06542608141899109 0.06244954839348793 -0.13988085091114044 56 4 153
-0.01152834389358759 0.2886626720428467 -0.21895091235637665 61 3 155
-0.08666370809078217 0.2949582040309906 -0.32672008872032166 78 2 161
-0.13728925585746765 0.3280588388442993 -0.42549681663513184 69 3 158
-0.08303732424974442 0.41853535175323486 -0.3394395709037781 81 1 162
-0.1375657171010971 0.3999645411968231 -0.3902947008609772 82 1 163
-0.05624725669622421 0.0646759644150734 -0.3565728962421417 81 1 162
-0.08019649982452393 -0.10630416125059128 -0.24461913108825684 82 1 163
-0.1021547019481659 -0.09655824303627014 -0.2403419315814972 64 3 156
-0.26227259635925293 0.12149541825056076 -0.23734594881534576 61 3 155
-0.2674519419670105 0.2588559091091156 -0.22199971973896027 76 2 161
-0.22744615375995636 0.3069567382335663 -0.26555347442626953 66 3 157
-0.2257823497056961 0.31504684686660767 -0.19481778144836426 59 3 154
-0.2087377905845642 0.35196971893310547 -0.1586320698261261 61 3 155
-0.16361312568187714 0.36368536949157715 -0.21534816920757294 61 3 155
-0.24746552109718323 0.3978908658027649 -0.3141220808029175 69 3 158
-0.133864626288414 0.15234416723251343 -0.37206384539604187 78 2 161
-0.2245119959115982 0.06702742725610733 -0.3141333758831024 87 1 164
-0.10199008136987686 0.04479783773422241 -0.2235051691532135 97 0 166
0.06193792074918747 0.009771700017154217 -0.27816998958587646 100 0 167
0.14520445466041565 0.2273845374584198 -0.41855496168136597 100 0 167
0.22319449484348297 0.27746444940567017 -0.3869682848453522 97 0 166
0.10290509462356567 0.23612815141677856 -0.29097387194633484 109 0 168
0.06557535380125046 0.15657836198806763 -0.25118744373321533 127 3 167
0.026745164766907692 0.14794303476810455 -0.30133357644081116 134 7 166
0.03505861386656761 0.18489651381969452 -0.2295694798231125 147 16 161
-0.04411681368947029 0.18955132365226746 -0.19652973115444183 159 26 155
0.05116037279367447 0.098819300532341 -0.10221710056066513 169 35 149
-0.019458379596471786 -0.06024087965488434 -0.09361551702022552 185 51 136
-0.112021304666996 -0.07867641001939774 -0.21872316300868988 193 60 128
-0.12776359915733337 0.4397605061531067 -0.3306489884853363 204 72 118
-0.10897894203662872 0.5206453204154968 -0.3785685896873474 208 77 115
-0.02418443001806736 0.585896909236908 -0.3665051758289337 208 77 115
0.018924495205283165 0.6609963774681091 -0.22214660048484802 208 77 115
0.06153079867362976 0.6712032556533813 -0.1717747449874878 208 77 115
-0.035447459667921066 0.5401877164840698 -0.20939964056015015 209 79 113
-0.06572430580854416 0.44556981325149536 -0.3388155698776245 213 83 109
-0.10859321802854538 0.36329513788223267 -0.33762454986572266 214 85 109
-0.06253049522638321 0.3257196545600891 -0.254061222076416 214 85 109
-0.005828286986798048 0.4983920753002167 -0.4028836786746979 215 86 108
0.2893577814102173 0.34895482659339905 -0.35076382756233215 215 86 108
0.17384573817253113 0.24454058706760406 -0.2242504209280014 214 85 109
0.17643406987190247 0.2292894423007965 -0.3158573806285858 215 86 108
0.006397013086825609 0.28404951095581055 -0.33846402168273926 213 83 109
0.1073884516954422 0.31251293420791626 -0.3475479781627655 210 80 112
0.08249785006046295 0.37834832072257996 -0.26750102639198303 212 82 110
0.021707965061068535 0.45435211062431335 -0.15966400504112244 209 79 113
0.06630280613899231 0.3741665780544281 -0.1634734869003296 209 78 114
0.09699191898107529 0.35160744190216064 -0.24226325750350952 206 74 117
0.1709917038679123 0.2626523971557617 -0.24571119248867035 207 75 116
0.21160873770713806 -0.19565947353839874 -0.05903596058487892 208 77 115
0.13146480917930603 0.14250032603740692 -0.3947698473930359 208 77 115
0.0627700462937355 0.03570938855409622 -0.38461941480636597 208 77 115
0.021920550614595413 0.1431836187839508 -0.34686392545700073 207 75 116
0.04533788561820984 0.2971744239330292 -0.33451342582702637 207 75 116
0.01100839488208294 0.43043002486228943 -0.23216231167316437 205 73 117
0.1355118751525879 0.5514752268791199 -0.1549750566482544 206 74 117
0.10984707623720169 0.614459753036499 -0.29635220766067505 206 74 117
-0.01722077466547489 0.6910306215286255 -0.25567367672920227 205 73 117
0.04290879890322685 0.7150288820266724 -0.2586100399494171 206 74 117
-0.08385289460420609 0.6026277542114258 -0.30020835995674133 208 77 115
0.03870238736271858 0.20895551145076752 -0.4466097056865692 207 75 116
0.2867984473705292 0.0032112188637256622 -0.29757997393608093 208 77 115
0.25700753927230835 0.033377114683389664 -0.19734059274196625 202 70 120
0.2365230768918991 0.01758108288049698 -0.17988517880439758 206 74 117
0.1770106703042984 -0.08920266479253769 -0.22210519015789032 209 79 113
0.17879295349121094 0.11547425389289856 -0.15073040127754211 209 79 113
0.09276475757360458 0.15920858085155487 0.005159482359886169 209 78 114
0.21662914752960205 0.19740289449691772 0.015959225594997406 209 79 113
0.2341187298297882 0.3454747796058655 -0.1903231143951416 209 79 113
0.21309825778007507 0.24171139299869537 -0.2194591760635376 209 79 113
0.20367269217967987 0.14101707935333252 -0.16816328465938568 209 79 113
0.15686090290546417 -0.0487896129488945 -0.084054134786129 209 78 114
0.20062078535556793 -0.025256717577576637 -0.21759507060050964 203 71 119
0.025859534740447998 0.15564729273319244 -0.09336251020431519 201 69 121
0.0538172572851181 0.06588029861450195 -0.13240334391593933 202 70 120
0.13980543613433838 0.2806144058704376 -0.23891212046146393 195 62 127
0.05907706916332245 0.16176855564117432 -0.20247681438922882 183 48 138
0.03813626244664192 0.004335091914981604 -0.20096823573112488 173 38 146
0.009077356196939945 0.017543941736221313 -0.1797713041305542 169 35 149
-0.008353674784302711 0.05386948585510254 -0.07224666327238083 168 34 150
0.055738478899002075 0.014836358837783337 -0.06073112413287163 168 34 150
0.018932366743683815 0.061970945447683334 -0.11676153540611267 167 33 151
-0.004431924317032099 -0.028605833649635315 -0.1089644655585289 172 37 147
0.06199740618467331 0.058602456003427505 -0.08748886734247208 169 35 149
0.1349560171365738 0.1541033387184143 -0.1600215584039688 172 37 147
0.05947902426123619 0.09299638867378235 -0.06940409541130066 177 43 143
0.1283879578113556 0.10667483508586884 -0.11745116859674454 190 56 131
0.017800305038690567 0.12023629248142242 -0.08777472376823425 199 66 123
0.10486608743667603 0.057371437549591064 -0.153455913066864 209 79 113
-0.028634941205382347 0.05422041565179825 -0.09195644408464432 219 91 103
0.01683230698108673 0.04376211017370224 -0.06790187954902649 227 104 94
-0.11927944421768188 -0.05977526307106018 0.095957912504673 235 118 84
-0.16378621757030487 -0.22340773046016693 0.20454341173171997 242 132 75
-0.11752606928348541 -0.15879467129707336 0.1681578904390335 244 137 71
-0.12993185222148895 -0.11456684023141861 0.09591683000326157 244 137 71
-0.1997310072183609 -0.009762601926922798 0.018661608919501305 244 138 71
-0.18351350724697113 0.07708858698606491 0.029093051329255104 244 138 71
-0.18258613348007202 0.10197952389717102 -0.051334019750356674 244 137 71
-0.21562473475933075 0.23601748049259186 -0.08562540262937546 244 137 71
-0.1431509256362915 0.4577885866165161 -0.3523332178592682 243 134 73
-0.2104082703590393 0.5354869365692139 -0.39118075370788574 244 137 71
-0.10353502631187439 0.46758586168289185 -0.38463902473449707 245 139 70
-0.09735474735498428 0.35151511430740356 -0.3246960937976837 244 137 71
-0.05082698538899422 0.3618035316467285 -0.341108113527298 244 137 71
-0.03232664242386818 0.2815726101398468 -0.2549453377723694 244 138 71
0.027919864282011986 0.3690786063671112 -0.3532673716545105 243 134 73
0.09108246862888336 0.3581688106060028 -0.21119986474514008 244 137 71
0.1903969645500183 0.288163423538208 -0.3286108374595642 245 139 70
0.16698947548866272 0.3101520240306854 -0.3286193013191223 245 141 69
0.14272308349609375 0.32902759313583374 -0.28085047006607056 245 141 69
0.10325097292661667 0.29183048009872437 -0.36207762360572815 245 139 70
0.02796519733965397 0.3517717123031616 -0.3812483251094818 245 141 69
0.06933386623859406 0.415169894695282 -0.20439361035823822 245 141 69
0.24305646121501923 0.3009396493434906 -0.18118132650852203 245 141 69
0.10547569394111633 0.2774621844291687 -0.21348249912261963 245 139 70
0.10835865885019302 0.09326781332492828 -0.1719132661819458 244 138 71
0.11816474050283432 -0.029083851724863052 -0.12003052979707718 243 134 73
0.13350895047187805 0.06405464559793472 -0.05672330781817436 240 128 77
0.18717160820960999 0.05166949704289436 -0.10907477140426636 232 112 89
0.09332744777202606 0.09415358304977417 -0.14736001193523407 227 103 95
0.06987345963716507 0.06811901926994324 -0.06999175995588303 232 112 89
0.07354135066270828 -0.05036766082048416 -0.07267030328512192 230 109 90
0.07652901113033295 0.04979516193270683 -0.1327628195285797 223 97 99
0.056482017040252686 0.12081277370452881 -0.13671132922172546 217 89 105
0.018714895471930504 0.12525197863578796 -0.22039975225925446 217 89 105
0.09730548411607742 0.03833358734846115 -0.32479262351989746 219 91 103
0.15695057809352875 0.17609061300754547 -0.17830711603164673 222 96 100
0.08970409631729126 0.22340843081474304 -0.08108937740325928 215 87 107
0.2567206919193268 0.31417763233184814 -0.1297500729560852 222 96 100
0.04809431731700897 0.3300814628601074 -0.043064091354608536 223 98 98
0.40429484844207764 0.1691495031118393 0.16243833303451538 230 109 90
0.09739328920841217 -0.35714221000671387 0.3176839053630829 232 113 88
-0.0448310412466526 -0.235514298081398 0.46620631217956543 230 109 90
0.0719483271241188 -0.45545637607574463 0.4249376654624939 236 119 84
-0.09801509231328964 -0.3390071392059326 0.46018221974372864 223 98 98
-0.19270439445972443 -0.505332887172699 0.47582826018333435 222 96 100
-0.3026996850967407 -0.18468934297561646 0.16675125062465668 229 107 92
-0.1648997813463211 0.2293500155210495 -0.2602645456790924 229 108 91
0.052148204296827316 0.1019592359662056 -0.4662924110889435 216 88 106
0.27804362773895264 0.1170484870672226 -0.31741026043891907 215 86 108
0.1482410579919815 0.32807254791259766 -0.3040302097797394 218 90 104
0.19824396073818207 0.5195500254631042 -0.334199458360672 217 89 105
0.204473614692688 0.44538185000419617 -0.3564428389072418 214 85 109
0.11600515991449356 0.554333508014679 -0.3429468274116516 210 80 112
0.17266321182250977 0.505592942237854 -0.29163670539855957 202 70 120
0.25459015369415283 0.5378782153129578 -0.2564557194709778 195 62 127
0.27962371706962585 0.5829504728317261 -0.3113945424556732 197 64 125
0.10646035522222519 0.507460355758667 -0.3108356297016144 197 64 125
0.056620366871356964 0.4574430584907532 -0.3079802989959717 202 70 120
0.17777632176876068 0.44287124276161194 -0.40628090500831604 202 70 120
0.10269135236740112 0.3888828456401825 -0.26069843769073486 204 72 118
0.09090210497379303 0.17023448646068573 0.051354702562093735 203 71 119
0.0023236311972141266 -0.0915086567401886 0.206181600689888 204 72 118
0.19985780119895935 -0.08082333952188492 0.4163484573364258 200 68 122
0.17686983942985535 -0.07028532773256302 0.45163625478744507 197 64 125
0.05734001472592354 0.05453704297542572 0.2499590367078781 196 63 126
0.09934364259243011 0.3417268693447113 0.43198657035827637 194 61 128
0.09827186167240143 0.5207126140594482 0.15514691174030304 191 57 130
-0.050072405487298965 0.5768113732337952 -0.028294432908296585 190 56 131
-0.03769915550947189 0.5657557845115662 -0.08726338297128677 180 45 141
-0.048885464668273926 0.516951858997345 -0.006642905529588461 168 34 150
-0.1387927085161209 0.5050272941589355 -0.0017007513670250773 158 25 156
-0.151704803109169 0.4222414791584015 -0.03322220221161842 154 21 158
-0.15927447378635406 0.3776804208755493 0.016530727967619896 157 24 157
-0.17449818551540375 0.4094045162200928 0.039336320012807846 164 30 152
-0.1598304808139801 0.3450867235660553 0.07467801868915558 175 40 144
-0.11999788135290146 0.25665125250816345 0.13506290316581726 173 38 146
-0.1771961897611618 0.15622322261333466 0.15053793787956238 176 42 143
-0.20092050731182098 0.0415496900677681 0.16191039979457855 173 38 146
-0.1822078675031662 0.021286694332957268 0.2751172184944153 175 40 144
-0.17121823132038116 -0.033879149705171585 0.3293096721172333 177 43 143
-0.1120360791683197 -0.06950724124908447 0.425756573677063 184 50 137
0.00964389368891716 -0.06604930758476257 0.47594717144966125 180 45 141
0.012779602780938148 -0.06439541280269623 0.4718470573425293 181 46 140
-0.07148366421461105 -0.02128029242157936 0.33026784658432007 180 45 141
-0.014901750721037388 0.016206935048103333 0.39994296431541443 181 46 140
-0.031001778319478035 0.0391194187104702 0.38541460037231445 181 46 140
-0.051857028156518936 0.17312784492969513 0.2872406840324402 184 50 137
-0.07088512182235718 0.20381025969982147 0.26651424169540405 188 54 133
-0.060209017246961594 0.191525399684906 0.2904545068740845 187 53 134
-0.07354286313056946 0.1443050056695938 0.2625848948955536 192 59 129
-0.06049102172255516 0.12378967553377151 0.28254377841949463 194 61 128
-0.1375499963760376 0.16809238493442535 0.17670148611068726 207 75 116
-0.08567741513252258 0.24154086410999298 0.1647508293390274 209 79 113
-0.10890235006809235 0.2879946231842041 0.1966581791639328 213 83 109
-0.0002636492718011141 0.18430829048156738 0.3101015090942383 212 82 110
-0.0476146936416626 0.04134086146950722 0.32503825426101685 208 77 115
-0.0009385145967826247 -0.03367991745471954 0.37498289346694946 208 77 115
-0.0261971615254879 -0.1296984702348709 0.3666982352733612 209 79 113
0.008327560499310493 -0.19172914326190948 0.44356364011764526 212 82 110
-0.08672651648521423 -0.09801291674375534 0.23068076372146606 213 83 109
0.051839638501405716 0.1241631954908371 0.18427549302577972 214 85 109
0.04041605070233345 0.13410012423992157 0.22730407118797302 216 88 106
0.01892257109284401 0.10196689516305923 0.34410834312438965 219 91 103
0.15047118067741394 0.0059799752198159695 0.3479841649532318 218 90 104
0.17545820772647858 -0.04005136340856552 0.44557058811187744 217 89 105
0.2696819305419922 -0.11613069474697113 0.34088337421417236 219 91 103
0.19316329061985016 -0.014583921059966087 0.29075825214385986 219 91 103
0.2537880539894104 -0.03722771629691124 0.25881436467170715 220 93 102
0.37298446893692017 0.10768226534128189 0.1845751851797104 221 95 101
0.2888268828392029 0.09021618962287903 0.06552288681268692 223 97 99
0.23646509647369385 0.05241529643535614 0.12537986040115356 224 100 97
0.03290659189224243 0.1351744383573532 0.12372459471225739 223 98 98
0.029295748099684715 0.03165264055132866 0.2046203315258026 227 103 95
0.07263278216123581 -0.31292396783828735 0.1736527532339096 227 104 94
-0.06751956045627594 -0.44261497259140015 0.33422398567199707 227 103 95
-0.009646865539252758 0.27140846848487854 0.14135059714317322 225 101 96
0.2545595169067383 0.3896048665046692 -0.026805035769939423 226 102 96
0.3393801152706146 0.1070486530661583 -0.03073163516819477 222 96 100
0.2347341626882553 -0.013855168595910072 0.006398896686732769 218 90 104
0.32094138860702515 -0.0007119659567251801 0.0989580824971199 218 90 104
0.2757503390312195 -0.08118093758821487 0.2632810175418854 217 89 105
0.2131325602531433 -0.16530752182006836 0.2524136006832123 213 83 109
0.14401401579380035 -0.12349388003349304 0.3668874204158783 212 82 110
0.22572588920593262 -0.027503838762640953 0.21724946796894073 212 82 110
0.1868828535079956 0.08347119390964508 0.08720837533473969 208 77 115
0.03714350610971451 -0.0967455804347992 0.3459005057811737 201 69 121
-0.12136181443929672 -0.15861918032169342 0.18225233256816864 208 77 115
-0.0816587582230568 -0.08047827333211899 0.23663929104804993 209 78 114
0.055689577013254166 -0.22697032988071442 0.4730418026447296 212 82 110
0.07454229891300201 -0.1516040563583374 0.4579162001609802 213 83 109
-0.06691978126764297 -0.2850806415081024 0.10910049825906754 213 83 109
0.19831013679504395 -0.3136020302772522 0.16677983105182648 215 86 108
-0.1366046518087387 0.04894523322582245 0.17821985483169556 215 87 107
-0.04383016750216484 0.08551130443811417 0.19517859816551208 203 71 119
0.10603068023920059 0.13988567888736725 0.1736668348312378 196 63 126
0.26163867115974426 0.006681832950562239 0.11053831875324249 180 45 141
0.13409705460071564 0.05971110239624977 0.06685516238212585 178 44 142
0.30675771832466125 0.1517777442932129 0.038004737347364426 177 43 143
0.3221474289894104 0.21856282651424408 0.03920968621969223 175 40 144
0.2176995575428009 0.18659161031246185 -0.014549550600349903 170 36 148
0.24708837270736694 0.1263052523136139 0.16433408856391907 153 20 159
0.35541480779647827 -0.010172153823077679 0.24665381014347076 146 15 162
0.2072775810956955 -0.05374618247151375 0.12763375043869019 151 19 160
0.23429715633392334 -0.09348094463348389 0.18949227035045624 153 20 159
0.18101227283477783 -0.06263924390077591 0.26837798953056335 160 27 155
0.17162072658538818 0.07831981778144836 0.225332573056221 175 40 144
0.15956267714500427 -0.08285723626613617 0.3306097984313965 177 43 143
0.05629740655422211 -0.16967540979385376 0.5586490631103516 170 36 148
0.07189096510410309 -0.2288365364074707 0.5945147275924683 170 36 148
0.10261843353509903 -0.2825232148170471 0.6064748167991638 169 35 149
0.10025544464588165 -0.3862519860267639 0.5964186191558838 165 31 151
0.05916439741849899 -0.3868289589881897 0.5899516344070435 170 36 148
0.05198885127902031 -0.36362892389297485 0.5493865013122559 172 37 147
0.09474972635507584 -0.3007426857948303 0.5333617329597473 176 42 143
0.02796473167836666 -0.24038684368133545 0.5354464650154114 177 43 143
-0.049407556653022766 -0.11050815135240555 0.5004728436470032 184 50 137
-0.12724997103214264 0.02712189219892025 0.34865278005599976 185 51 136
-0.18276391923427582 0.279466837644577 0.16175442934036255 189 55 132
-0.05203787237405777 0.4125230610370636 0.14025649428367615 195 62 127
0.03702619671821594 0.41935494542121887 0.15859155356884003 198 65 124
0.09538466483354568 0.38123753666877747 0.2296265810728073 207 75 116
0.12089352309703827 0.272878497838974 0.31472402811050415 216 88 106
0.23426416516304016 0.20023630559444427 0.3783436119556427 218 90 104
0.15435081720352173 -0.010350379161536694 0.4125022292137146 219 91 103
0.011971943080425262 -0.1744513362646103 0.4886351227760315 219 91 103
0.06164531037211418 -0.07084888964891434 0.4741806387901306 220 93 102
0.05670814588665962 -0.011788967996835709 0.4324782192707062 218 90 104
0.0907297283411026 -0.0662093535065651 0.5219268202781677 216 88 106
0.03638896718621254 -0.00853346474468708 0.3978041112422943 216 88 106
0.018001452088356018 0.013078559190034866 0.3777303099632263 215 86 108
-0.0203904677182436 -0.11125856637954712 0.4386048913002014 209 79 113
-0.010428517125546932 -0.18284878134727478 0.5065740942955017 215 86 108
-0.0287481639534235 -0.21525128185749054 0.47250816226005554 214 85 109
-0.009222856722772121 -0.28581860661506653 0.5500293970108032 212 82 110
-0.0005958087276667356 -0.2880857586860657 0.5227817296981812 212 82 110
0.029845645651221275 -0.1775173842906952 0.5351264476776123 208 77 115
0.11538254469633102 -0.17356781661510468 0.5219422578811646 208 77 115
0.06876524537801743 -0.15089170634746552 0.5602718591690063 210 80 112
0.1321282982826233 0.0007856417796574533 0.49421873688697815 200 68 122
0.06291741877794266 0.18816913664340973 0.3184814453125 196 63 126
0.1664498895406723 0.11681115627288818 0.3478161692619324 209 78 114
0.20197151601314545 0.16281938552856445 0.27700334787368774 208 77 115
0.259243905544281 0.004601001739501953 0.2820571959018707 211 81 111
0.06446504592895508 -0.051632851362228394 0.4271453619003296 214 85 109
0.10361231118440628 -0.029172291979193687 0.3652274012565613 215 86 108
0.11019620299339294 -0.0858139842748642 0.46261832118034363 213 83 109
0.2242666333913803 0.032748959958553314 0.5042221546173096 206 74 117
0.12063983827829361 -0.004406427498906851 0.46229803562164307 204 72 118
0.0808749571442604 -0.04361685737967491 0.5188356041908264 196 63 126
-0.06635282933712006 0.08181264996528625 0.2891523241996765 192 59 129
-0.07902111113071442 0.2054208219051361 0.0635451078414917 190 56 131
0.004220227710902691 0.3977802097797394 0.017049914225935936 184 50 137
-0.12026049196720123 0.38829830288887024 0.011184930801391602 184 50 137
0.09049445390701294 0.27747854590415955 0.15624885261058807 184 50 137
0.16052544116973877 0.2202966958284378 0.29685890674591064 181 46 140
0.13134120404720306 0.15286076068878174 0.36682847142219543 189 55 132
0.11621581763029099 0.10860563814640045 0.3376285135746002 186 52 135
0.19079498946666718 0.09003669768571854 0.3669110834598541 187 53 134
0.2132173627614975 0.06602364033460617 0.3962451219558716 191 57 130
0.22293007373809814 0.06547587364912033 0.34128355979919434 193 60 128
0.18130166828632355 0.06832882761955261 0.37486788630485535 193 60 128
0.14612872898578644 0.20555025339126587 0.2799692749977112 196 63 126
0.1892171949148178 0.25058433413505554 0.27371034026145935 201 69 121
0.054291415959596634 0.22296911478042603 0.2958439588546753 198 65 124
-0.09824210405349731 0.24604551494121552 0.20200775563716888 197 64 125
-0.135658860206604 0.24342435598373413 0.1587384194135666 198 65 124
-0.11499784886837006 0.3226252794265747 0.21536016464233398 194 61 128
-0.11288391053676605 0.4031301438808441 0.1756141483783722 195 62 127
-0.01003535371273756 0.4180033504962921 0.20004191994667053 198 65 124
0.04791730269789696 0.40359532833099365 0.24899624288082123 202 70 120
-0.00970425084233284 0.48682093620300293 0.16695213317871094 206 74 117
0.1502644419670105 0.45232337713241577 0.1760224848985672 205 73 117
0.15528422594070435 0.4588225483894348 0.18143227696418762 210 80 112
0.13071593642234802 0.44468721747398376 0.1190820187330246 217 89 105
0.18596987426280975 0.47977590560913086 0.06785384565591812 220 93 102
0.14694969356060028 0.4944867491722107 0.09321977198123932 223 97 99
0.23480068147182465 0.4945719242095947 0.04009559005498886 229 107 92
0.13963131606578827 0.5649374127388 0.01896940916776657 233 114 87
0.05039924755692482 0.4730979800224304 0.06563973426818848 238 124 80
-0.045067887753248215 0.37942972779273987 0.10510656982660294 245 139 70
0.05632583424448967 0.3121066689491272 0.2550531029701233 248 152 62
0.08350922912359238 0.3956707715988159 0.21098832786083221 248 152 62
0.08499709516763687 0.4446849226951599 0.09414847195148468 247 147 65
0.007836258970201015 0.44620436429977417 0.04338567703962326 247 147 65
0.1138812005519867 0.545636773109436 0.010041914880275726 247 146 65
0.11373183131217957 0.635199785232544 -0.17282404005527496 248 150 63
0.18550051748752594 0.588559627532959 -0.1416068971157074 248 152 62
0.13412119448184967 0.46730858087539673 -0.15306547284126282 248 152 62
0.08776327222585678 0.4724184274673462 -0.11898697167634964 248 152 62
0.037485916167497635 0.5775729417800903 -0.1945779025554657 248 152 62
0.05150103569030762 0.6080872416496277 -0.24054838716983795 249 153 61
-0.06354353576898575 0.5465400815010071 -0.15819843113422394 248 152 62
-0.07029256224632263 0.5558980107307434 -0.15102262794971466 248 150 63
0.05435565486550331 0.5540494322776794 -0.1468377411365509 248 149 64
0.07413823157548904 0.6080330014228821 -0.1586853265762329 248 149 64
0.06989476084709167 0.5481977462768555 -0.186079204082489 247 146 65
0.017344065010547638 0.4889374375343323 -0.0777922049164772 247 146 65
0.1144365593791008 0.28562629222869873 0.11266917735338211 246 142 68
-0.020307868719100952 0.14982706308364868 0.183039128780365 247 147 65
0.054606419056653976 0.18402810394763947 0.2381284385919571 246 145 66
0.1636335849761963 0.3018072545528412 0.18233269453048706 245 141 69
0.23898187279701233 0.3165372610092163 0.03510592505335808 244 138 71
0.16161206364631653 0.5333649516105652 -0.038710229098796844 243 135 72
0.2085343301296234 0.5681990385055542 -0.16041569411754608 244 137 71
0.10144840180873871 0.5890336632728577 -0.12909986078739166 245 139 70
0.008825366385281086 0.5648787617683411 -0.11314642429351807 244 137 71
0.04144476726651192 0.5130084753036499 -0.1950751543045044 246 143 67
0.3406520485877991 0.4996863305568695 -0.05153161659836769 247 146 65
0.16999003291130066 0.5017799139022827 -0.0802849680185318 248 150 63
0.07031504064798355 0.402720183134079 -0.16410449147224426 245 141 69
