ply
format ascii 1.0
element vertex 674
property float x
property float y
property float z
property uchar red
property uchar green
property uchar blue
end_header
0.6975715756416321 -0.6332502961158752 -0.3352431058883667 244 137 71
0.6577045917510986 -0.6328614354133606 -0.40854763984680176 245 139 70
0.7561240792274475 -0.5424346327781677 -0.3661162257194519 248 149 64
0.475062757730484 -0.6940386891365051 -0.5409488081932068 248 150 63
0.5798631906509399 -0.6564528346061707 -0.48252275586128235 248 152 62
0.5370679497718811 -0.5768532156944275 -0.6154659390449524 248 150 63
0.4479362666606903 -0.5536324977874756 -0.7020286321640015 246 143 67
0.2982006371021271 -0.7783387899398804 -0.5525079965591431 242 133 74
0.22293558716773987 -0.6608976721763611 -0.7165989875793457 239 125 79
0.0965493768453598 -0.6716920137405396 -0.734512209892273 233 114 87
-0.0510992668569088 -0.5882781744003296 -0.8070425391197205 229 107 92
0.00640958733856678 -0.7552475929260254 -0.6554083824157715 230 109 90
0.054371271282434464 -0.6376294493675232 -0.7684221267700195 231 110 90
-0.041307661682367325 -0.5993857383728027 -0.7993937134742737 233 114 87
-0.031587157398462296 -0.6100174188613892 -0.791758120059967 229 108 91
0.1190909817814827 -0.6010021567344666 -0.7903251051902771 224 100 97
0.2302606701850891 -0.44014590978622437 -0.8679007291793823 220 93 102
0.1995738446712494 -0.2677307724952698 -0.9425978064537048 213 83 109
0.5349723100662231 -0.2338721603155136 -0.811854898929596 211 81 111
0.689497172832489 -0.10953675955533981 -0.7159575819969177 209 78 114
0.5872849225997925 -0.15194939076900482 -0.7949891686439514 205 73 117
0.4645836651325226 -0.20910383760929108 -0.8604868054389954 202 70 120
0.3744760751724243 -0.828576385974884 -0.4162076413631439 203 71 119
0.3579730987548828 -0.6826139688491821 -0.6370976567268372 204 72 118
0.8634695410728455 0.05896211415529251 -0.5009430050849915 207 75 116
0.9807345867156982 -0.09800375252962112 0.16898223757743835 214 85 109
0.9313365817070007 -0.3480723798274994 -0.10704126209020615 216 88 106
0.8815828561782837 -0.1991017758846283 -0.42798373103141785 220 93 102
0.4958193004131317 -0.34379827976226807 -0.79747474193573 222 96 100
0.33523282408714294 -0.26976683735847473 -0.9026875495910645 223 97 99
0.5276138782501221 -0.027561882510781288 -0.8490370512008667 225 101 96
0.41456031799316406 0.008442330174148083 -0.9099826812744141 226 102 96
0.6569889783859253 -0.2087504118680954 -0.7244229912757874 225 101 96
0.22959379851818085 -0.6068520545959473 -0.7609318494796753 225 101 96
0.6399643421173096 -0.39215028285980225 -0.6608054041862488 224 100 97
0.7109245657920837 0.25772231817245483 -0.6543434262275696 222 96 100
0.5550165176391602 0.1811400204896927 -0.811877429485321 215 86 108
0.6369293928146362 0.25034838914871216 -0.7291409969329834 214 85 109
0.22769753634929657 -0.12444131076335907 -0.9657474756240845 215 86 108
0.2647988498210907 0.2723954916000366 -0.9250309467315674 215 86 108
-0.07951349020004272 0.8970316648483276 -0.4347549378871918 219 91 103
0.07992620021104813 0.9953321814537048 0.05408889055252075 218 90 104
0.13453347980976105 0.983997642993927 0.11683042347431183 218 90 104
0.18390251696109772 0.9714805483818054 0.1496846228837967 217 89 105
0.3019213378429413 0.8947731852531433 0.32897457480430603 217 89 105
0.43172740936279297 0.7603906393051147 0.48519837856292725 216 88 106
-0.3675108253955841 0.638908326625824 -0.675819456577301 212 82 110
0.16265909373760223 0.4982399344444275 -0.8516448736190796 200 68 122
0.1605117917060852 0.1602306365966797 -0.9739415645599365 192 59 129
0.37307167053222656 0.09055135399103165 -0.9233731627464294 190 56 131
0.016093259677290916 0.0739046111702919 -0.9971354603767395 188 54 133
-0.16840916872024536 -0.21504153311252594 -0.9619747996330261 186 52 135
-0.07119325548410416 -0.2502114176750183 -0.9655702710151672 184 50 137
-0.1278197169303894 -0.4939716160297394 -0.8600314855575562 185 51 136
-0.14448030292987823 -0.595509946346283 -0.7902488708496094 183 48 138
-0.0697508305311203 -0.676459014415741 -0.7331698536872864 186 52 135
-0.011706072837114334 -0.5905123949050903 -0.8069436550140381 183 48 138
-0.08854342997074127 -0.5850664973258972 -0.806137204170227 181 46 140
0.09147638827562332 -0.6411115527153015 -0.7619763612747192 176 42 143
0.08884096145629883 -0.6643459796905518 -0.74212646484375 175 40 144
-0.013043501414358616 -0.6743950247764587 -0.7382555603981018 176 42 143
0.13389122486114502 -0.5599262714385986 -0.8176525235176086 180 45 141
-0.13924972712993622 -0.4452870190143585 -0.8844935894012451 183 48 138
-0.3339872360229492 -0.5579881072044373 -0.7596721649169922 190 56 131
0.07354630529880524 -0.3775329291820526 -0.9230709075927734 196 63 126
0.3530774414539337 -0.13969635963439941 -0.9251061081886292 198 65 124
0.300685852766037 -0.17566022276878357 -0.9374067783355713 199 66 123
0.24030190706253052 -0.07786369323730469 -0.9675702452659607 201 69 121
0.05407349392771721 -0.4163236916065216 -0.9076071381568909 199 66 123
0.30064883828163147 -0.503506064414978 -0.8099949955940247 200 68 122
0.524817943572998 -0.5477725863456726 -0.6515454053878784 201 69 121
0.7088905572891235 -0.4957674741744995 -0.5016859173774719 202 70 120
0.6627600789070129 -0.46934714913368225 -0.5834915637969971 203 71 119
0.2812734842300415 -0.8289637565612793 -0.4834297001361847 204 72 118
0.35270294547080994 -0.9261942505836487 -0.1332853138446808 205 73 117
0.0590243861079216 -0.9822700619697571 -0.1779371052980423 202 70 120
0.7390210032463074 -0.314506471157074 -0.5957630276679993 202 70 120
0.809015154838562 0.06136978790163994 -0.5845752358436584 201 69 121
0.5250177979469299 -0.12948426604270935 -0.8411837816238403 200 68 122
0.4120444059371948 -0.13337399065494537 -0.9013494253158569 200 68 122
0.2874824106693268 -0.17483316361904144 -0.9416938424110413 198 65 124
0.018521109595894814 -0.39952990412712097 -0.9165329933166504 190 56 131
-0.013066624291241169 -0.2715475857257843 -0.9623363018035889 186 52 135
-0.20221814513206482 -0.24831552803516388 -0.9473369121551514 183 48 138
-0.03589016944169998 -0.30882564187049866 -0.9504412412643433 181 46 140
-0.22060592472553253 -0.37813183665275574 -0.8990825414657593 174 39 145
-0.3066585958003998 -0.42536190152168274 -0.8514856696128845 170 36 148
-0.6259697675704956 -0.3240234851837158 -0.7093452215194702 165 31 151
-0.5015000104904175 -0.2815002501010895 -0.8180803656578064 160 27 155
-0.5428516268730164 -0.26292288303375244 -0.7976112961769104 158 25 156
-0.45415574312210083 -0.3287481367588043 -0.8280502557754517 157 24 157
-0.4636288583278656 -0.2390776425600052 -0.8531647324562073 154 21 158
-0.3153964579105377 -0.2629980444908142 -0.9117878079414368 153 20 159
-0.30674341320991516 -0.2786036729812622 -0.9101034998893738 157 24 157
-0.16868717968463898 -0.2029532790184021 -0.9645489454269409 158 25 156
-0.223690465092659 -0.17398954927921295 -0.959004819393158 167 33 151
0.20280973613262177 -0.13198263943195343 -0.970282793045044 177 43 143
0.38582223653793335 -0.13899953663349152 -0.9120418429374695 191 57 130
0.4961150586605072 -0.23443599045276642 -0.8360081315040588 198 65 124
0.6170622706413269 -0.10560302436351776 -0.7797962427139282 209 78 114
0.7263774871826172 -0.01893727295100689 -0.687035083770752 215 86 108
0.6681826114654541 -0.10142802447080612 -0.7370511293411255 215 86 108
0.6947398781776428 -0.280969500541687 -0.6621122360229492 214 85 109
0.5125590562820435 -0.6557108163833618 -0.5543704032897949 215 86 108
0.4294607937335968 -0.6111086010932922 -0.6649132966995239 215 86 108
0.5683261156082153 -0.528323769569397 -0.6307768225669861 215 87 107
0.7964420914649963 -0.3393068313598633 -0.5005506277084351 215 86 108
0.7933439612388611 -0.4962405860424042 -0.35263383388519287 214 85 109
0.7434170246124268 -0.5862233638763428 -0.3219834268093109 214 85 109
0.21420419216156006 -0.6482135653495789 -0.7307090163230896 214 85 109
-0.22155146300792694 -0.3723263144493103 -0.9012702703475952 213 83 109
-0.016467537730932236 -0.0892861932516098 -0.9958698749542236 214 85 109
0.041577115654945374 -0.039751749485731125 -0.9983442425727844 215 86 108
-0.0748872235417366 0.005730660632252693 -0.9971755146980286 215 87 107
-0.3832004964351654 -0.1694350689649582 -0.907991886138916 217 89 105
-0.6182790994644165 -0.1738249808549881 -0.7664958238601685 217 89 105
-0.7376728057861328 -0.22816413640975952 -0.6354367733001709 216 88 106
-0.7249616980552673 -0.22244974970817566 -0.6518793702125549 215 86 108
-0.7765243053436279 -0.2670048773288727 -0.5707173943519592 211 81 111
-0.7373916506767273 -0.36141231656074524 -0.5706441402435303 209 79 113
-0.7002160549163818 -0.39163756370544434 -0.5969233512878418 209 79 113
-0.6705629229545593 -0.41850653290748596 -0.6125338077545166 212 82 110
-0.5985174775123596 -0.4816530644893646 -0.6401462554931641 215 86 108
-0.6373540163040161 -0.47314098477363586 -0.6082084774971008 216 88 106
-0.5778344869613647 -0.4310922920703888 -0.6930127739906311 218 90 104
-0.5406976938247681 -0.5137432217597961 -0.6661185026168823 218 90 104
-0.3053869903087616 -0.6928477883338928 -0.6532232761383057 218 90 104
-0.8991334438323975 -0.3644244074821472 -0.2423921525478363 215 87 107
-0.17928674817085266 0.9804174900054932 0.08147373795509338 215 86 108
0.10539790987968445 0.9871095418930054 0.12044139206409454 214 85 109
0.13453347980976105 0.983997642993927 0.11683042347431183 214 85 109
-0.10182372480630875 0.9942857027053833 -0.03206178545951843 214 85 109
-0.7816054821014404 0.22093409299850464 -0.5833361148834229 215 87 107
-0.7265284657478333 -0.028925705701112747 -0.6865273118019104 215 87 107
-0.5721836090087891 -0.0022644761484116316 -0.8201225399971008 216 88 106
-0.5572326183319092 -0.14542262256145477 -0.8175230622291565 218 90 104
-0.3495613932609558 -0.10802703350782394 -0.9306648373603821 219 91 103
-0.6794098019599915 -0.26854178309440613 -0.682852566242218 217 89 105
-0.6870045065879822 -0.3185921311378479 -0.6530880331993103 216 88 106
-0.7387065291404724 -0.40676453709602356 -0.5374526381492615 216 88 106
-0.6698240637779236 -0.4911099076271057 -0.5569082498550415 215 87 107
-0.6184661984443665 -0.4407857060432434 -0.6505440473556519 215 86 108
-0.6772214770317078 -0.4659218192100525 -0.569462776184082 214 85 109
-0.5473932027816772 -0.5916567444801331 -0.5918639898300171 215 86 108
-0.6916621923446655 -0.4354454576969147 -0.5761862993240356 215 87 107
-0.6802894473075867 -0.3326581120491028 -0.6531040072441101 215 86 108
-0.6733358502388 -0.22290222346782684 -0.7049350142478943 215 86 108
-0.5387154221534729 -0.2587794065475464 -0.8017598390579224 211 81 111
-0.5225515365600586 -0.3594712018966675 -0.7731238007545471 209 78 114
-0.5418787002563477 -0.2565982937812805 -0.8003279566764832 206 74 117
-0.5038143396377563 -0.2148231416940689 -0.8366732597351074 198 65 124
-0.3264268636703491 -0.32318314909935 -0.8882556557655334 190 56 131
-0.413921058177948 -0.2868176996707916 -0.8639472723007202 186 52 135
-0.4685002565383911 -0.3611050844192505 -0.8062943816184998 183 48 138
-0.5730012059211731 -0.45355820655822754 -0.6826086044311523 182 47 139
-0.5508350133895874 -0.4704352915287018 -0.6893993020057678 182 47 139
-0.6366474032402039 -0.5340449213981628 -0.5563058853149414 182 47 139
-0.6633497476577759 -0.5448774099349976 -0.5129090547561646 187 53 134
-0.6330366730690002 -0.6029309630393982 -0.485529363155365 194 61 128
-0.6803207397460938 -0.5199697017669678 -0.5165223479270935 200 68 122
-0.6801161766052246 -0.47418662905693054 -0.5590965747833252 199 66 123
-0.5076686143875122 -0.5616419911384583 -0.6533229351043701 198 65 124
-0.6233123540878296 -0.5138787627220154 -0.5894152522087097 197 64 125
-0.6342307329177856 -0.5254078507423401 -0.5671842098236084 207 75 116
-0.7178440690040588 -0.4105927050113678 -0.5622397065162659 195 62 127
-0.6757041215896606 -0.35447508096694946 -0.6463522911071777 196 63 126
-0.5828670859336853 -0.3153632581233978 -0.748873770236969 205 73 117
-0.5948610901832581 -0.38586732745170593 -0.7051571607589722 214 85 109
-0.29140886664390564 -0.30637314915657043 -0.9062098860740662 219 91 103
-0.4725363552570343 -0.36957037448883057 -0.8000794649124146 223 97 99
-0.34500235319137573 -0.3027017414569855 -0.8884508609771729 225 101 96
-0.32211020588874817 -0.22948814928531647 -0.9184662699699402 226 102 96
-0.23368418216705322 -0.22746047377586365 -0.9453324675559998 226 102 96
-0.20230920612812042 -0.38329625129699707 -0.9011964201927185 222 96 100
-0.30560895800590515 -0.20076221227645874 -0.9307512044906616 222 96 100
-0.4211715757846832 -0.35262298583984375 -0.835626482963562 222 96 100
-0.29381969571113586 -0.49898675084114075 -0.8152803778648376 220 93 102
-0.5215701460838318 -0.4411347508430481 -0.7303182482719421 218 90 104
-0.31148552894592285 -0.5554294586181641 -0.7710219621658325 217 89 105
-0.09048125892877579 -0.4285326302051544 -0.8989843726158142 218 90 104
-0.1208757683634758 -0.5958372354507446 -0.7939565181732178 218 90 104
-0.020982587710022926 -0.6760628819465637 -0.7365450859069824 221 95 101
-0.30420148372650146 -0.7175580859184265 -0.6265554428100586 222 96 100
-0.261848121881485 -0.6147449016571045 -0.7439922094345093 223 97 99
-0.1896672546863556 -0.7251193523406982 -0.6619881391525269 221 95 101
-0.5979188084602356 -0.5049158334732056 -0.6225376129150391 218 90 104
-0.4969436228275299 -0.41398385167121887 -0.7626692056655884 215 87 107
-0.661531388759613 -0.2900274097919464 -0.6915636658668518 214 85 109
-0.39303699135780334 0.8516815304756165 -0.3466416299343109 212 82 110
-0.18879830837249756 0.9458487033843994 -0.2640558183193207 211 81 111
-0.1206865981221199 0.6809808611869812 -0.7222879528999329 209 79 113
0.3140968084335327 0.5440938472747803 -0.7780134677886963 209 78 114
0.22873838245868683 0.19908885657787323 -0.9529125690460205 208 77 115
0.41729095578193665 0.2571391463279724 -0.8716351389884949 206 74 117
0.3481902778148651 0.28740695118904114 -0.8922784328460693 204 72 118
0.22043071687221527 0.1654832363128662 -0.9612624645233154 202 70 120
-0.24969890713691711 -0.06430864334106445 -0.9661857485771179 200 68 122
-0.27952322363853455 -0.025193851441144943 -0.959808349609375 198 65 124
-0.3748466968536377 0.13134147226810455 -0.9177359938621521 196 63 126
-0.14963580667972565 0.29897990822792053 -0.9424543380737305 196 63 126
-0.6951001286506653 0.361666202545166 -0.6213157176971436 198 65 124
-0.8284933567047119 0.19600540399551392 -0.5245766043663025 201 69 121
-0.6664398908615112 -0.14286820590496063 -0.7317420840263367 206 74 117
-0.737284779548645 -0.04540577530860901 -0.6740545034408569 209 79 113
-0.6826310157775879 -0.35446304082870483 -0.6390390396118164 214 85 109
-0.5665966868400574 -0.23848852515220642 -0.7887276411056519 217 89 105
-0.5870518684387207 0.007499421015381813 -0.8095146417617798 217 89 105
-0.058684565126895905 0.24755120277404785 -0.9670959711074829 219 91 103
-0.0257622878998518 0.0412062369287014 -0.9988185167312622 221 95 101
-0.09706549346446991 0.05428022891283035 -0.9937968254089355 227 104 94
0.015166818164288998 0.2035374939441681 -0.9789497256278992 233 114 87
0.21201175451278687 0.039302676916122437 -0.9764764904975891 238 124 80
0.3001570701599121 -0.006403581239283085 -0.9538683295249939 241 130 76
0.23057423532009125 -0.11961599439382553 -0.965674638748169 243 134 73
0.30168646574020386 -0.24773678183555603 -0.9206582903862 244 137 71
0.12177988886833191 -0.21452727913856506 -0.969096302986145 244 137 71
0.12793131172657013 -0.3694099187850952 -0.9204183220863342 244 137 71
0.1938580721616745 -0.4762210249900818 -0.8576902747154236 244 138 71
0.5258553624153137 -0.5143758654594421 -0.6774168610572815 245 139 70
0.6577748656272888 0.11004307866096497 -0.7451326847076416 245 141 69
0.0457066111266613 -0.3345131576061249 -0.9412820339202881 245 141 69
0.25234857201576233 -0.3779299855232239 -0.8907800912857056 245 141 69
0.19217590987682343 -0.46191173791885376 -0.8658555746078491 245 141 69
0.2952840030193329 -0.4882033169269562 -0.8212580680847168 246 142 68
0.16929636895656586 -0.5457388162612915 -0.820675253868103 246 143 67
0.25806042551994324 -0.560998797416687 -0.7865654230117798 246 145 66
0.03297678008675575 -0.5403851270675659 -0.8407713174819946 247 146 65
-0.3211498558521271 -0.5318338871002197 -0.7835913896560669 247 146 65
-0.13918441534042358 -0.674570620059967 -0.7249704003334045 247 146 65
0.006190700922161341 -0.5310810208320618 -0.8472984433174133 246 145 66
0.21362796425819397 -0.5614376664161682 -0.7994690537452698 246 143 67
0.2413024604320526 -0.6327314972877502 -0.735815167427063 246 143 67
-0.30588218569755554 -0.6088144183158875 -0.7319707274436951 246 143 67
0.2638838589191437 -0.6384997963905334 -0.722968339920044 246 145 66
-0.18542933464050293 -0.29768145084381104 -0.9364836812019348 247 146 65
-0.4598812758922577 -0.2601870000362396 -0.8490064740180969 245 141 69
-0.06304100155830383 0.9310818314552307 -0.3593222200870514 242 133 74
0.12200938165187836 0.9879046082496643 0.09569799154996872 242 132 75
0.13453347980976105 0.983997642993927 0.11683042347431183 242 133 74
0.13453347980976105 0.983997642993927 0.11683042347431183 243 134 73
0.13453347980976105 0.983997642993927 0.11683042347431183 244 138 71
0.13453347980976105 0.983997642993927 0.11683042347431183 244 138 71
0.13453347980976105 0.983997642993927 0.11683042347431183 243 134 73
0.13453347980976105 0.983997642993927 0.11683042347431183 244 137 71
0.13453347980976105 0.983997642993927 0.11683042347431183 245 139 70
0.13453347980976105 0.983997642993927 0.11683042347431183 245 139 70
0.13453347980976105 0.983997642993927 0.11683042347431183 244 138 71
0.13453347980976105 0.983997642993927 0.11683042347431183 244 138 71
0.13453347980976105 0.983997642993927 0.11683042347431183 243 134 73
0.13453347980976105 0.983997642993927 0.11683042347431183 243 134 73
-0.6632119417190552 0.7209606766700745 -0.20091190934181213 244 137 71
-0.9178938865661621 -0.09353843331336975 -0.38564401865005493 244 138 71
-0.9247228503227234 -0.29667115211486816 -0.23848271369934082 244 138 71
-0.8575460910797119 -0.4493968188762665 -0.250314325094223 244 138 71
-0.7220332026481628 -0.42843520641326904 -0.5432415008544922 246 145 66
-0.7228819727897644 -0.495835542678833 -0.4812367260456085 244 138 71
-0.6124499440193176 -0.6364330649375916 -0.4688901901245117 243 135 72
-0.7029411792755127 -0.5860900282859802 -0.40295425057411194 243 135 72
-0.5826364159584045 -0.799081027507782 -0.1483386605978012 243 135 72
-0.35174432396888733 -0.9354450106620789 0.03490842506289482 243 135 72
-0.2929205298423767 -0.95598304271698 0.017147250473499298 243 134 73
-0.15064331889152527 -0.9498093724250793 -0.27416902780532837 243 135 72
0.005896836053580046 -0.9580173492431641 -0.2866497337818146 243 135 72
-0.06759661436080933 -0.9722651243209839 -0.22390004992485046 243 135 72
0.012022441253066063 -0.9953629970550537 -0.09543561190366745 243 134 73
-0.2980811595916748 -0.9256798624992371 -0.2329472303390503 243 135 72
-0.7408527135848999 0.10321933776140213 -0.6636890172958374 243 135 72
0.08447208255529404 0.9920713901519775 0.09305234253406525 243 134 73
0.13453347980976105 0.983997642993927 0.11683042347431183 243 134 73
0.0014681651955470443 0.9986464381217957 0.05199301242828369 243 134 73
-0.48870527744293213 0.7732529640197754 -0.4040383994579315 243 134 73
0.91873699426651 0.12077238410711288 -0.3759472370147705 243 134 73
0.9659274816513062 -0.24626725912094116 -0.07960247248411179 242 133 74
0.5138773322105408 -0.13832177221775055 -0.8466387391090393 243 134 73
0.4398176968097687 -0.1464816927909851 -0.8860607743263245 242 133 74
0.30891484022140503 -0.1739715188741684 -0.9350430965423584 242 133 74
0.3076569139957428 -0.450777530670166 -0.8379420638084412 241 130 76
0.4362098276615143 -0.08021640032529831 -0.8962624669075012 240 129 77
-0.4664611220359802 0.28701284527778625 -0.8366824984550476 240 128 77
-0.30289337038993835 0.4186061918735504 -0.8561685681343079 240 128 77
-0.3606855571269989 0.6495773196220398 -0.6692945957183838 240 128 77
0.03361408784985542 0.999434769153595 -0.0004645463777706027 240 129 77
0.13453347980976105 0.983997642993927 0.11683042347431183 240 129 77
0.13453347980976105 0.983997642993927 0.11683042347431183 240 129 77
0.13453347980976105 0.983997642993927 0.11683042347431183 240 129 77
0.13453347980976105 0.983997642993927 0.11683042347431183 240 129 77
0.13453347980976105 0.983997642993927 0.11683042347431183 240 129 77
0.13453347980976105 0.983997642993927 0.11683042347431183 240 129 77
0.13453347980976105 0.983997642993927 0.11683042347431183 241 130 76
0.13453347980976105 0.983997642993927 0.11683042347431183 241 130 76
0.13453347980976105 0.983997642993927 0.11683042347431183 241 130 76
0.13453347980976105 0.983997642993927 0.11683042347431183 241 130 76
0.13453347980976105 0.983997642993927 0.11683042347431183 241 130 76
0.16156835854053497 0.9862260818481445 0.03540775552392006 241 130 76
0.7975267171859741 0.4881962537765503 -0.35442280769348145 241 130 76
0.9516362547874451 -0.01650465466082096 -0.3067835569381714 241 130 76
0.8608245849609375 -0.06682294607162476 -0.5044955015182495 239 125 79
0.8560268878936768 -0.0031054294668138027 -0.516922116279602 237 121 82
0.8638494610786438 -0.057550422847270966 -0.5004518032073975 234 116 85
0.8451730012893677 -0.12322411686182022 -0.5200945734977722 234 115 86
0.7049668431282043 0.2268308699131012 -0.6719892621040344 234 115 86
0.3522913157939911 0.7756986021995544 -0.5236243605613708 234 115 86
0.11876149475574493 0.9928293824195862 0.01362129021435976 234 116 85
-0.2078963965177536 0.9113280177116394 -0.35533130168914795 235 118 84
-0.5127684473991394 0.2593943774700165 -0.8184027671813965 235 118 84
-0.24506644904613495 0.09989519417285919 -0.9643461108207703 236 119 84
-0.23374125361442566 -0.05460139364004135 -0.9707645177841187 236 119 84
-0.043044742196798325 -0.06508129835128784 -0.996951162815094 234 116 85
-0.20409469306468964 -0.03503487631678581 -0.9783240556716919 232 112 89
-0.233944833278656 -0.13761140406131744 -0.9624618887901306 232 112 89
-0.30017930269241333 -0.20392316579818726 -0.9318303465843201 232 113 88
-0.3159589469432831 -0.0907873660326004 -0.9444191455841064 232 113 88
-0.293460488319397 -0.0945822149515152 -0.9512807726860046 232 112 89
0.0907348245382309 -0.09444468468427658 -0.9913865923881531 236 119 84
0.061512622982263565 -0.028313804417848587 -0.9977046847343445 239 126 78
0.21624216437339783 0.05303086340427399 -0.9748984575271606 242 132 75
0.15478579699993134 -0.005483535584062338 -0.9879328012466431 244 138 71
0.15501895546913147 -0.05967545509338379 -0.9861075282096863 244 138 71
0.10497067868709564 -0.03798142448067665 -0.993749737739563 244 138 71
0.011246936395764351 -0.12229626625776291 -0.9924299120903015 245 139 70
0.03100437857210636 -0.27175673842430115 -0.9618663787841797 245 139 70
0.054067689925432205 -0.08950172364711761 -0.9945180416107178 245 139 70
0.04652009159326553 -0.28701695799827576 -0.9567952156066895 246 143 67
0.08812479674816132 -0.2536219358444214 -0.9632808566093445 246 143 67
0.08419501781463623 -0.23004329204559326 -0.9695314764976501 246 143 67
0.09069941937923431 -0.34168875217437744 -0.9354263544082642 246 143 67
0.2869734764099121 -0.27201610803604126 -0.9185060858726501 244 138 71
0.22213006019592285 -0.21718591451644897 -0.9505201578140259 246 142 68
0.24347306787967682 -0.23271261155605316 -0.9415761828422546 247 146 65
-0.001371469465084374 -0.28277185559272766 -0.9591862559318542 247 147 65
-0.033348605036735535 -0.34129828214645386 -0.9393632411956787 247 146 65
0.017448751255869865 -0.3204745948314667 -0.9470964074134827 248 150 63
-0.3657728135585785 -0.17210008203983307 -0.9146538972854614 248 152 62
-0.2560945749282837 -0.015788991004228592 -0.9665228128433228 248 152 62
-0.024298015981912613 -0.2745676040649414 -0.9612607955932617 248 150 63
-0.3253413438796997 -0.33875197172164917 -0.8828364014625549 248 150 63
-0.34071293473243713 -0.3697972893714905 -0.8643869161605835 246 145 66
-0.25041791796684265 -0.44399917125701904 -0.8603229522705078 245 141 69
-0.30419912934303284 -0.41145697236061096 -0.8591659665107727 240 129 77
-0.4090863764286041 -0.40287140011787415 -0.8187447190284729 232 113 88
-0.32977625727653503 -0.25665032863616943 -0.9085032343864441 227 104 94
-0.2956395149230957 -0.3020945191383362 -0.9062759876251221 221 95 101
-0.3499584496021271 -0.25173282623291016 -0.9023079872131348 211 81 111
-0.3082771599292755 -0.23032870888710022 -0.9229917526245117 201 69 121
-0.42883792519569397 0.04160482808947563 -0.9024229049682617 206 74 117
-0.37665167450904846 -0.06892095506191254 -0.923787534236908 210 80 112
-0.4941686987876892 0.28584519028663635 -0.8210297226905823 208 77 115
-0.10030469298362732 0.9820176959037781 -0.15993821620941162 205 73 117
-0.010366974398493767 0.9648992419242859 -0.26241564750671387 209 78 114
0.3966842591762543 0.8257953524589539 -0.4008786380290985 211 81 111
0.4567331075668335 0.8891650438308716 -0.02793579176068306 214 85 109
0.5487788915634155 0.32989874482154846 -0.7681201696395874 207 75 116
0.582080602645874 0.48137226700782776 -0.6553341746330261 205 73 117
0.35149309039115906 0.6394510865211487 -0.6837798357009888 204 72 118
0.29973888397216797 0.849509060382843 -0.4341554343700409 205 73 117
0.15710610151290894 0.9568563103675842 -0.24442502856254578 206 74 117
0.12425389885902405 0.989229142665863 0.07737381011247635 202 70 120
-0.1696007400751114 0.9854211211204529 -0.01344010978937149 205 73 117
-0.7304864525794983 0.5328419804573059 -0.4271639585494995 207 75 116
-0.7303625345230103 0.3620149791240692 -0.5792372226715088 187 53 134
-0.3310454189777374 0.3269387483596802 -0.8851667046546936 184 50 137
-0.07788906991481781 0.32657474279403687 -0.941956639289856 211 81 111
-0.32850155234336853 0.11207956075668335 -0.9378299117088318 214 85 109
-0.2569260001182556 0.020032156258821487 -0.966223418712616 221 95 101
-0.31805065274238586 -0.07278070598840714 -0.9452760219573975 220 93 102
-0.19118410348892212 -0.13239005208015442 -0.9725849032402039 221 95 101
0.037809282541275024 -0.14219918847084045 -0.9891157746315002 222 96 100
0.07316653430461884 -0.11676569283008575 -0.9904607534408569 222 96 100
-0.0044211759231984615 -0.17724023759365082 -0.9841576814651489 224 100 97
0.08763527125120163 -0.199746772646904 -0.9759207367897034 226 102 96
0.1109892949461937 -0.2566051781177521 -0.9601225256919861 227 104 94
-0.005147387273609638 -0.38358569145202637 -0.9234909415245056 231 110 90
0.1696685552597046 -0.3168977200984955 -0.9331604242324829 233 114 87
0.09283873438835144 -0.4527401328086853 -0.8867960572242737 235 118 84
0.11697012186050415 -0.21140269935131073 -0.9703746438026428 237 121 82
-0.025727907195687294 -0.15687604248523712 -0.9872831702232361 237 123 81
-0.0003256250056438148 -0.21432198584079742 -0.9767630696296692 238 124 80
0.02522481605410576 -0.12270362675189972 -0.9921227693557739 237 121 82
0.08005566149950027 -0.2147745043039322 -0.9733771085739136 234 116 85
0.07631155848503113 -0.034485746175050735 -0.9964874982833862 232 113 88
-0.11430198699235916 0.03536294028162956 -0.9928163886070251 230 109 90
-0.16292187571525574 0.032118313014507294 -0.9861160516738892 229 107 92
-0.15934699773788452 -0.19387273490428925 -0.9679989814758301 227 104 94
-0.2963040769100189 -0.15360434353351593 -0.942660927772522 227 103 95
-0.2620229721069336 0.3685130178928375 -0.8919317126274109 227 103 95
0.11405470222234726 0.4984396696090698 -0.8593890070915222 226 102 96
0.25432729721069336 0.2900359630584717 -0.9226032495498657 226 102 96
0.11836790293455124 0.17978833615779877 -0.9765578508377075 227 103 95
0.08711749315261841 0.02906138077378273 -0.9957740306854248 227 103 95
0.18607231974601746 -0.13517576456069946 -0.9731929898262024 227 104 94
0.13858744502067566 -0.07608092576265335 -0.9874235391616821 228 106 93
0.03362708538770676 -0.05078986659646034 -0.9981430768966675 228 106 93
0.23942379653453827 -0.12901106476783752 -0.9623057842254639 227 104 94
0.26972779631614685 -0.3489026725292206 -0.8975042104721069 228 106 93
0.5528768301010132 -0.2328382432460785 -0.8000710010528564 229 107 92
0.107596255838871 0.8122209906578064 -0.5733411312103271 228 106 93
0.11976532638072968 0.9902715682983398 0.07084088027477264 228 106 93
0.13453347980976105 0.983997642993927 0.11683042347431183 228 106 93
0.214390829205513 0.9754955172538757 0.04944856837391853 227 104 94
0.19773729145526886 0.42647585272789 -0.8826201558113098 226 102 96
0.1313541680574417 -0.014111736789345741 -0.991235077381134 224 100 97
0.1517641395330429 -0.024086875841021538 -0.9881231784820557 223 98 98
0.28379327058792114 -0.027535639703273773 -0.9584900736808777 223 98 98
0.40843626856803894 -0.039202868938446045 -0.911944568157196 222 96 100
0.3504309356212616 -0.05876801908016205 -0.9347429871559143 222 96 100
0.12922029197216034 -0.14164245128631592 -0.981447696685791 223 97 99
-0.0733579769730568 -0.10119260102510452 -0.9921585321426392 224 100 97
-0.29256942868232727 0.0848659947514534 -0.9524708986282349 224 100 97
-0.44314903020858765 0.22583144903182983 -0.8675362467765808 224 100 97
-0.2217196226119995 0.30466777086257935 -0.9262925386428833 223 98 98
-0.3514600396156311 0.5159416794776917 -0.7812042236328125 224 100 97
-0.07367678731679916 0.9963618516921997 -0.042834170162677765 225 101 96
0.049989331513643265 0.9073308110237122 0.4174349308013916 225 101 96
-0.08466720581054688 0.5360342860221863 0.8399397730827332 225 101 96
-0.5312198400497437 0.5277062058448792 0.6628209948539734 227 103 95
-0.39084455370903015 0.8726219534873962 -0.2928676903247833 228 106 93
0.06057818979024887 0.40683066844940186 -0.9114927649497986 229 108 91
0.18566754460334778 0.35504016280174255 -0.916228175163269 230 109 90
0.3497626781463623 0.3305283784866333 -0.8765940070152283 232 112 89
0.24811148643493652 0.2862949073314667 -0.9254598617553711 232 113 88
0.3309614360332489 0.26829448342323303 -0.9047003388404846 232 113 88
0.2041987180709839 0.34983372688293457 -0.914286196231842 232 112 89
0.0013170500751584768 0.5115984082221985 -0.8592236638069153 231 110 90
-0.04344408959150314 0.9264706969261169 -0.3738512098789215 230 109 90
0.09807122498750687 0.9936610460281372 0.05495230108499527 229 108 91
0.09493556618690491 0.9907733798027039 0.09672404080629349 229 107 92
-0.3894657492637634 0.8337706327438354 -0.39133480191230774 228 106 93
-0.4836379885673523 0.2206888347864151 -0.8469892144203186 228 106 93
-0.21511901915073395 0.13372105360031128 -0.9673895239830017 226 102 96
-0.2616698741912842 -0.05760256573557854 -0.963437020778656 223 98 98
-0.1785368025302887 -0.05966513603925705 -0.982122540473938 223 98 98
-0.24443471431732178 0.0009095795685425401 -0.9696653485298157 225 101 96
-0.21088147163391113 -0.02851627953350544 -0.9770956039428711 227 104 94
-0.4796387851238251 0.048990510404109955 -0.8760973811149597 229 108 91
-0.7849375009536743 0.08103352785110474 -0.6142529249191284 231 110 90
-0.9624772667884827 -0.17403487861156464 -0.20820558071136475 231 110 90
-0.8482506275177002 0.11131894588470459 0.5177634358406067 230 109 90
-0.7366611361503601 0.16072888672351837 0.656883955001831 230 109 90
-0.7771427631378174 0.16877064108848572 0.6062718629837036 230 109 90
-0.7736524343490601 0.16740499436855316 0.6110953092575073 230 109 90
-0.79799884557724 0.2542867958545685 0.5463845729827881 230 109 90
-0.6393298506736755 0.4274774193763733 0.639155924320221 229 108 91
0.7345829010009766 -0.029856109991669655 0.6778618097305298 227 104 94
0.9160876274108887 -0.4002312421798706 0.024462157860398293 225 101 96
0.9200006127357483 0.39173075556755066 0.012079552747309208 224 100 97
0.8685140609741211 0.2716892659664154 -0.4145699441432953 224 100 97
0.7778844237327576 -0.15981100499629974 -0.6077470183372498 226 102 96
0.13147041201591492 -0.0786546990275383 -0.9881947636604309 227 103 95
0.23346494138240814 -0.18332673609256744 -0.9549268484115601 228 106 93
0.3365117609500885 -0.10478438436985016 -0.9358312487602234 230 109 90
0.5317561626434326 0.11985871940851212 -0.8383730053901672 232 113 88
0.7182577252388 0.2629741430282593 -0.6441663503646851 234 116 85
0.33139801025390625 0.25123125314712524 -0.9094274044036865 236 119 84
-0.03204254060983658 0.10726191848516464 -0.9937143325805664 237 121 82
-0.12886382639408112 -0.0447431318461895 -0.9906523823738098 237 123 81
-0.9408754110336304 -0.11257591098546982 -0.319499671459198 237 121 82
-0.8918947577476501 0.31748470664024353 -0.32206693291664124 235 118 84
-0.8141143918037415 -0.18421317636966705 -0.5507115721702576 234 116 85
-0.67106032371521 0.3172864019870758 -0.6700801849365234 234 116 85
-0.6817034482955933 0.2769922614097595 -0.6771673560142517 234 116 85
-0.2535248398780823 0.24660998582839966 -0.9353655576705933 234 116 85
-0.3141592741012573 0.07649077475070953 -0.9462838172912598 234 116 85
-0.36054137349128723 0.08024135231971741 -0.9292853474617004 233 114 87
-0.21379072964191437 -0.10690390318632126 -0.9710123538970947 230 109 90
-0.1961784064769745 0.001722247339785099 -0.9805667400360107 229 107 92
-0.03757159039378166 -0.06370669603347778 -0.997261106967926 225 101 96
-0.3874562680721283 0.011574424803256989 -0.9218153953552246 224 100 97
-0.5059977173805237 -0.011726941913366318 -0.8624551296234131 225 101 96
-0.6635354161262512 -0.03188184276223183 -0.7474652528762817 226 102 96
-0.7160117030143738 -0.04462551698088646 -0.6966604590415955 226 102 96
-0.6232985854148865 0.025769677013158798 -0.78155916929245 226 102 96
-0.3602491319179535 -0.11414311826229095 -0.9258465766906738 227 103 95
-0.01716463454067707 -0.14588087797164917 -0.989153265953064 227 104 94
0.3341725468635559 -0.09365539997816086 -0.9378471970558167 229 108 91
0.43437460064888 0.06774958223104477 -0.8981807231903076 232 113 88
0.3384137451648712 -0.25458812713623047 -0.9059033989906311 234 116 85
0.5168562531471252 0.05010261759161949 -0.8546047806739807 237 121 82
0.6012991666793823 0.020729845389723778 -0.7987550497055054 239 126 78
-0.05052017793059349 -0.14683666825294495 -0.9878697395324707 241 130 76
0.14768168330192566 0.015834327787160873 -0.9889082312583923 244 138 71
-0.24117325246334076 -0.060139648616313934 -0.9686169028282166 248 150 63
-0.20988789200782776 -0.21463395655155182 -0.9538759589195251 251 164 54
-0.2555965185165405 -0.1362578421831131 -0.9571333527565002 252 173 49
0.04067876562476158 -0.12140879780054092 -0.9917687177658081 253 192 41
0.06267498433589935 -0.11416517943143845 -0.9914828538894653 253 198 38
-0.12947198748588562 -0.03816218674182892 -0.9908484220504761 253 196 39
-0.1353580802679062 0.10716822743415833 -0.9849838018417358 253 193 40
-0.29567426443099976 -0.2863261103630066 -0.9113693237304688 252 173 49
-0.20842579007148743 -0.3022506535053253 -0.9301630258560181 250 159 58
-0.453694224357605 -0.22380360960960388 -0.8625969886779785 248 150 63
-0.5674018859863281 -0.12007641047239304 -0.8146390318870544 248 149 64
-0.8121667504310608 -0.12150246649980545 -0.5706331133842468 248 149 64
-0.8157656192779541 -0.25292596220970154 -0.5201488137245178 247 147 65
-0.8399945497512817 -0.09368643909692764 -0.5344454646110535 249 154 60
-0.8934571743011475 -0.4025370180606842 -0.1992442011833191 251 162 56
-0.2848263680934906 -0.6713316440582275 -0.6842424869537354 250 159 58
0.05257777124643326 -0.5134873986244202 -0.8564848303794861 251 162 56
0.16872192919254303 -0.35344791412353516 -0.9201127290725708 252 166 53
0.21344615519046783 -0.5052536129951477 -0.8361576795578003 251 164 54
0.3561710715293884 -0.4075703024864197 -0.8408499360084534 252 166 53
0.4518621265888214 -0.3685274124145508 -0.8124089241027832 253 175 49
0.3367115259170532 -0.24490585923194885 -0.9092010259628296 253 185 43
0.03431877866387367 -0.24202154576778412 -0.9696637392044067 253 192 41
-0.21432332694530487 -0.26008373498916626 -0.9414997696876526 253 195 40
-0.11998368799686432 -0.33359014987945557 -0.9350516200065613 253 198 38
-0.03209887817502022 -0.3536536991596222 -0.9348255395889282 252 204 37
-0.09149051457643509 -0.4064749479293823 -0.9090696573257446 251 211 36
0.10967739671468735 -0.3076702058315277 -0.9451507925987244 250 214 36
0.33364248275756836 -0.3197036683559418 -0.8868327140808105 250 216 36
0.44830870628356934 -0.2896585762500763 -0.8456460237503052 249 219 36
0.1821720153093338 -0.3057645857334137 -0.9345166683197021 249 217 36
-0.29667413234710693 -0.146526038646698 -0.9436707496643066 249 219 36
-0.3896610140800476 -0.11776568740606308 -0.9133977890014648 248 221 36
-0.3939465582370758 -0.06919142603874207 -0.9165253043174744 249 217 36
-0.4211792051792145 0.30998337268829346 -0.8523604273796082 250 216 36
-0.6022342443466187 0.43172842264175415 -0.6715090870857239 250 216 36
-0.8993396759033203 0.10300562530755997 -0.42494460940361023 250 213 36
-0.8552281856536865 -0.26219815015792847 -0.447031170129776 251 208 36
-0.8204388618469238 -0.4917179346084595 -0.29170799255371094 252 203 37
-0.8694970607757568 -0.46072766184806824 -0.17805862426757812 253 196 39
-0.7634912729263306 -0.5004428029060364 -0.4082133173942566 253 196 39
-0.8755121827125549 -0.39897820353507996 -0.2725708484649658 252 199 38
-0.8068660497665405 -0.44952619075775146 -0.3832665681838989 252 204 37
-0.8075167536735535 -0.41094377636909485 -0.42313352227211 251 211 36
-0.7336296439170837 -0.4061453640460968 -0.5448242425918579 250 214 36
-0.6996309757232666 -0.3135608434677124 -0.6420248746871948 249 217 36
-0.6555099487304688 -0.20405875146389008 -0.7270947098731995 249 219 36
-0.7109590768814087 -0.19318410754203796 -0.6761782169342041 250 216 36
-0.53256756067276 -0.16731050610542297 -0.8296861052513123 250 216 36
-0.3804492652416229 -0.141968235373497 -0.9138399958610535 249 217 36
-0.3433263897895813 0.05743074417114258 -0.9374586343765259 249 219 36
-0.029179496690630913 0.07074195146560669 -0.9970677495002747 249 219 36
-0.7495973110198975 -0.1254146844148636 -0.6499037742614746 249 219 36
-0.4566822350025177 -0.4249764680862427 -0.7815601229667664 249 217 36
-0.27123668789863586 -0.6277689933776855 -0.7296141982078552 249 217 36
0.07570038735866547 -0.7391337752342224 -0.6692911982536316 249 219 36
-0.06202896684408188 -0.6422930359840393 -0.7639451026916504 248 223 36
-0.029190106317400932 -0.659149706363678 -0.751444935798645 247 224 36
-0.06612614542245865 -0.5655971765518188 -0.8220263123512268 246 228 37
-0.23548607528209686 -0.49509528279304504 -0.8363174796104431 245 233 38
-0.3350304067134857 -0.3492572605609894 -0.875085175037384 243 238 38
-0.37057963013648987 -0.3489881157875061 -0.8607426881790161 242 240 38
-0.2564755380153656 -0.36126866936683655 -0.896496057510376 243 238 38
-0.31981196999549866 -0.38551780581474304 -0.8655034303665161 246 229 37
-0.2810872495174408 -0.3979000151157379 -0.8733072280883789 248 223 36
-0.3725869953632355 -0.33454543352127075 -0.8655970096588135 250 216 36
-0.44195622205734253 -0.4742651879787445 -0.7614113092422485 252 204 37
-0.397080659866333 -0.4498768150806427 -0.7999610900878906 253 195 40
-0.5010761618614197 -0.46417757868766785 -0.7303847074508667 253 190 41
-0.5196346044540405 -0.5281646847724915 -0.6715816259384155 253 179 46
-0.4832788407802582 -0.5828703045845032 -0.6532257199287415 250 160 57
-0.4667585790157318 -0.6737023591995239 -0.5729411244392395 248 150 63
-0.38895195722579956 -0.4715977907180786 -0.7913987636566162 246 143 67
-0.22189684212207794 -0.32658788561820984 -0.9187503457069397 246 142 68
0.07493957877159119 -0.48949775099754333 -0.8687784671783447 243 135 72
0.008584005758166313 -0.40067875385284424 -0.9161784052848816 238 124 80
-0.019489387050271034 -0.08959556370973587 -0.995787501335144 235 118 84
-0.23359011113643646 -0.1133582592010498 -0.9657046794891357 229 108 91
-0.12765872478485107 -0.28540682792663574 -0.9498663544654846 223 97 99
0.08241526037454605 -0.4226168394088745 -0.9025534391403198 214 85 109
0.03571861982345581 -0.35461509227752686 -0.9343298673629761 206 74 117
0.2655142545700073 -0.4115036427974701 -0.8718754649162292 200 68 122
0.4792027473449707 -0.39105507731437683 -0.7857739925384521 192 59 129
0.5442404747009277 -0.43514880537986755 -0.7172501683235168 178 44 142
0.7081872224807739 -0.41977375745773315 -0.5676802396774292 167 33 151
0.6063549518585205 -0.47982048988342285 -0.6341181993484497 149 17 161
0.6111145615577698 -0.37264204025268555 -0.6983386278152466 130 4 167
0.5060778260231018 -0.5594720244407654 -0.6564116477966309 114 0 168
0.5409755706787109 -0.4509427547454834 -0.7099268436431885 100 0 167
0.13096168637275696 -0.6327559947967529 -0.7631964683532715 94 0 165
-0.2089100480079651 -0.693415105342865 -0.6895883679389954 86 1 163
-0.5159440040588379 -0.4444344937801361 -0.7323112487792969 81 1 162
-0.676997721195221 -0.5688918232917786 -0.4669434428215027 78 2 161
-0.33509835600852966 -0.5729755759239197 -0.7479358911514282 79 2 162
-0.5343332290649414 -0.2892533242702484 -0.7942421436309814 79 2 162
-0.2590084969997406 -0.13738305866718292 -0.9560546278953552 73 2 159
-0.056477125734090805 -0.33156612515449524 -0.9417399764060974 66 3 157
-0.1987030953168869 -0.12074638158082962 -0.9725931286811829 63 3 156
-0.2415565550327301 -0.031827714294195175 -0.9698646664619446 64 3 156
-0.32011863589286804 0.5804039835929871 -0.748769223690033 66 3 157
-0.6478735208511353 0.49501723051071167 -0.578980028629303 71 2 159
-0.6298121809959412 0.6854262351989746 -0.3654140830039978 76 2 161
0.045927420258522034 0.10146895796060562 -0.9937779307365417 81 1 162
0.7049298882484436 0.03336669132113457 -0.7084917426109314 81 1 162
0.5992926359176636 -0.09910016506910324 -0.7943723797798157 73 2 159
0.5617631077766418 -0.3799583315849304 -0.7348836064338684 63 3 156
0.7957099080085754 -0.375129759311676 -0.4755244553089142 56 4 153
0.7896525263786316 -0.4593021273612976 -0.4068051874637604 54 4 152
0.5852877497673035 -0.4650513529777527 -0.6642029285430908 51 4 151
-0.005722883157432079 -0.6471257209777832 -0.7623617649078369 43 5 148
0.2413138747215271 -0.6902363300323486 -0.6821593642234802 43 5 148
-0.3004859685897827 -0.4176384508609772 -0.8574883937835693 45 4 148
-0.6283101439476013 -0.3003534972667694 -0.7176448106765747 56 4 153
-0.6201820373535156 -0.19613757729530334 -0.7595421671867371 69 3 158
-0.5309774279594421 -0.17377245426177979 -0.8293769359588623 79 2 162
-0.21565504372119904 -0.2943692207336426 -0.9310422539710999 76 2 161
-0.13062535226345062 -0.08034326881170273 -0.9881710410118103 68 3 158
-0.07877274602651596 -0.1908564269542694 -0.978452205657959 66 3 157
-0.14277485013008118 -0.29085275530815125 -0.946054995059967 78 2 161
-0.13766007125377655 -0.30511748790740967 -0.9423125982284546 92 0 165
-0.12649473547935486 -0.29218435287475586 -0.9479596614837646 101 0 167
-0.23894020915031433 0.12282786518335342 -0.9632346034049988 117 0 168
-0.1089288741350174 0.4421934187412262 -0.8902806043624878 134 7 166
-0.16283519566059113 0.3542526960372925 -0.9208635687828064 149 17 161
-0.2259925901889801 -0.0030891450587660074 -0.9741241335868835 158 25 156
-0.39286136627197266 -0.03043355792760849 -0.9190940260887146 167 33 151
-0.10964502394199371 -0.27156519889831543 -0.956153929233551 174 39 145
0.36688095331192017 -0.34638750553131104 -0.8633736968040466 178 44 142
0.5225448608398438 -0.3485257923603058 -0.7781237363815308 183 48 138
0.5457449555397034 -0.3795759379863739 -0.7470505833625793 183 48 138
0.7261950373649597 -0.2962593734264374 -0.6203798055648804 184 50 137
0.6415960788726807 -0.614508867263794 -0.45905694365501404 183 48 138
0.44463542103767395 -0.5731528997421265 0.6883277297019958 181 46 140
0.10347023606300354 -0.21669712662696838 0.970740020275116 178 44 142
-0.3179141581058502 0.27749595046043396 0.90660160779953 178 44 142
-0.6914833784103394 0.2336869239807129 0.6835504770278931 180 45 141
-0.7186541557312012 0.4984159469604492 0.484889417886734 178 44 142
-0.7031692862510681 0.6675769686698914 -0.2447323054075241 177 43 143
0.22342140972614288 0.641477644443512 -0.7338864207267761 175 40 144
-0.13096186518669128 0.2235536426305771 -0.9658534526824951 173 38 146
-0.38562411069869995 -0.2518656849861145 -0.8876135349273682 172 37 147
-0.21034005284309387 -0.24951009452342987 -0.9452522397041321 169 35 149
-0.19802260398864746 -0.2578701376914978 -0.9456691741943359 170 36 148
-0.1708245575428009 -0.23492465913295746 -0.9568852782249451 172 37 147
-0.09913837909698486 -0.20483256876468658 -0.9737634658813477 170 36 148
-0.2602511942386627 -0.14997754991054535 -0.9538217782974243 170 36 148
-0.2160405069589615 -0.3930409252643585 -0.8937814831733704 169 35 149
-0.42779722809791565 -0.314108669757843 -0.8475407361984253 170 36 148
-0.5060920715332031 -0.03733285143971443 -0.8616710901260376 172 37 147
-0.44677606225013733 -0.38018786907196045 -0.8098446130752563 172 37 147
0.7180776596069336 -0.6636781096458435 0.20951314270496368 173 38 146
0.88432377576828 -0.2850317358970642 -0.369767963886261 172 37 147
0.9233234524726868 0.0730646625161171 -0.3770082890987396 172 37 147
0.9316220879554749 -0.07047587633132935 -0.35652971267700195 172 37 147
0.9230159521102905 -0.14955830574035645 -0.35450515151023865 173 38 146
0.7710040211677551 0.02302679419517517 -0.6364138126373291 175 40 144
0.7997312545776367 -0.3098733127117157 -0.51420658826828 178 44 142
0.7560297846794128 0.5527916550636292 -0.3504859209060669 177 43 143
0.17850279808044434 0.9805983304977417 0.0810164362192154 176 42 143
0.13453347980976105 0.983997642993927 0.11683042347431183 175 40 144
0.13453347980976105 0.983997642993927 0.11683042347431183 176 42 143
-0.02937566675245762 0.9995178580284119 -0.01005556434392929 176 42 143
-0.3444063067436218 0.7166659235954285 -0.6064439415931702 176 42 143
-0.05863258242607117 0.6014169454574585 -0.7967809438705444 176 42 143
0.2364998459815979 0.6906414031982422 -0.6834341883659363 175 40 144
0.13500633835792542 0.5737782716751099 -0.8078067898750305 174 39 145
0.29895079135894775 0.42500922083854675 -0.8543978333473206 176 42 143
0.1966443806886673 0.7176856398582458 -0.6680256724357605 175 40 144
0.38843321800231934 0.6040627360343933 -0.6958648562431335 175 40 144
0.5993155241012573 0.5460147261619568 -0.5853962302207947 176 42 143
0.7944727540016174 0.6009448170661926 0.08762688934803009 175 40 144
0.2876039743423462 0.8934023976325989 0.34513187408447266 175 40 144
0.10435786843299866 0.9768122434616089 0.18694166839122772 173 38 146
0.1330152004957199 0.9830394983291626 0.126254603266716 173 38 146
0.13453347980976105 0.983997642993927 0.11683042347431183 175 40 144
-0.02937566675245762 0.9995178580284119 -0.01005556434392929 176 42 143
-0.3444063067436218 0.7166659235954285 -0.6064439415931702 177 43 143
-0.15991471707820892 0.5213871002197266 -0.838202178478241 176 42 143
0.032114215195178986 0.5083472728729248 -0.8605532050132751 175 40 144
0.10288795083761215 0.48353689908981323 -0.8692560195922852 175 40 144
0.23414164781570435 0.5103977918624878 -0.8274489641189575 175 40 144
0.07567495852708817 0.6801203489303589 -0.7291842103004456 175 40 144
-0.028564434498548508 0.35010600090026855 -0.9362744688987732 175 40 144
-0.24513249099254608 0.722804069519043 -0.6461148262023926 176 42 143
-0.2402808666229248 0.5684662461280823 -0.7868361473083496 178 44 142
-0.09179601818323135 0.9587231278419495 -0.26911601424217224 176 42 143
0.09646520018577576 0.9934335947036743 0.06151559203863144 176 42 143
0.13453347980976105 0.983997642993927 0.11683042347431183 176 42 143
0.13453347980976105 0.983997642993927 0.11683042347431183 176 42 143
-0.02937566675245762 0.9995178580284119 -0.01005556434392929 176 42 143
-0.3444063067436218 0.7166659235954285 -0.6064439415931702 176 42 143
-0.05863258242607117 0.6014169454574585 -0.7967809438705444 176 42 143
0.15343201160430908 0.6163000464439392 -0.7724201083183289 176 42 143
-0.16451667249202728 -0.05141761153936386 -0.9850332736968994 175 40 144
