ply
format ascii 1.0
element vertex 676
property float x
property float y
property float z
property uchar red
property uchar green
property uchar blue
end_header
0.14865520596504211 -0.06700167059898376 0.27025267481803894 250 160 57
0.09776867926120758 -0.009399297647178173 0.2646118700504303 250 160 57
0.07882364094257355 0.00760205602273345 0.2803229093551636 252 167 53
0.04149956628680229 0.01871933788061142 0.2666599750518799 252 172 50
0.028481272980570793 0.005851389840245247 0.27862343192100525 252 173 49
0.0325348787009716 0.00519234174862504 0.27756115794181824 252 166 53
0.06333304196596146 -0.03934471309185028 0.2715730369091034 250 156 59
0.09166734665632248 -0.05202704668045044 0.29513105750083923 248 152 62
0.11027365177869797 -0.08360970765352249 0.2639618217945099 248 152 62
0.14790520071983337 -0.1199922114610672 0.2838217318058014 249 154 60
0.17952103912830353 -0.15539225935935974 0.2559936046600342 250 160 57
0.2247180938720703 -0.22740991413593292 0.22442738711833954 251 164 54
0.22670809924602509 -0.2368634045124054 0.24874810874462128 252 167 53
0.19520337879657745 -0.18941287696361542 0.2655707001686096 250 159 58
0.19915923476219177 -0.13683931529521942 0.26151737570762634 250 156 59
0.22499583661556244 -0.1473042368888855 0.25953853130340576 248 149 64
0.23379971086978912 -0.14232154190540314 0.25672462582588196 246 143 67
0.2349776029586792 -0.18063253164291382 0.25797539949417114 246 143 67
0.2419588416814804 -0.17297488451004028 0.245461106300354 246 143 67
0.2565850615501404 -0.15540239214897156 0.22444091737270355 246 145 66
0.2811896800994873 -0.1590079814195633 0.22539110481739044 247 146 65
0.2495628297328949 -0.17308475077152252 0.23139674961566925 246 145 66
0.24253351986408234 -0.20678366720676422 0.22833062708377838 247 146 65
0.2556041181087494 -0.20443646609783173 0.23001529276371002 246 143 67
0.25179776549339294 -0.18508431315422058 0.24788029491901398 247 147 65
0.23795896768569946 -0.1774323731660843 0.24258360266685486 247 146 65
0.23703432083129883 -0.1715320646762848 0.24803239107131958 247 146 65
0.20979808270931244 -0.15467017889022827 0.23338595032691956 246 143 67
0.17101317644119263 -0.1460685431957245 0.22254084050655365 246 143 67
0.18414761126041412 -0.12332890927791595 0.2289457619190216 246 143 67
0.16559098660945892 -0.13437141478061676 0.23817603290081024 246 142 68
0.18101181089878082 -0.09162704646587372 0.27954328060150146 243 134 73
0.16730652749538422 -0.0961521789431572 0.2657299041748047 240 129 77
0.1489727646112442 -0.08033276349306107 0.26983940601348877 236 119 84
0.1257745772600174 -0.0772368460893631 0.2747316360473633 234 116 85
0.09987437725067139 -0.04972337558865547 0.27134472131729126 237 123 81
0.09056223928928375 0.0028224915731698275 0.28738412261009216 239 125 79
0.06276395916938782 0.030192231759428978 0.2828275263309479 235 118 84
0.03523104265332222 0.002504038857296109 0.29259517788887024 225 101 96
0.07359585911035538 0.014690850861370564 0.2792547941207886 217 89 105
0.08087615668773651 0.03103736974298954 0.2945566177368164 209 79 113
0.05575942248106003 0.03632735833525658 0.2958409786224365 199 66 123
0.07433865964412689 0.07145227491855621 0.2772766053676605 189 55 132
0.06778638064861298 0.057415224611759186 0.2672603130340576 181 46 140
0.07350987195968628 0.06672020256519318 0.27599358558654785 186 52 135
0.09956541657447815 0.019075075164437294 0.28761085867881775 189 55 132
0.13234050571918488 0.0038580067921429873 0.30893993377685547 192 59 129
0.1780286729335785 -0.04664669185876846 0.28143787384033203 199 66 123
0.21203862130641937 -0.060891442000865936 0.28398287296295166 233 114 87
0.2017584890127182 -0.03480256721377373 0.30337533354759216 191 57 130
0.147725448012352 -0.01786557398736477 0.2971656918525696 189 55 132
0.11265499889850616 0.006932555697858334 0.3042694628238678 184 50 137
0.10257109999656677 0.04710850119590759 0.3100928068161011 181 46 140
0.07851652801036835 0.03109479323029518 0.31863611936569214 181 46 140
0.08178909868001938 0.0697418600320816 0.33013731241226196 178 44 142
0.020238833501935005 0.09473615884780884 0.32629087567329407 186 52 135
0.031464654952287674 0.07243760675191879 0.31770622730255127 198 65 124
0.05290277674794197 0.05723241716623306 0.3313135802745819 208 77 115
0.05461641028523445 0.038494475185871124 0.3344835937023163 208 77 115
0.07707890123128891 0.062404707074165344 0.3196752667427063 205 73 117
0.07090963423252106 0.07900858670473099 0.31408292055130005 208 77 115
0.07617192715406418 0.07132655382156372 0.31969359517097473 203 71 119
0.06786025315523148 0.07799331843852997 0.30418044328689575 195 62 127
0.05483568459749222 0.08119557797908783 0.32770779728889465 190 56 131
0.020859189331531525 0.11638667434453964 0.3197353780269623 188 54 133
-0.044499531388282776 0.13742774724960327 0.3025232255458832 185 51 136
-0.08305766433477402 0.16133920848369598 0.3189310133457184 181 46 140
-0.13433705270290375 0.16235710680484772 0.3140285015106201 177 43 143
-0.1110088974237442 0.15924882888793945 0.31901779770851135 180 45 141
-0.09443282335996628 0.14478202164173126 0.3045384883880615 175 40 144
-0.08907311409711838 0.1290496587753296 0.29202625155448914 174 39 145
-0.05740413814783096 0.1279529482126236 0.30840787291526794 182 47 139
-0.0634198859333992 0.16460640728473663 0.31180548667907715 195 62 127
-0.07624833285808563 0.20400278270244598 0.3282971680164337 198 65 124
-0.13482902944087982 0.22033877670764923 0.30504104495048523 199 66 123
-0.1592867076396942 0.2395024597644806 0.30766308307647705 203 71 119
-0.16997358202934265 0.24653272330760956 0.3088357150554657 209 78 114
-0.1585097759962082 0.25236067175865173 0.3202526867389679 206 74 117
-0.15032730996608734 0.23467092216014862 0.31994545459747314 204 72 118
-0.16106218099594116 0.2583181858062744 0.3178209066390991 207 75 116
-0.15993012487888336 0.24364185333251953 0.32285958528518677 220 93 102
-0.14824995398521423 0.2134041041135788 0.31689515709877014 217 89 105
-0.11948858201503754 0.20279739797115326 0.32548800110816956 229 107 92
-0.14684318006038666 0.2061159610748291 0.30768388509750366 232 113 88
-0.11993936449289322 0.22541865706443787 0.3104569911956787 234 116 85
-0.11420395970344543 0.207877516746521 0.29716163873672485 239 125 79
-0.08554019778966904 0.1788659542798996 0.2886437773704529 240 128 77
-0.07760809361934662 0.14882300794124603 0.29787009954452515 236 119 84
-0.09296403080224991 0.128440260887146 0.3006456792354584 234 115 86
-0.09182815253734589 0.15846729278564453 0.2683575451374054 235 118 84
-0.07859420776367188 0.1485346406698227 0.27952298521995544 234 115 86
-0.07295513153076172 0.11677192151546478 0.28384506702423096 229 108 91
-0.04294753447175026 0.08927169442176819 0.2710670828819275 215 86 108
-0.010855521075427532 0.07698459178209305 0.2763862609863281 205 73 117
-0.007189551834017038 0.09074430167675018 0.2743930220603943 208 77 115
-0.027597548440098763 0.0845721885561943 0.2897399365901947 209 78 114
-0.03015785664319992 0.05501700937747955 0.27876099944114685 207 75 116
-0.0030636880546808243 0.05260319635272026 0.28253430128097534 207 75 116
0.003184868488460779 0.04787309467792511 0.2872939705848694 206 74 117
-0.008900661952793598 0.06247639283537865 0.28787070512771606 199 66 123
-0.0156873669475317 0.071745365858078 0.28887274861335754 193 60 128
-0.03950618952512741 0.09665520489215851 0.31702354550361633 198 65 124
-0.024463195353746414 0.08879077434539795 0.3207191526889801 197 64 125
-0.005636661313474178 0.07730942964553833 0.3272300064563751 194 61 128
0.009856794960796833 0.07361113280057907 0.31466588377952576 191 57 130
0.03534000739455223 0.055646322667598724 0.31151342391967773 188 54 133
0.037110548466444016 0.04457898437976837 0.30688950419425964 182 47 139
0.023817285895347595 0.010240260511636734 0.2964590787887573 167 33 151
0.04654034599661827 0.009480093605816364 0.3081565797328949 162 28 154
0.03204261511564255 0.023015938699245453 0.2933545410633087 163 29 153
0.025889907032251358 0.0229654498398304 0.2968517541885376 164 30 152
0.02779228426516056 0.028264425694942474 0.28700003027915955 174 39 145
0.030478861182928085 0.06336399912834167 0.30543607473373413 180 45 141
0.02275709994137287 0.07990174740552902 0.3027913570404053 180 45 141
0.023021019995212555 0.08570369333028793 0.319608211517334 176 42 143
0.020527947694063187 0.09011656790971756 0.31608012318611145 186 52 135
-0.003421132918447256 0.12392081320285797 0.31537991762161255 199 66 123
-0.026472721248865128 0.12086159735918045 0.30491915345191956 213 83 109
-0.03485250473022461 0.1367635577917099 0.3134135603904724 223 98 98
-0.04411652311682701 0.13850563764572144 0.3149152100086212 234 115 86
-0.02826010249555111 0.14184130728244781 0.32529059052467346 249 153 61
-0.020503774285316467 0.11968176066875458 0.32779744267463684 253 176 48
-0.0045317839831113815 0.0989958792924881 0.32170218229293823 252 167 53
0.030392592772841454 0.07337205857038498 0.32873064279556274 253 181 45
0.062104977667331696 0.055549588054418564 0.33241111040115356 252 199 38
0.09654025733470917 0.021664701402187347 0.3302675187587738 244 234 38
0.13303154706954956 -0.0038644797168672085 0.33437857031822205 244 234 38
0.1572452187538147 -0.038214921951293945 0.30398285388946533 253 187 43
0.18152694404125214 -0.07754399627447128 0.3240216076374054 246 145 66
0.17647002637386322 -0.09303399920463562 0.3321170508861542 229 108 91
0.16462208330631256 -0.10271420329809189 0.29175442457199097 213 83 109
0.16052056849002838 -0.09814085066318512 0.3009416460990906 215 87 107
0.1515064835548401 -0.13986554741859436 0.2900404930114746 211 81 111
0.1941804736852646 -0.1346171796321869 0.2914924919605255 213 83 109
0.23573733866214752 -0.16938135027885437 0.27522242069244385 223 98 98
0.2547711133956909 -0.22090069949626923 0.271553635597229 216 88 106
0.3047066628932953 -0.21815447509288788 0.24723374843597412 227 103 95
0.29564327001571655 -0.22071677446365356 0.22054174542427063 224 100 97
0.29766735434532166 -0.21879766881465912 0.19939659535884857 226 102 96
0.3147791624069214 -0.22680719196796417 0.17179438471794128 224 100 97
0.31795910000801086 -0.2650981843471527 0.16170711815357208 234 116 85
0.34119001030921936 -0.2631247043609619 0.13164329528808594 226 102 96
0.33786430954933167 -0.25049152970314026 0.09853634238243103 211 81 111
0.328702449798584 -0.2651347815990448 0.07314256578683853 184 50 137
0.3063986301422119 -0.2488323152065277 0.07024837285280228 184 50 137
0.3096775412559509 -0.24265900254249573 0.060068074613809586 168 34 150
0.30825531482696533 -0.2595188021659851 0.05658012256026268 142 12 164
0.307923287153244 -0.2533922791481018 0.036495935171842575 124 2 167
0.2854427695274353 -0.23886911571025848 0.021008482202887535 127 3 167
0.28123003244400024 -0.25194627046585083 0.003921525087207556 140 10 164
0.28931230306625366 -0.23550498485565186 0.007724621333181858 139 9 164
0.2872653305530548 -0.21424534916877747 0.005220790393650532 130 4 167
0.2758985161781311 -0.20195619761943817 0.0005318103940226138 109 0 168
0.2678762376308441 -0.20436111092567444 0.00902574323117733 90 0 165
0.26247841119766235 -0.1927674114704132 0.010020785965025425 76 2 161
0.2546525001525879 -0.17436930537223816 -0.00880716647952795 68 3 158
0.24358026683330536 -0.16697530448436737 -0.015829913318157196 52 4 152
0.2228894978761673 -0.1708354651927948 -0.02082202211022377 29 6 141
0.22224019467830658 -0.16337482631206512 -0.0313887894153595 16 7 135
0.21249210834503174 -0.15456683933734894 -0.039689257740974426 43 5 148
0.20832131803035736 -0.16095668077468872 -0.04023168236017227 61 3 155
0.20753006637096405 -0.1550852209329605 -0.03461908921599388 58 4 154
0.20510680973529816 -0.14733627438545227 -0.036800555884838104 63 3 156
0.19628646969795227 -0.13959573209285736 -0.039651475846767426 69 3 158
0.18141315877437592 -0.14053286612033844 -0.03885338082909584 74 2 160
0.18655405938625336 -0.1343051791191101 -0.03446109592914581 84 1 163
0.18443749845027924 -0.1353902518749237 -0.042007237672805786 94 0 165
0.17931340634822845 -0.13241131603717804 -0.045075301080942154 103 0 167
0.18465420603752136 -0.13759863376617432 -0.055322181433439255 112 0 168
0.16999825835227966 -0.13660241663455963 -0.06248057633638382 115 0 168
0.1753890961408615 -0.13844101130962372 -0.06475558131933212 117 0 168
0.18061216175556183 -0.1427866369485855 -0.07008591294288635 118 1 168
0.18461988866329193 -0.13829660415649414 -0.06310299038887024 118 1 168
0.18093493580818176 -0.14478439092636108 -0.062023527920246124 115 0 168
0.18569892644882202 -0.13924172520637512 -0.06223370507359505 118 1 168
0.1802484542131424 -0.13833865523338318 -0.06885263323783875 118 1 168
0.1782456487417221 -0.13151223957538605 -0.06760064512491226 120 1 168
0.17288953065872192 -0.12627013027668 -0.06716159731149673 120 1 168
0.17953695356845856 -0.12346484512090683 -0.06252361088991165 118 1 168
0.18111559748649597 -0.1284400075674057 -0.06649869680404663 115 0 168
0.1848478764295578 -0.13050289452075958 -0.07442005723714828 115 0 168
0.18363527953624725 -0.13469594717025757 -0.07739844173192978 118 1 168
0.17731285095214844 -0.14473795890808105 -0.08767879009246826 118 1 168
0.1874595284461975 -0.14642325043678284 -0.07872049510478973 117 0 168
0.18497949838638306 -0.14931555092334747 -0.08600565046072006 117 0 168
0.18658816814422607 -0.1446458250284195 -0.08750717341899872 115 0 168
0.18409210443496704 -0.14367744326591492 -0.09092649817466736 112 0 168
0.1852022409439087 -0.15034186840057373 -0.0929926261305809 115 0 168
0.18051108717918396 -0.16060616075992584 -0.09405110031366348 109 0 168
0.18240368366241455 -0.1567029356956482 -0.09462831169366837 104 0 167
0.18380221724510193 -0.15042510628700256 -0.1003766804933548 101 0 167
0.18589238822460175 -0.155934676527977 -0.09384573251008987 97 0 166
0.18265612423419952 -0.16028743982315063 -0.09933415800333023 115 0 168
0.18545717000961304 -0.15705788135528564 -0.10804665833711624 109 0 168
0.1774800419807434 -0.17265577614307404 -0.10675407946109772 64 3 156
0.18373630940914154 -0.1740632802248001 -0.11144544184207916 94 0 165
0.19001585245132446 -0.1660439819097519 -0.11257854849100113 112 0 168
0.17949430644512177 -0.16355076432228088 -0.12198548763990402 111 0 168
0.1799447387456894 -0.17283228039741516 -0.11573287099599838 106 0 167
0.19028005003929138 -0.1821809709072113 -0.11830222606658936 117 0 168
0.19458945095539093 -0.20737464725971222 -0.13804355263710022 112 0 168
0.2050851583480835 -0.2194185107946396 -0.14811670780181885 111 0 168
0.21025612950325012 -0.23194380104541779 -0.14987492561340332 84 1 163
0.2070642113685608 -0.2313208281993866 -0.15657080709934235 104 0 167
0.19559240341186523 -0.23097729682922363 -0.16018033027648926 115 0 168
0.19021804630756378 -0.2356889545917511 -0.16961848735809326 115 0 168
0.19529667496681213 -0.2416267991065979 -0.17621596157550812 106 0 167
0.1990138441324234 -0.2520194947719574 -0.1796071082353592 81 1 162
0.19752778112888336 -0.2617955505847931 -0.1867344081401825 54 4 152
0.20519281923770905 -0.26805251836776733 -0.19663448631763458 21 6 138
0.20829790830612183 -0.2852057218551636 -0.20033308863639832 39 5 146
0.20687931776046753 -0.3025266230106354 -0.20695753395557404 52 4 152
0.2164757251739502 -0.30153757333755493 -0.20138441026210785 24 6 139
0.21504123508930206 -0.29456862807273865 -0.20182989537715912 37 5 145
0.21701860427856445 -0.29625359177589417 -0.19752748310565948 63 3 156
0.21700438857078552 -0.29083025455474854 -0.19968090951442719 87 1 164
0.2150537371635437 -0.29773059487342834 -0.1979379504919052 109 0 168
0.21560290455818176 -0.2903689742088318 -0.189825639128685 132 5 166
0.22077898681163788 -0.284795880317688 -0.1932774931192398 94 0 165
0.22780829668045044 -0.2868465185165405 -0.18982304632663727 52 4 152
0.23147711157798767 -0.28150302171707153 -0.17509713768959045 27 6 140
0.2195824235677719 -0.277188241481781 -0.17711485922336578 73 2 159
0.22045329213142395 -0.268053263425827 -0.17070452868938446 90 0 165
0.21836185455322266 -0.2625173330307007 -0.17330387234687805 86 1 163
0.20582595467567444 -0.25725531578063965 -0.1786118745803833 86 1 163
0.18080909550189972 -0.25093817710876465 -0.19247770309448242 82 1 163
0.17028199136257172 -0.24051639437675476 -0.19552263617515564 49 4 150
0.16568727791309357 -0.241643026471138 -0.19850003719329834 35 5 144
0.16711100935935974 -0.242054745554924 -0.20877306163311005 37 5 145
0.16827614605426788 -0.23663835227489471 -0.20645087957382202 51 4 151
0.1565667986869812 -0.2368226945400238 -0.21577827632427216 100 0 167
0.15214307606220245 -0.24353215098381042 -0.220495343208313 100 0 167
0.1556764394044876 -0.2506728172302246 -0.232162207365036 100 0 167
0.15280099213123322 -0.255113422870636 -0.23362727463245392 101 0 167
0.15138328075408936 -0.2547837495803833 -0.2319236397743225 92 0 165
0.15978963673114777 -0.25406408309936523 -0.23104725778102875 61 3 155
0.16220185160636902 -0.24434509873390198 -0.2263374626636505 43 5 148
0.16401171684265137 -0.23902110755443573 -0.22646766901016235 49 4 150
0.1695512980222702 -0.2432413101196289 -0.21314410865306854 43 5 148
0.16794198751449585 -0.2567073404788971 -0.21076126396656036 21 6 138
0.17867228388786316 -0.2447768896818161 -0.2028830498456955 16 7 135
0.175645649433136 -0.24901272356510162 -0.20043332874774933 31 5 142
0.17679370939731598 -0.24394090473651886 -0.19216305017471313 49 4 150
0.17193040251731873 -0.25444790720939636 -0.19896185398101807 78 2 161
0.17175336182117462 -0.26212024688720703 -0.20714300870895386 86 1 163
0.16844382882118225 -0.26453882455825806 -0.21123085916042328 109 0 168
0.1625577211380005 -0.27438604831695557 -0.2223571240901947 114 0 168
0.16557210683822632 -0.28858518600463867 -0.2300335168838501 112 0 168
0.17220643162727356 -0.2915656268596649 -0.22731666266918182 112 0 168
0.16206294298171997 -0.2893941402435303 -0.23214977979660034 115 0 168
0.1488000601530075 -0.2928787171840668 -0.23531129956245422 134 7 166
0.1396414041519165 -0.2941240668296814 -0.2446669340133667 127 3 167
0.14064790308475494 -0.2977023422718048 -0.26302671432495117 129 4 167
0.14107075333595276 -0.305633544921875 -0.2556830048561096 126 3 167
0.13639062643051147 -0.31469884514808655 -0.2591523826122284 140 10 164
0.11745079606771469 -0.32734864950180054 -0.2685031592845917 149 17 161
0.10675743967294693 -0.3220381736755371 -0.27835938334465027 159 26 155
0.10088063776493073 -0.3048608601093292 -0.275213360786438 169 35 149
0.08594205975532532 -0.30482420325279236 -0.2770029902458191 172 37 147
0.08095382153987885 -0.31352975964546204 -0.2755937874317169 169 35 149
0.08658943325281143 -0.3190035820007324 -0.2761731743812561 170 36 148
0.09309535473585129 -0.321577787399292 -0.2744393050670624 167 33 151
0.09251392632722855 -0.33315354585647583 -0.26289963722229004 167 33 151
0.10301550477743149 -0.33719491958618164 -0.2702215909957886 155 23 158
0.11623745411634445 -0.3520810306072235 -0.2749785780906677 151 19 160
0.1267624795436859 -0.379497230052948 -0.26491427421569824 146 15 162
0.1484493911266327 -0.40326493978500366 -0.24959923326969147 142 12 164
0.16417959332466125 -0.4287404716014862 -0.2535390555858612 142 12 164
0.17963843047618866 -0.44157013297080994 -0.25618818402290344 126 3 167
0.19757890701293945 -0.46463826298713684 -0.2408447414636612 115 0 168
0.20858465135097504 -0.49494096636772156 -0.23189067840576172 111 0 168
0.2592748999595642 -0.5121821761131287 -0.20487794280052185 106 0 167
0.2767620086669922 -0.5070614814758301 -0.21837426722049713 95 0 166
0.3134006857872009 -0.5288655161857605 -0.18954823911190033 68 3 158
0.33242547512054443 -0.5291379690170288 -0.18104062974452972 68 3 158
0.32889366149902344 -0.5646525025367737 -0.1602390706539154 69 3 158
0.35601529479026794 -0.5708996057510376 -0.13473358750343323 71 2 159
0.3617933392524719 -0.5884932279586792 -0.12717345356941223 71 2 159
0.36746925115585327 -0.5839414596557617 -0.11961826682090759 69 3 158
0.37686687707901 -0.5806530714035034 -0.1236909031867981 71 2 159
0.38529306650161743 -0.5686224102973938 -0.12278922647237778 69 3 158
0.3917638957500458 -0.5809873938560486 -0.12452945113182068 64 3 156
0.3996230661869049 -0.5708627104759216 -0.07220375537872314 69 3 158
0.4051499664783478 -0.5725547075271606 -0.07708728313446045 71 2 159
0.41276276111602783 -0.5636913776397705 -0.015320437960326672 66 3 157
0.4245761036872864 -0.5261037945747375 -0.0010069167474284768 54 4 152
0.4349968135356903 -0.5014218091964722 0.052093565464019775 47 4 149
0.42326897382736206 -0.47750934958457947 0.06310400366783142 66 3 157
0.42665255069732666 -0.43318498134613037 0.06773530691862106 81 1 162
0.41459327936172485 -0.41010722517967224 0.10751126706600189 94 0 165
0.40788182616233826 -0.37585464119911194 0.1193988248705864 124 2 167
0.3983244299888611 -0.33748483657836914 0.13016262650489807 153 20 159
0.365304172039032 -0.3300116956233978 0.15365779399871826 170 36 148
0.3585723042488098 -0.30612656474113464 0.1363510936498642 191 57 130
0.3828932046890259 -0.2796154320240021 0.1350426971912384 204 72 118
0.3798782527446747 -0.28536322712898254 0.1446547657251358 212 82 110
0.3708387613296509 -0.29951709508895874 0.14565427601337433 210 80 112
0.36228278279304504 -0.31917157769203186 0.10822167247533798 212 82 110
0.37089377641677856 -0.3419587016105652 0.07802275568246841 223 98 98
0.38161635398864746 -0.37419891357421875 0.09644429385662079 234 115 86
0.4011269211769104 -0.3520972430706024 0.09778395295143127 244 137 71
0.3989740312099457 -0.359825074672699 0.09971274435520172 250 160 57
0.39641234278678894 -0.36664074659347534 0.1168891191482544 253 184 44
0.41622740030288696 -0.3369201421737671 0.1329449713230133 253 185 43
0.40487104654312134 -0.2989318370819092 0.13955356180667877 252 167 53
0.389661580324173 -0.26531535387039185 0.17308653891086578 252 172 50
0.36932098865509033 -0.25084206461906433 0.16840174794197083 252 167 53
0.34081336855888367 -0.22223727405071259 0.1874464899301529 252 167 53
0.30774548649787903 -0.16687282919883728 0.21263578534126282 251 163 55
0.2546335756778717 -0.14636754989624023 0.2241622358560562 250 157 58
0.2660239338874817 -0.12804730236530304 0.21599140763282776 248 150 63
0.2770809531211853 -0.09792709350585938 0.2256457358598709 246 143 67
0.22695714235305786 -0.07391626387834549 0.22083479166030884 237 123 81
0.213629350066185 -0.040560055524110794 0.24526885151863098 226 102 96
0.20554111897945404 0.012092219665646553 0.25786203145980835 210 80 112
0.166482076048851 0.06348858773708344 0.26355433464050293 209 78 114
0.1210508719086647 0.08704662322998047 0.2720611095428467 214 85 109
0.07844371348619461 0.11014580726623535 0.2601303458213806 213 83 109
0.06771297752857208 0.11725272238254547 0.25887560844421387 216 88 106
0.051948949694633484 0.15905563533306122 0.253474622964859 219 91 103
0.003466750727966428 0.1986922323703766 0.25080588459968567 228 106 93
-0.013020070269703865 0.21693553030490875 0.2614057660102844 231 110 90
-0.02566969394683838 0.20370063185691833 0.24641506373882294 234 116 85
-0.01933618076145649 0.17588290572166443 0.2573012411594391 227 103 95
-0.013750134035944939 0.1569877713918686 0.23766018450260162 212 82 110
-0.03201333433389664 0.14342738687992096 0.24045053124427795 200 68 122
-0.041025541722774506 0.13320252299308777 0.22208942472934723 196 63 126
-0.006557521875947714 0.12136712670326233 0.23266033828258514 206 74 117
0.00745795015245676 0.13953140377998352 0.25193625688552856 196 63 126
-0.015274467878043652 0.17781642079353333 0.2422020137310028 190 56 131
-0.04838459566235542 0.21316024661064148 0.24354755878448486 190 56 131
-0.06570930033922195 0.24277420341968536 0.2415177971124649 190 56 131
-0.10313642770051956 0.27515119314193726 0.2454371452331543 165 31 151
-0.10816524177789688 0.30483779311180115 0.2423444241285324 154 21 158
-0.09989187121391296 0.3000730872154236 0.2656586766242981 143 13 163
-0.09881754964590073 0.3129682242870331 0.2609178125858307 137 8 165
-0.11905302107334137 0.30536824464797974 0.2607758343219757 126 3 167
-0.10912436246871948 0.32507458329200745 0.26367735862731934 132 5 166
-0.10581757873296738 0.33140790462493896 0.2495836466550827 142 12 164
-0.09999722987413406 0.34327802062034607 0.2549577057361603 130 4 167
-0.11235184967517853 0.3598819673061371 0.24763640761375427 133 6 166
-0.13011860847473145 0.3580281138420105 0.24678735435009003 130 4 167
-0.14076517522335052 0.34082484245300293 0.24529315531253815 129 4 167
-0.13074463605880737 0.31666526198387146 0.245816171169281 130 4 167
-0.11647645384073257 0.28917017579078674 0.22771620750427246 123 2 168
-0.13055424392223358 0.27721738815307617 0.2553916275501251 109 0 168
-0.13954152166843414 0.30020251870155334 0.25803622603416443 109 0 168
-0.1625148504972458 0.32563021779060364 0.24877038598060608 118 1 168
-0.18444687128067017 0.31373655796051025 0.2586863934993744 111 0 168
-0.17331050336360931 0.3228273391723633 0.2636299729347229 108 0 168
-0.1679023951292038 0.343370258808136 0.2562982141971588 111 0 168
-0.18490298092365265 0.35747817158699036 0.24680088460445404 106 0 167
-0.2273673117160797 0.3517473638057709 0.22767646610736847 87 1 164
-0.24416345357894897 0.3457074463367462 0.20739823579788208 90 0 165
-0.23952575027942657 0.3642303943634033 0.21906308829784393 86 1 163
-0.27092042565345764 0.3783831298351288 0.22184285521507263 98 0 166
-0.2788543105125427 0.37578684091567993 0.21126295626163483 103 0 167
-0.2790255546569824 0.3626311123371124 0.19988849759101868 117 0 168
-0.26639848947525024 0.36448827385902405 0.20333153009414673 134 7 166
-0.26982396841049194 0.38841187953948975 0.1979093849658966 121 1 168
-0.2625673711299896 0.3832603991031647 0.18190538883209229 98 0 166
-0.26750636100769043 0.37366506457328796 0.1785074919462204 84 1 163
-0.2933909296989441 0.36358627676963806 0.16981947422027588 76 2 161
-0.26444926857948303 0.3585665822029114 0.18362554907798767 78 2 161
-0.2833665907382965 0.37049660086631775 0.16788657009601593 87 1 164
-0.29365962743759155 0.3947577178478241 0.1604752242565155 115 0 168
-0.29483506083488464 0.41687846183776855 0.15370529890060425 106 0 167
-0.3163129389286041 0.3976970911026001 0.15983986854553223 98 0 166
-0.28437307476997375 0.35061174631118774 0.1789398342370987 89 1 164
-0.2506660521030426 0.2603408396244049 0.1261572688817978 87 1 164
-0.23866057395935059 0.2201349288225174 0.06629886478185654 92 0 165
-0.2293124496936798 0.2095770537853241 0.06797000765800476 111 0 168
-0.1405704915523529 0.15152239799499512 0.09068197757005692 111 0 168
-0.047442711889743805 0.1353832632303238 0.11428633332252502 111 0 168
-0.03839312866330147 0.04841381311416626 0.1642494648694992 103 0 167
0.00878297258168459 0.07014627754688263 0.1661924123764038 103 0 167
0.006544335279613733 0.061700716614723206 0.09008676558732986 117 0 168
-0.027075497433543205 0.00736351078376174 -0.02688460983335972 118 1 168
0.03198167681694031 -0.09258931130170822 -0.0914110541343689 111 0 168
0.012605777941644192 -0.1896359771490097 -0.11319269239902496 112 0 168
-0.015669740736484528 -0.2741181552410126 -0.1080070286989212 112 0 168
0.01039027888327837 -0.21950101852416992 -0.11757796257734299 120 1 168
-0.03701550140976906 -0.196010023355484 -0.1129676029086113 100 0 167
-0.042328253388404846 -0.16677720844745636 -0.08076060563325882 90 0 165
-0.05843081697821617 -0.17710664868354797 -0.09380742162466049 94 0 165
-0.07690545916557312 -0.133494034409523 -0.09315650910139084 92 0 165
-0.10287840664386749 -0.12132976949214935 -0.12002173066139221 94 0 165
-0.10464470833539963 -0.11611685901880264 -0.12834464013576508 94 0 165
-0.08908234536647797 -0.11026488989591599 -0.14312219619750977 92 0 165
-0.09542857855558395 -0.11031321436166763 -0.16720262169837952 81 1 162
-0.09546571969985962 -0.11861208826303482 -0.16937248408794403 81 1 162
-0.10539322346448898 -0.12598179280757904 -0.15972782671451569 90 0 165
-0.1181553304195404 -0.11686454713344574 -0.15970489382743835 100 0 167
-0.1313759684562683 -0.10146336257457733 -0.1557541936635971 97 0 166
-0.1368313729763031 -0.09061441570520401 -0.1439579427242279 94 0 165
-0.15923503041267395 -0.056431178003549576 -0.1458330750465393 94 0 165
-0.1644187569618225 -0.04962309077382088 -0.13906091451644897 98 0 166
-0.15309371054172516 -0.024428747594356537 -0.14405883848667145 94 0 165
-0.15565252304077148 -0.033912673592567444 -0.1502598375082016 97 0 166
-0.16391444206237793 -0.01595122180879116 -0.13640134036540985 92 0 165
-0.1809733510017395 -0.005917669273912907 -0.14042480289936066 92 0 165
-0.18965917825698853 0.02990102954208851 -0.1396133005619049 101 0 167
-0.19547612965106964 0.017073724418878555 -0.15255069732666016 109 0 168
-0.18242128193378448 0.005278395023196936 -0.14819081127643585 123 2 168
-0.17434477806091309 -0.014855277724564075 -0.1550285667181015 129 4 167
-0.16965563595294952 -0.012841526418924332 -0.14140577614307404 137 8 165
-0.17999689280986786 0.0010997867211699486 -0.14983534812927246 150 18 160
-0.20139898359775543 0.009372005239129066 -0.15002553164958954 147 16 161
-0.2071351855993271 0.007865900173783302 -0.1468839943408966 143 13 163
-0.20571647584438324 0.005092951934784651 -0.15589167177677155 130 4 167
-0.18776258826255798 0.0013258043909445405 -0.15902864933013916 109 0 168
-0.18199719488620758 -0.015655897557735443 -0.15934023261070251 87 1 164
-0.18029235303401947 -0.00672810198739171 -0.16290374100208282 71 2 159
-0.1825956106185913 0.005238438490778208 -0.16269317269325256 79 2 162
-0.20784789323806763 0.01537184789776802 -0.163706973195076 84 1 163
-0.20470698177814484 0.022268597036600113 -0.16509318351745605 89 1 164
-0.20287416875362396 0.019158292561769485 -0.1736677587032318 92 0 165
-0.18955011665821075 -0.004978212062269449 -0.1654902547597885 90 0 165
-0.1758517175912857 -0.0169123075902462 -0.1637522578239441 94 0 165
-0.16511711478233337 -0.044328976422548294 -0.1634799838066101 94 0 165
-0.16276678442955017 -0.04543818533420563 -0.17058724164962769 103 0 167
-0.15859833359718323 -0.048807885497808456 -0.1814415007829666 117 0 168
-0.16412101686000824 -0.025213573127985 -0.1870293915271759 134 7 166
-0.17360828816890717 -0.021028650924563408 -0.17755810916423798 130 4 167
-0.19119463860988617 -0.00035885657416656613 -0.18890216946601868 118 1 168
-0.18968528509140015 0.007523308973759413 -0.18190975487232208 95 0 166
-0.19197948276996613 -0.00316993216983974 -0.19060149788856506 81 1 162
-0.19056572020053864 0.003400066401809454 -0.1828717291355133 79 2 162
-0.19184638559818268 -8.449244342045859e-05 -0.19040481746196747 81 1 162
-0.19667240977287292 -0.018751436844468117 -0.19385632872581482 86 1 163
-0.1787586361169815 -0.015663154423236847 -0.19892288744449615 94 0 165
-0.16033025085926056 -0.02369501069188118 -0.21625998616218567 87 1 164
-0.15976956486701965 -0.027162842452526093 -0.21118655800819397 73 2 159
-0.16903571784496307 -0.03151198476552963 -0.20836684107780457 69 3 158
-0.174217090010643 -0.04693733900785446 -0.21456195414066315 82 1 163
-0.1459292471408844 -0.07585115730762482 -0.22487004101276398 97 0 166
-0.11545263230800629 -0.0883837640285492 -0.22565264999866486 123 2 168
-0.10607247054576874 -0.11608625203371048 -0.22397427260875702 139 9 164
-0.09668050706386566 -0.13123172521591187 -0.21910254657268524 143 13 163
-0.08456788957118988 -0.13774268329143524 -0.2288847714662552 143 13 163
-0.07961025089025497 -0.14083455502986908 -0.23253068327903748 143 13 163
-0.08465677499771118 -0.12068460136651993 -0.23385058343410492 140 10 164
-0.08862051367759705 -0.11298521608114243 -0.2340914011001587 136 7 165
-0.09046363830566406 -0.11627260595560074 -0.23505645990371704 130 4 167
-0.09930562227964401 -0.11361641436815262 -0.24136748909950256 118 1 168
-0.09635358303785324 -0.13118287920951843 -0.23562492430210114 114 0 168
-0.08647515624761581 -0.10327595472335815 -0.2359326332807541 103 0 167
-0.08881746977567673 -0.11506815999746323 -0.23443391919136047 104 0 167
-0.0969453901052475 -0.1194840744137764 -0.22577297687530518 98 0 166
-0.08593535423278809 -0.12897059321403503 -0.22279910743236542 95 0 166
-0.0694977343082428 -0.1571125090122223 -0.24010807275772095 98 0 166
-0.01635933667421341 -0.20468276739120483 -0.2278135120868683 103 0 167
0.010882880538702011 -0.2523028552532196 -0.23388931155204773 101 0 167
0.05680546164512634 -0.27131208777427673 -0.21961769461631775 104 0 167
0.0764373317360878 -0.29439088702201843 -0.2318757027387619 117 0 168
0.09926164150238037 -0.31125685572624207 -0.24226714670658112 117 0 168
0.12195625901222229 -0.31444400548934937 -0.25117337703704834 126 3 167
0.13459265232086182 -0.3431462049484253 -0.23588214814662933 147 16 161
0.14929386973381042 -0.3641963005065918 -0.2366175353527069 169 35 149
0.17566190659999847 -0.3841395974159241 -0.2363540679216385 167 33 151
0.1871972531080246 -0.3853493332862854 -0.2437097132205963 149 17 161
0.192940354347229 -0.4001845121383667 -0.23526442050933838 132 5 166
0.17519508302211761 -0.3738005459308624 -0.22587598860263824 109 0 168
0.1353379487991333 -0.35793110728263855 -0.23621796071529388 90 0 165
0.1196703240275383 -0.3444143235683441 -0.25515326857566833 71 2 159
0.10997861623764038 -0.3395638167858124 -0.2656420171260834 54 4 152
0.1276019811630249 -0.33039918541908264 -0.25339511036872864 54 4 152
0.155980184674263 -0.34231626987457275 -0.24644318222999573 63 3 156
0.18207745254039764 -0.3556433618068695 -0.24300192296504974 52 4 152
0.2177061289548874 -0.38737061619758606 -0.2195681780576706 52 4 152
0.22450654208660126 -0.3965821862220764 -0.2456670105457306 29 6 141
0.24767112731933594 -0.37850406765937805 -0.202012300491333 21 6 138
0.23302321135997772 -0.37365368008613586 -0.2381574809551239 33 5 143
0.2259712666273117 -0.35269492864608765 -0.22358405590057373 52 4 152
0.20981241762638092 -0.324015736579895 -0.24251621961593628 63 3 156
0.1967722624540329 -0.28846392035484314 -0.2245754450559616 52 4 152
0.15856380760669708 -0.2502883970737457 -0.20846742391586304 61 3 155
0.1800520420074463 -0.24573014676570892 -0.17831656336784363 66 3 157
0.16207189857959747 -0.24103829264640808 -0.1916024088859558 63 3 156
0.11710020899772644 -0.2007267326116562 -0.2016846388578415 45 4 148
0.10698061436414719 -0.16793695092201233 -0.1744188368320465 58 4 154
0.1236238107085228 -0.12752902507781982 -0.1365162879228592 33 5 143
0.1353342980146408 -0.10417107492685318 -0.1079166978597641 27 6 140
0.12068283557891846 -0.08173675090074539 -0.09236239641904831 52 4 152
0.12054526805877686 -0.08803854137659073 -0.05643538385629654 51 4 151
0.1684887707233429 -0.07486934959888458 -0.03776272013783455 43 5 148
0.17116868495941162 -0.0733678787946701 -0.008805547840893269 29 6 141
0.15760986506938934 -0.0416114516556263 0.006998961791396141 49 4 150
0.1631775051355362 -0.02337414026260376 0.020419543609023094 27 6 140
0.1676858812570572 0.005135334562510252 0.03058771602809429 37 5 145
0.15912578999996185 0.008843712508678436 0.046201325953006744 59 3 154
0.15204957127571106 0.01961154118180275 0.07392332702875137 69 3 158
0.14972124993801117 0.025118058547377586 0.08834747970104218 71 2 159
0.14519178867340088 0.05895067751407623 0.10030964016914368 73 2 159
0.11414927244186401 0.05043848603963852 0.09824539721012115 69 3 158
0.11451469361782074 0.03844555839896202 0.09114629030227661 73 2 159
0.14571917057037354 0.014389739371836185 0.08447596430778503 64 3 156
0.14950942993164062 -0.0044493176974356174 0.07520579546689987 68 3 158
0.14696842432022095 0.012153241783380508 0.06775721907615662 54 4 152
0.12223736941814423 0.028715312480926514 0.01916765421628952 31 5 142
0.11223964393138885 0.011803092435002327 0.02201664447784424 27 6 140
0.11767077445983887 -0.0011081690900027752 0.009501099586486816 41 5 147
0.13388144969940186 -0.002834487706422806 0.007918559946119785 58 4 154
0.14437821507453918 0.004056849982589483 0.01855086162686348 52 4 152
0.14488424360752106 0.0054214284755289555 0.032458025962114334 54 4 152
0.11931758373975754 0.03758874163031578 0.032012879848480225 64 3 156
0.1200367882847786 0.027727246284484863 0.027950260788202286 64 3 156
0.13485212624073029 0.041323963552713394 0.05164562165737152 58 4 154
0.13543285429477692 0.035890500992536545 0.06626585870981216 64 3 156
0.1315099149942398 0.03285897150635719 0.072036974132061 69 3 158
0.1484616994857788 0.03313886374235153 0.08153598010540009 73 2 159
0.14043907821178436 0.030630920082330704 0.08641660213470459 68 3 158
0.14159759879112244 0.017448941245675087 0.07934912294149399 69 3 158
0.15407320857048035 0.0126060601323843 0.07948746532201767 73 2 159
0.15061454474925995 -0.008123733103275299 0.07219698280096054 84 1 163
0.16751094162464142 -0.021659739315509796 0.06243083253502846 82 1 163
0.18300145864486694 -0.039678607136011124 0.053488269448280334 89 1 164
0.1899537891149521 -0.04560888931155205 0.05032391473650932 95 0 166
0.18302828073501587 -0.05492103099822998 0.040064919739961624 97 0 166
0.19035181403160095 -0.06571966409683228 0.032129887491464615 100 0 167
0.1990642100572586 -0.07586176693439484 0.020743468776345253 84 1 163
0.20347744226455688 -0.07398445159196854 0.016883768141269684 92 0 165
0.1965358704328537 -0.08302491903305054 0.01432438287883997 100 0 167
0.1923641711473465 -0.0826292559504509 0.009682797826826572 100 0 167
0.2024654895067215 -0.08184356242418289 0.011557159014046192 82 1 163
0.1994822919368744 -0.07257141917943954 0.013708099722862244 66 3 157
0.1990564912557602 -0.07607702910900116 0.014625947922468185 59 3 154
0.20398464798927307 -0.08215490728616714 0.01759449765086174 69 3 158
0.20826725661754608 -0.0911119133234024 0.005529158748686314 63 3 156
0.22728441655635834 -0.11010786890983582 0.00023718654119875282 61 3 155
0.24823026359081268 -0.1250649243593216 -0.00964492466300726 64 3 156
0.26027747988700867 -0.1446942687034607 -0.02558090351521969 64 3 156
0.27612316608428955 -0.18036282062530518 -0.0399850495159626 82 1 163
0.2836748957633972 -0.21413831412792206 -0.04074070602655411 74 2 160
0.29557931423187256 -0.23898844420909882 -0.05610444024205208 66 3 157
0.3097386360168457 -0.2569877803325653 -0.0648573487997055 56 4 153
0.3178737759590149 -0.29447951912879944 -0.06448420882225037 47 4 149
0.3372390866279602 -0.3142388164997101 -0.06335348635911942 21 6 138
0.35531049966812134 -0.37206077575683594 -0.07121149450540543 61 3 155
0.38549259305000305 -0.39488521218299866 -0.05621577054262161 12 7 134
0.3886072635650635 -0.4458079934120178 -0.05640528351068497 19 6 137
0.4122346341609955 -0.48623621463775635 -0.05111685022711754 24 6 139
0.4438055455684662 -0.4971601366996765 -0.0703514888882637 29 6 141
0.4376208186149597 -0.5260699391365051 -0.07186833024024963 31 5 142
0.4296625554561615 -0.5558688640594482 -0.055205170065164566 27 6 140
0.4150424599647522 -0.5694494843482971 -0.06985954940319061 27 6 140
0.42102697491645813 -0.5765905380249023 -0.05971161276102066 27 6 140
0.4356917142868042 -0.5609241127967834 -0.062272295355796814 35 5 144
0.4425634443759918 -0.5617517232894897 -0.06839809566736221 27 6 140
0.4396647810935974 -0.5510556101799011 -0.08711934089660645 27 6 140
0.40417349338531494 -0.5641193389892578 -0.05928369611501694 31 5 142
0.4126760959625244 -0.556967556476593 -0.09307878464460373 39 5 146
0.4304134249687195 -0.5571714639663696 -0.08006080985069275 37 5 145
0.40215936303138733 -0.5285823941230774 -0.13652123510837555 35 5 144
0.3970646560192108 -0.5202184319496155 -0.15449738502502441 24 6 139
0.3663278818130493 -0.4717491865158081 -0.14551271498203278 35 5 144
0.33429133892059326 -0.4487263560295105 -0.14069096744060516 39 5 146
0.31377702951431274 -0.41828688979148865 -0.1527055948972702 37 5 145
0.2907957136631012 -0.3801511824131012 -0.1789531707763672 31 5 142
0.26718127727508545 -0.36991220712661743 -0.1860034316778183 31 5 142
0.2590905427932739 -0.3472782373428345 -0.190408393740654 31 5 142
0.24535459280014038 -0.3276239037513733 -0.1981760710477829 31 5 142
0.23021839559078217 -0.3301456868648529 -0.19152335822582245 31 5 142
0.22094540297985077 -0.33094799518585205 -0.19500385224819183 31 5 142
0.22373075783252716 -0.34470662474632263 -0.18639053404331207 33 5 143
0.24029159545898438 -0.3411061465740204 -0.18308797478675842 33 5 143
0.2518821954727173 -0.33832111954689026 -0.16799983382225037 33 5 143
0.23847709596157074 -0.3448689877986908 -0.1591758280992508 33 5 143
0.2530159056186676 -0.34954243898391724 -0.15658321976661682 33 5 143
0.27321186661720276 -0.34088751673698425 -0.15259580314159393 33 5 143
0.28160080313682556 -0.3520844876766205 -0.1393558233976364 33 5 143
0.2800276279449463 -0.36890220642089844 -0.13739654421806335 33 5 143
0.27701815962791443 -0.38063845038414 -0.14251485466957092 33 5 143
0.2856369912624359 -0.37489253282546997 -0.13369283080101013 33 5 143
0.2859231233596802 -0.355096697807312 -0.1362057328224182 33 5 143
0.27815359830856323 -0.34316104650497437 -0.12338504195213318 33 5 143
0.2771047055721283 -0.3373447358608246 -0.12924674153327942 33 5 143
0.28409358859062195 -0.3264797627925873 -0.13860969245433807 33 5 143
0.2814759612083435 -0.3193124234676361 -0.12628059089183807 35 5 144
0.2704072594642639 -0.3293240964412689 -0.13755154609680176 35 5 144
0.2692244350910187 -0.33740362524986267 -0.13837066292762756 35 5 144
0.268606960773468 -0.3483051061630249 -0.13832810521125793 35 5 144
0.2743375301361084 -0.3438355028629303 -0.13433241844177246 35 5 144
0.2807636857032776 -0.3363717198371887 -0.12415054440498352 35 5 144
0.28914475440979004 -0.3339025378227234 -0.12293217331171036 35 5 144
0.2984776198863983 -0.3363252878189087 -0.13001291453838348 35 5 144
0.2981381416320801 -0.34271228313446045 -0.12291228026151657 35 5 144
0.3060275614261627 -0.3453000783920288 -0.11970774829387665 35 5 144
0.30691808462142944 -0.347293883562088 -0.11530933529138565 35 5 144
0.3133833706378937 -0.3414025902748108 -0.11618636548519135 35 5 144
0.3033078908920288 -0.3304019272327423 -0.11894956976175308 35 5 144
0.30267634987831116 -0.3380134105682373 -0.11483131349086761 35 5 144
0.30866509675979614 -0.33185872435569763 -0.11821668595075607 37 5 145
0.3042088449001312 -0.33096662163734436 -0.11817243695259094 37 5 145
0.30018678307533264 -0.3198966681957245 -0.11608206480741501 37 5 145
0.2945210039615631 -0.3108658194541931 -0.11929469555616379 37 5 145
0.2938566207885742 -0.30970871448516846 -0.12484942376613617 37 5 145
0.2928101122379303 -0.31328320503234863 -0.12070976942777634 37 5 145
0.2897149324417114 -0.31061598658561707 -0.11843879520893097 37 5 145
0.28668588399887085 -0.30382826924324036 -0.11570723354816437 37 5 145
0.28490927815437317 -0.3002204895019531 -0.10261974483728409 37 5 145
0.2794593572616577 -0.3031531870365143 -0.11019719392061234 37 5 145
0.27319952845573425 -0.2872512936592102 -0.11416158080101013 37 5 145
0.26839667558670044 -0.27574729919433594 -0.11553750932216644 37 5 145
0.2636035978794098 -0.2538194954395294 -0.11475344002246857 37 5 145
0.2520482540130615 -0.24632398784160614 -0.1128789409995079 39 5 146
0.24566631019115448 -0.23821257054805756 -0.10859273374080658 39 5 146
0.23851583898067474 -0.22598284482955933 -0.10941030830144882 39 5 146
0.2393534630537033 -0.2268970012664795 -0.10840176045894623 39 5 146
0.24132663011550903 -0.22973202168941498 -0.10230087488889694 39 5 146
0.24000179767608643 -0.2306026667356491 -0.0939093679189682 39 5 146
0.23947690427303314 -0.22817233204841614 -0.10016964375972748 39 5 146
0.24364687502384186 -0.22698456048965454 -0.09275775402784348 39 5 146
0.24815630912780762 -0.2237444967031479 -0.09240549802780151 39 5 146
0.2485925257205963 -0.22339719533920288 -0.09072647243738174 39 5 146
0.24610324203968048 -0.22880303859710693 -0.08289515227079391 39 5 146
0.23908144235610962 -0.2225298136472702 -0.09055669605731964 39 5 146
0.23753108084201813 -0.22003798186779022 -0.09113223105669022 39 5 146
0.23850055038928986 -0.2158600389957428 -0.09249627590179443 39 5 146
0.24114558100700378 -0.2113061547279358 -0.09275609999895096 41 5 147
0.23870772123336792 -0.22060349583625793 -0.0879492238163948 41 5 147
0.24298521876335144 -0.2266201227903366 -0.08316083997488022 41 5 147
0.2519661486148834 -0.21818943321704865 -0.08550380915403366 41 5 147
0.2517867088317871 -0.21431812644004822 -0.07238955050706863 41 5 147
0.24659153819084167 -0.21235528588294983 -0.06962379068136215 41 5 147
0.24842730164527893 -0.21638302505016327 -0.07003932446241379 31 5 142
0.251354843378067 -0.21782034635543823 -0.06319423019886017 27 6 140
0.2533877491950989 -0.211334228515625 -0.06396272033452988 35 5 144
0.2571582496166229 -0.20583856105804443 -0.055766038596630096 35 5 144
0.2563609480857849 -0.20483221113681793 -0.04491901397705078 19 6 137
0.2558087408542633 -0.19649448990821838 -0.04436995089054108 21 6 138
0.25620236992836 -0.19812622666358948 -0.03946560621261597 43 5 148
0.26027795672416687 -0.19807840883731842 -0.03852414712309837 52 4 152
0.2649381160736084 -0.20373591780662537 -0.036460284143686295 63 3 156
0.26398545503616333 -0.20501910150051117 -0.034555770456790924 64 3 156
0.2633204758167267 -0.20387332141399384 -0.03616873547434807 61 3 155
0.2593381106853485 -0.20023684203624725 -0.03751896321773529 59 3 154
0.2575606107711792 -0.19767583906650543 -0.042089562863111496 58 4 154
0.2583937644958496 -0.19818933308124542 -0.04592188820242882 56 4 153
0.25635790824890137 -0.19765610992908478 -0.040720611810684204 54 4 152
0.2534871995449066 -0.18973098695278168 -0.04142577946186066 64 3 156
0.24484333395957947 -0.18096786737442017 -0.04553734511137009 61 3 155
0.23897379636764526 -0.1799812763929367 -0.04486600682139397 52 4 152
0.2379342019557953 -0.18199266493320465 -0.04203207418322563 68 3 158
0.23876066505908966 -0.1810847371816635 -0.046188388019800186 52 4 152
0.24002857506275177 -0.18794390559196472 -0.04865941032767296 56 4 153
0.2407670021057129 -0.18768364191055298 -0.047744400799274445 58 4 154
0.23875485360622406 -0.18249882757663727 -0.048976242542266846 61 3 155
0.23483116924762726 -0.17655818164348602 -0.05303822457790375 66 3 157
0.2309327870607376 -0.17467142641544342 -0.05355800315737724 59 3 154
0.222873717546463 -0.17033390700817108 -0.057276368141174316 54 4 152
0.21833935379981995 -0.16457676887512207 -0.06089482828974724 58 4 154
0.2131403535604477 -0.16670233011245728 -0.05404758080840111 43 5 148
0.21094590425491333 -0.16198347508907318 -0.051885321736335754 52 4 152
0.2113698571920395 -0.1538563072681427 -0.0568283312022686 54 4 152
0.2097713053226471 -0.14754480123519897 -0.05642714723944664 56 4 153
0.20149068534374237 -0.146544948220253 -0.060286495834589005 63 3 156
0.19689062237739563 -0.14109639823436737 -0.06036321073770523 63 3 156
0.1916818916797638 -0.13741961121559143 -0.06467307358980179 58 4 154
0.1887195110321045 -0.13585126399993896 -0.06486102938652039 59 3 154
0.1889095902442932 -0.13666774332523346 -0.06499145925045013 49 4 150
0.19080914556980133 -0.13310518860816956 -0.06037813052535057 47 4 149
0.18865106999874115 -0.133195698261261 -0.05854926258325577 43 5 148
0.1890624761581421 -0.12895481288433075 -0.05791119113564491 52 4 152
0.19092543423175812 -0.1282481998205185 -0.05710318684577942 64 3 156
0.19246987998485565 -0.12789902091026306 -0.05418193340301514 63 3 156
0.19064196944236755 -0.12523536384105682 -0.0531008280813694 63 3 156
0.18897540867328644 -0.11959515511989594 -0.052743926644325256 64 3 156
0.18509449064731598 -0.11440196633338928 -0.04852920025587082 58 4 154
0.17815664410591125 -0.11371654272079468 -0.04898102581501007 49 4 150
0.1771431714296341 -0.10922427475452423 -0.05274521932005882 54 4 152
0.17298142611980438 -0.10483335703611374 -0.050675418227910995 43 5 148
0.16725802421569824 -0.09613773226737976 -0.054416224360466 63 3 156
0.16312405467033386 -0.09166502207517624 -0.05269993469119072 64 3 156
0.1651720404624939 -0.08994079381227493 -0.05028391256928444 61 3 155
0.15682238340377808 -0.08417875319719315 -0.05198806896805763 61 3 155
