ply
format ascii 1.0
element vertex 672
property float x
property float y
property float z
property uchar red
property uchar green
property uchar blue
end_header
0.0984281376004219 -0.34197691082954407 -0.492840051651001 137 8 165
0.11369355022907257 -0.3176909387111664 -0.494426965713501 137 8 165
0.10328440368175507 -0.32545778155326843 -0.4719901978969574 137 8 165
0.11085616052150726 -0.3137671947479248 -0.4517683684825897 136 7 165
0.1107080802321434 -0.2262294739484787 -0.3999687731266022 142 12 164
0.12666571140289307 -0.17110030353069305 -0.36201807856559753 142 12 164
0.09729333966970444 -0.2047453671693802 -0.3471401631832123 140 10 164
0.09761717915534973 -0.24645277857780457 -0.34604665637016296 139 9 164
0.0843680202960968 -0.20324167609214783 -0.3399448096752167 137 8 165
0.060006894171237946 -0.20174255967140198 -0.32989078760147095 139 9 164
0.008438161574304104 -0.1712038218975067 -0.350147545337677 139 9 164
0.01643308810889721 -0.1717289835214615 -0.3555130958557129 139 9 164
0.008482447825372219 -0.15165670216083527 -0.35432377457618713 136 7 165
-0.021173689514398575 -0.11903691291809082 -0.34897279739379883 134 7 166
-0.017338324338197708 -0.11699375510215759 -0.29857367277145386 134 7 166
-0.0045508029870688915 -0.10520850867033005 -0.3238246738910675 134 7 166
-0.009163359180092812 -0.12607134878635406 -0.3281284272670746 134 7 166
-0.06706532090902328 -0.113335520029068 -0.37691670656204224 136 7 165
-0.0670841708779335 -0.191942036151886 -0.3450116515159607 136 7 165
-0.05767190456390381 -0.18259385228157043 -0.35094693303108215 137 8 165
-0.03996993228793144 -0.1568927764892578 -0.3396841883659363 139 9 164
-0.02309834212064743 -0.17608574032783508 -0.3398191034793854 142 12 164
-0.0253947451710701 -0.1962309181690216 -0.3511243462562561 143 13 163
-0.002268414245918393 -0.1700552999973297 -0.3410828113555908 144 14 163
-0.006249384023249149 -0.16454684734344482 -0.3490005135536194 143 13 163
-0.07744835317134857 -0.14499837160110474 -0.36741799116134644 142 12 164
-0.16191069781780243 -0.18639472126960754 -0.41112351417541504 143 13 163
-0.14426879584789276 -0.17875781655311584 -0.3527752161026001 143 13 163
-0.017519507557153702 -0.13078851997852325 -0.35642653703689575 143 13 163
0.08249400556087494 -0.11266021430492401 -0.34952491521835327 139 9 164
0.10172273963689804 -0.10134807974100113 -0.3301699459552765 137 8 165
0.12429774552583694 -0.10485034435987473 -0.30018502473831177 137 8 165
0.1542033702135086 -0.13229510188102722 -0.2950017750263214 136 7 165
0.1180216372013092 -0.12721624970436096 -0.27266356348991394 139 9 164
0.08491112291812897 -0.1561194509267807 -0.2900914251804352 139 9 164
0.08866238594055176 -0.1853637397289276 -0.357315331697464 140 10 164
0.07539208978414536 -0.17676874995231628 -0.3651856482028961 140 10 164
0.06001856550574303 -0.19274216890335083 -0.36056673526763916 140 10 164
0.055645719170570374 -0.19986169040203094 -0.32134369015693665 134 7 166
0.07709404081106186 -0.11037847399711609 -0.3236576318740845 134 7 166
0.10858996212482452 -0.062184467911720276 -0.24011141061782837 134 7 166
0.12512411177158356 -0.023134054616093636 -0.23187151551246643 134 7 166
0.10901566594839096 -0.06561096012592316 -0.2053622156381607 136 7 165
0.07230178266763687 -0.059466131031513214 -0.2878980338573456 136 7 165
0.06204911321401596 -0.10832619667053223 -0.3244854211807251 134 7 166
0.10382359474897385 -0.06391900032758713 -0.3365643620491028 136 7 165
0.1337263137102127 0.016668440774083138 -0.25447413325309753 136 7 165
0.08250093460083008 0.04875839501619339 -0.21347911655902863 140 10 164
0.05364885553717613 0.007779737934470177 -0.2175132781267166 142 12 164
0.04219876602292061 -0.015939384698867798 -0.2641596794128418 142 12 164
0.04061520844697952 -0.015180643647909164 -0.24790836870670319 140 10 164
0.06352446228265762 0.0044839526526629925 -0.2014124095439911 140 10 164
0.07586299628019333 0.009152938611805439 -0.18083788454532623 142 12 164
0.048146966844797134 -0.008302592672407627 -0.20314645767211914 139 9 164
0.026356054469943047 -0.01032323483377695 -0.20631994307041168 139 9 164
0.011745180003345013 -0.010626953095197678 -0.19525238871574402 137 8 165
0.03565209358930588 0.010254023596644402 -0.22156894207000732 137 8 165
0.06435110419988632 0.016382712870836258 -0.18046769499778748 137 8 165
0.04353177919983864 0.028649060055613518 -0.1680198311805725 136 7 165
0.016005251556634903 0.010051915422081947 -0.2041461169719696 136 7 165
0.029129421338438988 -0.013304278254508972 -0.21178023517131805 136 7 165
0.07286231219768524 0.001393837621435523 -0.20657142996788025 136 7 165
0.07159397751092911 0.01074763759970665 -0.2037811428308487 136 7 165
0.04492824524641037 -0.001994473161175847 -0.20255611836910248 134 7 166
0.02632785029709339 -0.010210349224507809 -0.21937046945095062 136 7 165
0.02682865411043167 -0.04677392542362213 -0.2101615071296692 133 6 166
0.008228093385696411 -0.0035854815505445004 -0.20766331255435944 134 7 166
0.005874005611985922 0.05047912895679474 -0.18111681938171387 133 6 166
0.025631828233599663 0.05483020842075348 -0.13768742978572845 134 7 166
0.050003014504909515 0.0014563139993697405 -0.15744303166866302 133 6 166
0.08094262331724167 0.015391087159514427 -0.15826107561588287 133 6 166
0.11684869974851608 0.03378995507955551 -0.14244231581687927 132 5 166
0.14408545196056366 0.030759219080209732 -0.13406284153461456 133 6 166
0.14638730883598328 0.012061246670782566 -0.14878800511360168 134 7 166
0.14557576179504395 -0.008104457519948483 -0.1502799391746521 134 7 166
0.1820184588432312 -0.02114919200539589 -0.1672372967004776 134 7 166
0.2241431027650833 -0.051476139575242996 -0.1746644675731659 134 7 166
0.2539092004299164 -0.02961689606308937 -0.1644720733165741 134 7 166
0.2614438533782959 -0.015131786465644836 -0.11835188418626785 134 7 166
0.2843448519706726 -0.037614356726408005 -0.13424940407276154 134 7 166
0.3098498284816742 -0.009654873982071877 -0.13969732820987701 134 7 166
0.24745316803455353 -0.016808878630399704 -0.17636321485042572 133 6 166
0.23459142446517944 -0.09077278524637222 -0.18713481724262238 132 5 166
0.25901123881340027 -0.06303766369819641 -0.17450454831123352 132 5 166
0.3258812427520752 -0.05825353041291237 -0.17708316445350647 133 6 166
0.3326009213924408 -0.09753372520208359 -0.1550445705652237 133 6 166
0.2933756113052368 -0.11915867775678635 -0.13993015885353088 133 6 166
0.2977323532104492 -0.10448245704174042 -0.1614530086517334 132 5 166
0.26896846294403076 -0.14242583513259888 -0.19538748264312744 133 6 166
0.24410003423690796 -0.2024056613445282 -0.22328858077526093 133 6 166
0.25513917207717896 -0.21794003248214722 -0.24713382124900818 132 5 166
0.2911343276500702 -0.24067431688308716 -0.25419068336486816 132 5 166
0.30472537875175476 -0.24737897515296936 -0.2602485418319702 132 5 166
0.28744184970855713 -0.26510554552078247 -0.28591522574424744 133 6 166
0.3095715343952179 -0.28517967462539673 -0.27929702401161194 132 5 166
0.3596555292606354 -0.2955184578895569 -0.2996663749217987 130 4 167
0.38181591033935547 -0.2915692925453186 -0.2042233794927597 132 5 166
0.42707279324531555 -0.2644272744655609 -0.20911061763763428 133 6 166
0.45910078287124634 -0.2794376313686371 -0.14178358018398285 133 6 166
0.4460110068321228 -0.28226011991500854 -0.1980062872171402 133 6 166
0.48027896881103516 -0.3162459135055542 -0.1630038321018219 132 5 166
0.47811925411224365 -0.2805023193359375 -0.17563261091709137 132 5 166
0.4690202474594116 -0.3303409814834595 -0.19616881012916565 133 6 166
0.41304895281791687 -0.33937889337539673 -0.2171272486448288 133 6 166
0.40318647027015686 -0.3563350737094879 -0.22267526388168335 132 5 166
0.41770413517951965 -0.3577938377857208 -0.24519428610801697 132 5 166
0.4124422073364258 -0.34372925758361816 -0.23753409087657928 132 5 166
0.41648218035697937 -0.3357235789299011 -0.2455432415008545 134 7 166
0.38149693608283997 -0.3523629307746887 -0.2667916715145111 137 8 165
0.3204907178878784 -0.3526930809020996 -0.2813420593738556 137 8 165
0.26332443952560425 -0.35905954241752625 -0.330597460269928 139 9 164
0.2065962553024292 -0.4205388128757477 -0.3297194540500641 137 8 165
0.2506713271141052 -0.43507641553878784 -0.3328009247779846 137 8 165
0.33752694725990295 -0.4229447543621063 -0.34992071986198425 136 7 165
0.35204243659973145 -0.4142836332321167 -0.3246001899242401 136 7 165
0.3662848472595215 -0.41382795572280884 -0.3025079667568207 136 7 165
0.3754761815071106 -0.4094105362892151 -0.30916300415992737 136 7 165
0.37262415885925293 -0.400250643491745 -0.30616140365600586 134 7 166
0.37667641043663025 -0.4191451966762543 -0.311957448720932 137 8 165
0.371415913105011 -0.4059002697467804 -0.29882994294166565 136 7 165
0.36382630467414856 -0.402451753616333 -0.3287765085697174 136 7 165
0.36143067479133606 -0.430946409702301 -0.31295400857925415 137 8 165
0.345140278339386 -0.42670682072639465 -0.29276809096336365 139 9 164
0.32576802372932434 -0.4597204625606537 -0.3403400182723999 136 7 165
0.29000160098075867 -0.48228758573532104 -0.3352825343608856 136 7 165
0.31774529814720154 -0.4620435833930969 -0.37026771903038025 137 8 165
0.33929216861724854 -0.4625636339187622 -0.3933996856212616 140 10 164
0.29163751006126404 -0.4485907554626465 -0.394131600856781 142 12 164
0.2662082016468048 -0.46657365560531616 -0.39209091663360596 144 14 163
0.28232884407043457 -0.46205639839172363 -0.38065385818481445 144 14 163
0.28375566005706787 -0.44354233145713806 -0.39144977927207947 142 12 164
0.24185402691364288 -0.47632768750190735 -0.41714632511138916 144 14 163
0.20315507054328918 -0.48891714215278625 -0.4181327819824219 144 14 163
0.20888961851596832 -0.4685293138027191 -0.4129224121570587 147 16 161
0.222669318318367 -0.4673352837562561 -0.42925354838371277 146 15 162
0.21613799035549164 -0.4717927575111389 -0.43507111072540283 143 13 163
0.20828978717327118 -0.4908740222454071 -0.4357180595397949 146 15 162
0.2250020056962967 -0.4886032044887543 -0.4371855556964874 143 13 163
0.24364541471004486 -0.48503705859184265 -0.44082266092300415 147 16 161
0.28681427240371704 -0.48722952604293823 -0.42089220881462097 149 17 161
0.2984923720359802 -0.4679749011993408 -0.44328606128692627 153 20 159
0.30057525634765625 -0.48790016770362854 -0.4354609549045563 154 21 158
0.307229220867157 -0.4799591600894928 -0.42036688327789307 154 21 158
0.34280937910079956 -0.4525735378265381 -0.42420855164527893 155 23 158
0.334077388048172 -0.4650174081325531 -0.42783552408218384 157 24 157
0.285189151763916 -0.4837513864040375 -0.4247037470340729 158 25 156
0.3084411025047302 -0.478649377822876 -0.41476893424987793 153 20 159
0.362527996301651 -0.44750407338142395 -0.4201738238334656 153 20 159
0.34790167212486267 -0.4607990086078644 -0.4128870666027069 153 20 159
0.3200535774230957 -0.4604593515396118 -0.43704754114151 149 17 161
0.3412925899028778 -0.4369376301765442 -0.46532320976257324 147 16 161
0.42283204197883606 -0.41092178225517273 -0.4059120714664459 147 16 161
0.4774419069290161 -0.40987610816955566 -0.3505754768848419 146 15 162
0.4988453984260559 -0.38403576612472534 -0.33018893003463745 136 7 165
0.5633081793785095 -0.4026903212070465 -0.2554015517234802 147 16 161
0.5295097231864929 -0.42315444350242615 -0.28918662667274475 142 12 164
0.49178189039230347 -0.4319314658641815 -0.3269544839859009 143 13 163
0.4585321247577667 -0.40575575828552246 -0.335966020822525 139 9 164
0.4189428985118866 -0.4168354272842407 -0.2596231997013092 117 0 168
0.45446616411209106 -0.44413378834724426 -0.2115953415632248 108 0 168
0.4669463336467743 -0.43166109919548035 -0.19095617532730103 144 14 163
0.45517510175704956 -0.44082456827163696 -0.1874236911535263 146 15 162
0.4178568422794342 -0.44844239950180054 -0.22414763271808624 146 15 162
0.36040744185447693 -0.4629453718662262 -0.27928802371025085 142 12 164
0.3164199888706207 -0.47061362862586975 -0.27000415325164795 143 13 163
0.3119606077671051 -0.4857361614704132 -0.28746071457862854 140 10 164
0.3289957046508789 -0.4683070182800293 -0.2767036259174347 133 6 166
0.38176602125167847 -0.4576058089733124 -0.28768107295036316 123 2 168
0.3582707345485687 -0.49172139167785645 -0.25364190340042114 118 1 168
0.3897850513458252 -0.5034773945808411 -0.27696508169174194 120 1 168
0.4330190420150757 -0.48639756441116333 -0.25791293382644653 117 0 168
0.405082643032074 -0.441264271736145 -0.26096227765083313 117 0 168
0.34444814920425415 -0.4523344337940216 -0.27130869030952454 129 4 167
0.32976043224334717 -0.41135260462760925 -0.2614623010158539 121 1 168
0.3457956910133362 -0.3864041864871979 -0.2693127691745758 127 3 167
0.3321249783039093 -0.40862786769866943 -0.2540425956249237 127 3 167
0.31046658754348755 -0.40295839309692383 -0.2945113480091095 129 4 167
0.22205595672130585 -0.38833141326904297 -0.3430938720703125 136 7 165
0.16146300733089447 -0.4094703197479248 -0.35505613684654236 134 7 166
0.14280226826667786 -0.43304240703582764 -0.38351279497146606 136 7 165
0.19717542827129364 -0.427403062582016 -0.39064258337020874 143 13 163
0.18878640234470367 -0.430941104888916 -0.4270535409450531 151 19 160
0.18511798977851868 -0.4508853554725647 -0.4334205985069275 157 24 157
0.1581392139196396 -0.41594886779785156 -0.3884734511375427 154 21 158
0.22094376385211945 -0.3910576105117798 -0.3430297076702118 149 17 161
0.209357351064682 -0.3630020320415497 -0.34651222825050354 149 17 161
0.16645509004592896 -0.3547153174877167 -0.31352195143699646 146 15 162
0.1618950515985489 -0.33225345611572266 -0.283186137676239 142 12 164
0.15226033329963684 -0.2818682789802551 -0.2683476507663727 139 9 164
0.1741194725036621 -0.3103414475917816 -0.2558377683162689 144 14 163
0.18789352476596832 -0.2418157160282135 -0.21651999652385712 153 20 159
0.27832528948783875 -0.20456638932228088 -0.1624279022216797 164 30 152
0.29884201288223267 -0.16806629300117493 -0.10270330309867859 165 31 151
0.3248857855796814 -0.10905131697654724 -0.052288997918367386 177 43 143
0.3219304382801056 -0.07894546538591385 -0.020095588639378548 177 43 143
0.2821781039237976 -0.043384354561567307 0.03311682119965553 181 46 140
0.37086984515190125 -0.04865415394306183 0.08254135400056839 181 46 140
0.3933960497379303 0.03485226631164551 0.08769730478525162 178 44 142
0.41996845602989197 0.05067720636725426 0.1342197209596634 187 53 134
0.376686155796051 0.0830783024430275 0.11991190910339355 183 48 138
0.3923853933811188 0.022433022037148476 0.12176735699176788 181 46 140
0.3212830126285553 -0.009086992591619492 0.058289192616939545 180 45 141
0.2710414528846741 -0.012738963589072227 0.07904648035764694 176 42 143
0.27922067046165466 -0.015579084865748882 0.09957773983478546 178 44 142
0.29095977544784546 -0.008237367495894432 0.06857994198799133 176 42 143
0.29727745056152344 -0.010439010336995125 0.1133827194571495 185 51 136
0.30793243646621704 0.04365535080432892 0.12431603670120239 185 51 136
0.35885581374168396 0.039516642689704895 0.1546703577041626 186 52 135
0.3607989549636841 -0.004713539965450764 0.10728058964014053 186 52 135
0.32870665192604065 0.04676886647939682 0.0684511810541153 185 51 136
0.3314189910888672 0.0913453996181488 0.1809655725955963 183 48 138
0.3633306622505188 0.09084664285182953 0.14455978572368622 183 48 138
0.35294675827026367 0.14273947477340698 0.17045369744300842 185 51 136
0.3453764021396637 0.17601820826530457 0.21796277165412903 182 47 139
0.3832215666770935 0.1846652776002884 0.17284899950027466 187 53 134
0.41387274861335754 0.23648791015148163 0.2000688910484314 195 62 127
0.42692461609840393 0.23625044524669647 0.21321766078472137 197 64 125
0.40830424427986145 0.25609487295150757 0.21680264174938202 198 65 124
0.36201825737953186 0.29547473788261414 0.25930240750312805 201 69 121
0.3821582496166229 0.3061346709728241 0.2724152207374573 201 69 121
0.36811426281929016 0.3581131398677826 0.30040231347084045 201 69 121
0.37054455280303955 0.35418733954429626 0.31463533639907837 205 73 117
0.3796127736568451 0.3437398374080658 0.28203505277633667 209 78 114
0.40899336338043213 0.29629990458488464 0.26755377650260925 212 82 110
0.4124652147293091 0.31292036175727844 0.26565563678741455 215 86 108
0.410199910402298 0.40311649441719055 0.28125858306884766 215 87 107
0.4227154850959778 0.40809229016304016 0.29779326915740967 220 93 102
0.4003277122974396 0.45227527618408203 0.30659884214401245 221 95 101
0.38762396574020386 0.4591114819049835 0.33877429366111755 225 101 96
0.3367099165916443 0.45196738839149475 0.4116365313529968 236 120 83
0.29200369119644165 0.4954252541065216 0.43145617842674255 233 114 87
0.28779417276382446 0.5098050236701965 0.4659644663333893 242 132 75
0.23546290397644043 0.47519388794898987 0.49750417470932007 245 141 69
0.12951792776584625 0.5295036435127258 0.47958579659461975 246 145 66
0.10509549826383591 0.47926199436187744 0.5216960310935974 245 141 69
0.11744171380996704 0.4884382486343384 0.5041431784629822 247 147 65
0.09328191727399826 0.5023197531700134 0.5142380595207214 248 149 64
0.036390308290719986 0.4638785421848297 0.5705429315567017 246 142 68
0.03594769909977913 0.5027108192443848 0.5491949915885925 248 149 64
0.030990146100521088 0.5177671313285828 0.5680215954780579 247 146 65
-0.028514208272099495 0.5125739574432373 0.5404330492019653 246 145 66
-0.02356128767132759 0.4347584545612335 0.5307183265686035 245 141 69
-0.0253406073898077 0.48232313990592957 0.49310553073883057 245 139 70
0.01830245368182659 0.462512344121933 0.528756320476532 245 141 69
0.009044971317052841 0.4691160321235657 0.5180009007453918 244 137 71
0.0007598973461426795 0.46739980578422546 0.5223366022109985 246 145 66
-0.0077195120975375175 0.46414241194725037 0.4982004165649414 246 142 68
0.0051025995053350925 0.4290829300880432 0.4847961366176605 247 147 65
-0.009505991823971272 0.4531911611557007 0.4532904028892517 248 149 64
-0.043353933840990067 0.4570569097995758 0.47797849774360657 248 150 63
-0.04785963147878647 0.4730791747570038 0.4385744333267212 248 152 62
0.0025398891884833574 0.4201992154121399 0.46312955021858215 250 156 59
-0.008016742765903473 0.47145721316337585 0.45209455490112305 250 157 58
-0.01768927276134491 0.4783570468425751 0.4764809310436249 250 160 57
-0.013172050006687641 0.49079084396362305 0.45790234208106995 250 159 58
-0.004753377754241228 0.45826467871665955 0.4502411186695099 249 154 60
-0.013589468784630299 0.43216684460639954 0.4258703291416168 250 160 57
-0.029593169689178467 0.45231759548187256 0.40622368454933167 250 160 57
-0.009806372225284576 0.44284912943840027 0.4322288930416107 251 162 56
-0.0036992004606872797 0.4864976704120636 0.41655153036117554 252 166 53
-0.02639687992632389 0.46167394518852234 0.4316042363643646 252 167 53
-0.0250847265124321 0.3969792425632477 0.38695257902145386 252 169 52
-0.03243913874030113 0.42062926292419434 0.38695406913757324 252 169 52
-0.037044260650873184 0.4405098557472229 0.4065125584602356 252 173 49
-0.03561219945549965 0.44933292269706726 0.4038611054420471 253 179 46
-0.03604710474610329 0.42446500062942505 0.40138307213783264 253 184 44
-0.021279051899909973 0.41000697016716003 0.38637858629226685 253 182 45
-0.023047970607876778 0.41788536310195923 0.3814059793949127 253 182 45
0.0010147758293896914 0.4187878370285034 0.39037024974823 253 181 45
0.01998934894800186 0.44422754645347595 0.38336941599845886 253 175 49
0.03611976280808449 0.445690780878067 0.40108221769332886 252 173 49
0.03933809697628021 0.45336177945137024 0.40226423740386963 252 167 53
0.024527378380298615 0.45268088579177856 0.3954456150531769 252 167 53
0.03140036016702652 0.43865662813186646 0.38189318776130676 251 163 55
0.02592548169195652 0.4333643913269043 0.3790719211101532 244 138 71
0.0537802055478096 0.4393182098865509 0.36991918087005615 250 157 58
0.05353860557079315 0.4613097906112671 0.38279005885124207 250 157 58
0.03749788925051689 0.4454858601093292 0.3536449372768402 251 162 56
0.0537119023501873 0.41832447052001953 0.35757383704185486 250 159 58
0.03943489119410515 0.48951324820518494 0.3555956482887268 248 150 63
0.0726730152964592 0.48763805627822876 0.3756233751773834 250 156 59
0.07953542470932007 0.4866947531700134 0.37290728092193604 250 157 58
0.0674789696931839 0.4587287902832031 0.3525143563747406 253 176 48
0.04914913326501846 0.4739140272140503 0.341065913438797 253 187 43
0.053181182593107224 0.5021840333938599 0.34594619274139404 253 184 44
0.05234846845269203 0.5109015703201294 0.342723548412323 253 187 43
0.04842526093125343 0.46878954768180847 0.33832311630249023 253 188 42
0.03406774252653122 0.4965185225009918 0.30658161640167236 253 182 45
0.022375905886292458 0.490683376789093 0.3222246766090393 253 182 45
-0.0018866710597649217 0.49887868762016296 0.3147749602794647 253 182 45
0.003440803848206997 0.5046751499176025 0.3168303966522217 253 182 45
0.008281443268060684 0.47478774189949036 0.31353941559791565 253 179 46
-0.02077096328139305 0.4744783043861389 0.3083869218826294 253 187 43
-0.0067079197615385056 0.4777304232120514 0.3188851773738861 253 182 45
0.01441146433353424 0.46684274077415466 0.30445972084999084 253 181 45
0.034307170659303665 0.47880205512046814 0.3328031897544861 253 179 46
0.041159164160490036 0.5040745139122009 0.3301980197429657 253 182 45
0.059263020753860474 0.4899044632911682 0.3524462580680847 253 181 45
0.07131928205490112 0.505129337310791 0.34993818402290344 253 182 45
0.04769670218229294 0.5068891644477844 0.3472576141357422 253 181 45
0.028053928166627884 0.5057626366615295 0.3667449951171875 252 173 49
0.03699372336268425 0.5150424838066101 0.35464242100715637 249 154 60
0.08838451653718948 0.47291791439056396 0.3772789239883423 248 150 63
0.06791098415851593 0.5228794813156128 0.3595813512802124 250 156 59
0.0564061664044857 0.5274503827095032 0.38818714022636414 245 139 70
0.04708259552717209 0.5111825466156006 0.4098881185054779 242 132 75
0.07648379355669022 0.5117527842521667 0.4175008535385132 239 126 78
0.11610972881317139 0.524273693561554 0.4279421269893646 240 129 77
0.10425268113613129 0.5369961261749268 0.4348118007183075 242 132 75
0.11331693083047867 0.5098913908004761 0.4198194742202759 237 123 81
0.10157971829175949 0.49581781029701233 0.40078863501548767 240 128 77
0.12165062874555588 0.5123797655105591 0.4037732779979706 239 126 78
0.12284785509109497 0.5540961623191833 0.3857704997062683 239 126 78
0.11053355783224106 0.5392789840698242 0.38415324687957764 239 126 78
0.09370759129524231 0.5419008135795593 0.37441909313201904 238 124 80
0.056849874556064606 0.5372804403305054 0.3482515513896942 242 132 75
0.05199601873755455 0.5000331997871399 0.3239154517650604 242 133 74
0.03728780150413513 0.504220724105835 0.3191436529159546 245 139 70
0.02334332838654518 0.5333508253097534 0.34173518419265747 247 147 65
0.014158847741782665 0.5202972888946533 0.3276464641094208 248 149 64
0.008930095471441746 0.49962925910949707 0.31089064478874207 250 156 59
0.017213989049196243 0.5275770425796509 0.2943022847175598 248 150 63
0.04605988785624504 0.5505579710006714 0.31787925958633423 248 152 62
0.027601435780525208 0.5942552089691162 0.31587642431259155 250 156 59
0.023533936589956284 0.5836694240570068 0.3006587624549866 249 153 61
0.018769733607769012 0.5944272875785828 0.2911023497581482 250 157 58
-0.036668624728918076 0.6043285131454468 0.3072185516357422 248 150 63
-0.027029233053326607 0.6089059710502625 0.31127896904945374 250 159 58
0.03340538963675499 0.5732101202011108 0.32666635513305664 250 160 57
0.053880635648965836 0.5853167176246643 0.3156239986419678 248 149 64
0.04683088883757591 0.5980449318885803 0.3343627154827118 247 146 65
0.053689874708652496 0.5819430947303772 0.3506867587566376 245 141 69
0.04552803933620453 0.5636019706726074 0.35094180703163147 246 142 68
0.04603690654039383 0.569671094417572 0.34689632058143616 243 135 72
0.08833884447813034 0.5838742256164551 0.37435513734817505 238 124 80
0.09223996847867966 0.6017746925354004 0.3876864016056061 238 124 80
0.08507556468248367 0.6211197972297668 0.3988513648509979 230 109 90
0.09272824972867966 0.607060968875885 0.4224606454372406 237 121 82
0.10712751001119614 0.616215705871582 0.42422622442245483 226 102 96
0.13151918351650238 0.603807270526886 0.4337145686149597 220 94 102
0.12462135404348373 0.6285199522972107 0.4278581440448761 217 89 105
0.1086072251200676 0.6216795444488525 0.4420252740383148 215 87 107
0.12915442883968353 0.6024189591407776 0.44995179772377014 213 83 109
0.14016610383987427 0.6019388437271118 0.45238664746284485 217 89 105
0.16567224264144897 0.5848657488822937 0.4770875573158264 211 81 111
0.1674269437789917 0.5857653617858887 0.4863482117652893 210 80 112
0.13362018764019012 0.5786310434341431 0.4732089936733246 210 80 112
0.14510835707187653 0.5549340844154358 0.4910944402217865 209 79 113
0.12098022550344467 0.5693268179893494 0.4863394498825073 212 82 110
0.09569854289293289 0.5621665716171265 0.5131359696388245 215 87 107
0.013808878138661385 0.6198832988739014 0.5114872455596924 218 90 104
-0.041205041110515594 0.5313732028007507 0.515220046043396 218 90 104
-0.10105737298727036 0.5654536485671997 0.4002473056316376 218 90 104
-0.12198034673929214 0.531825840473175 0.41559621691703796 218 90 104
-0.15554800629615784 0.5432072281837463 0.3969963490962982 218 90 104
-0.1813889592885971 0.510835587978363 0.3823019862174988 218 90 104
-0.17920845746994019 0.48866504430770874 0.40561410784721375 215 86 108
-0.17974130809307098 0.5010305643081665 0.4030209481716156 209 78 114
-0.23979401588439941 0.4955088496208191 0.40000247955322266 211 81 111
-0.24411669373512268 0.4873088598251343 0.39126357436180115 214 85 109
-0.27057573199272156 0.5264679193496704 0.35928353667259216 216 88 106
-0.2869265079498291 0.558870792388916 0.34645864367485046 219 91 103
-0.30718252062797546 0.49564310908317566 0.38873693346977234 217 89 105
-0.37260743975639343 0.5085880160331726 0.2964772880077362 215 87 107
-0.398051917552948 0.4417257606983185 0.32341545820236206 215 87 107
-0.39893537759780884 0.46920013427734375 0.3061123192310333 215 87 107
-0.3528793752193451 0.45351800322532654 0.33083274960517883 214 85 109
-0.3131398856639862 0.47378891706466675 0.2665509581565857 211 81 111
-0.3335106372833252 0.5019587874412537 0.29931288957595825 209 78 114
-0.33574625849723816 0.4268774092197418 0.2748728096485138 207 75 116
-0.3626902997493744 0.3754320740699768 0.218977689743042 203 71 119
-0.369514524936676 0.4045228660106659 0.18771909177303314 200 68 122
-0.3545198440551758 0.4813600182533264 0.25398170948028564 199 66 123
-0.3180435001850128 0.5174897313117981 0.32957297563552856 196 63 126
-0.3481530249118805 0.5497183203697205 0.3033154308795929 196 63 126
-0.3507479727268219 0.5259765386581421 0.32236889004707336 195 62 127
-0.44025540351867676 0.5135655403137207 0.2752154767513275 195 62 127
-0.48453816771507263 0.4483361542224884 0.19519510865211487 193 60 128
-0.49095332622528076 0.3843161463737488 0.15225350856781006 190 56 131
-0.47338053584098816 0.40854477882385254 0.11228898167610168 189 55 132
-0.47165369987487793 0.39527425169944763 0.13385075330734253 189 55 132
-0.4822961688041687 0.37976759672164917 0.12564027309417725 189 55 132
-0.49904072284698486 0.353916198015213 0.037608228623867035 192 59 129
-0.4566449224948883 0.3467622995376587 0.04742924124002457 195 62 127
-0.37475886940956116 0.48645028471946716 0.12299177050590515 193 60 128
-0.42006421089172363 0.4968359172344208 0.15490630269050598 190 56 131
-0.5492739677429199 0.4445815086364746 0.09393858164548874 190 56 131
-0.6347033977508545 0.36432769894599915 -0.03548618406057358 189 55 132
-0.6713578701019287 0.18304023146629333 -0.13632416725158691 190 56 131
-0.6587996482849121 0.23244769871234894 -0.1662948727607727 192 59 129
-0.6756223440170288 0.3102456331253052 -0.14279906451702118 193 60 128
-0.729690432548523 0.2383647859096527 -0.12394971400499344 196 63 126
-0.7140311598777771 0.20541337132453918 -0.13719743490219116 195 62 127
-0.6837902665138245 0.1972854882478714 -0.1474156677722931 192 59 129
-0.6777083277702332 0.25271499156951904 -0.08730819076299667 190 56 131
-0.7218090295791626 0.33737632632255554 -0.062469735741615295 188 54 133
-0.6984099745750427 0.2882712483406067 0.0004718476557172835 186 52 135
-0.7204040288925171 0.2595844864845276 -0.01849789172410965 186 52 135
-0.7136939764022827 0.35170382261276245 0.007504618261009455 192 59 129
-0.6725621223449707 0.4208393096923828 0.04842623323202133 186 52 135
-0.6798572540283203 0.4761010408401489 0.12808090448379517 190 56 131
-0.749757707118988 0.40116387605667114 0.10455890744924545 193 60 128
-0.7982305288314819 0.2458556890487671 -0.0313146747648716 197 64 125
-0.7812957763671875 0.27173560857772827 0.014176604337990284 198 65 124
-0.7677507996559143 0.3706023097038269 0.05335346981883049 198 65 124
-0.7789084911346436 0.361447274684906 0.05122791975736618 196 63 126
-0.7751217484474182 0.2853423058986664 0.019107341766357422 193 60 128
-0.7724510431289673 0.29305875301361084 -0.0076035368256270885 193 60 128
-0.7466389536857605 0.32199063897132874 0.02272322028875351 193 60 128
-0.7597299218177795 0.27077850699424744 0.023268776014447212 193 60 128
-0.8052487969398499 0.2857075333595276 0.001584483776241541 191 57 130
-0.7872249484062195 0.2705754339694977 0.040587056428194046 191 57 130
-0.7274972200393677 0.29160815477371216 0.0008844525436870754 192 59 129
-0.6744916439056396 0.4742647409439087 0.15039950609207153 192 59 129
-0.5768558382987976 0.5946213603019714 0.2798987925052643 197 64 125
-0.5753319263458252 0.5163940191268921 0.31638869643211365 202 70 120
-0.6334837675094604 0.4731752574443817 0.27005985379219055 206 74 117
-0.6368481516838074 0.431600421667099 0.24044974148273468 197 64 125
-0.5841488838195801 0.497105211019516 0.28323233127593994 196 63 126
-0.5339047908782959 0.506560742855072 0.3274795711040497 186 52 135
-0.5294104814529419 0.4011329412460327 0.3161376416683197 184 50 137
-0.5499303936958313 0.34627392888069153 0.296184241771698 181 46 140
-0.6043373346328735 0.3309251368045807 0.2846015691757202 182 47 139
-0.6398924589157104 0.2103041559457779 0.26673492789268494 180 45 141
-0.6775636076927185 0.227369025349617 0.19828422367572784 181 46 140
-0.7246111035346985 0.23485393822193146 0.2545635402202606 167 33 151
-0.6816281080245972 0.21187052130699158 0.24368643760681152 176 42 143
-0.6550375819206238 0.1548972725868225 0.20778092741966248 172 37 147
-0.681932806968689 0.16196924448013306 0.17174845933914185 176 42 143
-0.6941735148429871 0.1837681084871292 0.18298053741455078 180 45 141
-0.7549444437026978 0.09332689642906189 0.15368402004241943 183 48 138
-0.7869206070899963 -0.04899270460009575 0.03195127472281456 186 52 135
-0.8077679872512817 -0.07858949154615402 -0.026872355490922928 190 56 131
-0.7824051976203918 -0.13570967316627502 -0.01819167658686638 201 69 121
-0.7443296909332275 -0.17984122037887573 -0.04189656302332878 201 69 121
-0.7030940055847168 -0.15222638845443726 -0.030572351068258286 199 66 123
-0.7268258333206177 -0.16067111492156982 -0.050436001271009445 197 64 125
-0.7543360590934753 -0.20117737352848053 -0.09264203906059265 194 61 128
-0.7616371512413025 -0.19774970412254333 -0.12526607513427734 192 59 129
-0.7827995419502258 -0.16209788620471954 -0.12797102332115173 188 54 133
-0.7979207634925842 -0.13889361917972565 -0.12416262924671173 185 51 136
-0.8147321939468384 -0.14863239228725433 -0.14272437989711761 178 44 142
-0.8259224891662598 -0.17685385048389435 -0.16205109655857086 181 46 140
-0.8173782229423523 -0.18749308586120605 -0.1966537982225418 173 38 146
-0.8168860673904419 -0.19238747656345367 -0.17095322906970978 163 29 153
-0.8248096704483032 -0.05259406194090843 -0.12794563174247742 164 30 152
-0.8238728046417236 -0.07138192653656006 -0.11744282394647598 165 31 151
-0.8164207339286804 -0.13592132925987244 -0.1747649908065796 150 18 160
-0.8184859752655029 -0.1685125231742859 -0.1886836588382721 149 17 161
-0.8144565224647522 -0.16003887355327606 -0.21588820219039917 146 15 162
-0.8122923374176025 -0.16736763715744019 -0.23636743426322937 147 16 161
-0.782536506652832 -0.2017345130443573 -0.2737998962402344 147 16 161
-0.810696542263031 -0.20026738941669464 -0.24124297499656677 144 14 163
-0.8048642873764038 -0.16121214628219604 -0.319131463766098 137 8 165
-0.8300871253013611 -0.14881199598312378 -0.34609419107437134 134 7 166
-0.8659536838531494 -0.15993058681488037 -0.35751399397850037 134 7 166
-0.8224707245826721 -0.2416372299194336 -0.38296765089035034 133 6 166
-0.7724389433860779 -0.25944140553474426 -0.44662922620773315 134 7 166
-0.7596906423568726 -0.2657414972782135 -0.4784110188484192 136 7 165
-0.8032301068305969 -0.204449862241745 -0.45066624879837036 142 12 164
-0.8216949105262756 -0.10964395105838776 -0.4326426386833191 151 19 160
-0.7873525023460388 -0.177931547164917 -0.46918562054634094 155 23 158
-0.7437123656272888 -0.21799851953983307 -0.4690270721912384 154 21 158
-0.6978718638420105 -0.22538164258003235 -0.5285049676895142 155 23 158
-0.6792290210723877 -0.19927021861076355 -0.5547881126403809 151 19 160
-0.7138093709945679 -0.11961449682712555 -0.5294568538665771 151 19 160
-0.7101524472236633 -0.09011106938123703 -0.5104604959487915 157 24 157
-0.6905978918075562 -0.07346802204847336 -0.500420093536377 159 26 155
-0.6746111512184143 -0.1672319620847702 -0.4930891990661621 163 29 153
-0.6286579966545105 -0.1996091902256012 -0.4871058464050293 168 34 150
-0.609957218170166 -0.26626089215278625 -0.48129841685295105 167 33 151
-0.6111274361610413 -0.2662558853626251 -0.49273937940597534 163 29 153
-0.6051595211029053 -0.3001095652580261 -0.4888056516647339 160 27 155
-0.6105489134788513 -0.3059068024158478 -0.4976954460144043 162 28 154
-0.5899021625518799 -0.3147026002407074 -0.5255886912345886 162 28 154
-0.5510858297348022 -0.3696606159210205 -0.5059700012207031 159 26 155
-0.6289911866188049 -0.24487915635108948 -0.4885585308074951 155 23 158
-0.6411207318305969 -0.31784749031066895 -0.5017665028572083 150 18 160
-0.6567724943161011 -0.3241879343986511 -0.48383140563964844 144 14 163
-0.727026104927063 -0.20739831030368805 -0.4290173053741455 139 9 164
-0.7556576728820801 -0.22333362698554993 -0.4080449938774109 134 7 166
-0.7391055226325989 -0.27129149436950684 -0.39797788858413696 130 4 167
-0.7675888538360596 -0.2638039290904999 -0.3840009570121765 136 7 165
-0.7862911224365234 -0.29223376512527466 -0.36214572191238403 142 12 164
-0.7658529877662659 -0.31842851638793945 -0.39215347170829773 143 13 163
-0.7327959537506104 -0.31551671028137207 -0.4169599115848541 146 15 162
-0.7233012318611145 -0.2555057406425476 -0.42706289887428284 147 16 161
-0.7096742391586304 -0.2662356197834015 -0.43448546528816223 153 20 159
-0.6717595458030701 -0.3413419723510742 -0.44556447863578796 155 23 158
-0.6757218837738037 -0.3016154170036316 -0.4475748538970947 158 25 156
-0.7233192920684814 -0.24182908236980438 -0.4071904718875885 163 29 153
-0.7148020267486572 -0.29608863592147827 -0.4109259247779846 167 33 151
-0.7072373628616333 -0.2735716700553894 -0.427478164434433 169 35 149
-0.7259747982025146 -0.2668173313140869 -0.4410696029663086 169 35 149
-0.7234235405921936 -0.26929256319999695 -0.43904849886894226 169 35 149
-0.7128525376319885 -0.2749086916446686 -0.4516925811767578 169 35 149
-0.6949495673179626 -0.2767428755760193 -0.47287246584892273 173 38 146
-0.7269620299339294 -0.22674903273582458 -0.45874953269958496 180 45 141
-0.7497559189796448 -0.2219148576259613 -0.4311971664428711 187 53 134
-0.7290414571762085 -0.23508329689502716 -0.4291166365146637 194 61 128
-0.7252931594848633 -0.24793434143066406 -0.4218141436576843 204 72 118
-0.6764576435089111 -0.30223414301872253 -0.44786202907562256 213 83 109
-0.6452026963233948 -0.35267341136932373 -0.44672250747680664 221 95 101
-0.6321060657501221 -0.3461017608642578 -0.44512102007865906 229 107 92
-0.6360334753990173 -0.3366122841835022 -0.46513399481773376 236 119 84
-0.6420124769210815 -0.35484418272972107 -0.4492356479167938 239 126 78
-0.6725437641143799 -0.31878384947776794 -0.4307858943939209 243 134 73
-0.6761499047279358 -0.36905384063720703 -0.4059372544288635 247 147 65
-0.6646546125411987 -0.39822232723236084 -0.38969308137893677 250 160 57
-0.7016052603721619 -0.38497453927993774 -0.33146119117736816 252 167 53
-0.7183291912078857 -0.3389589190483093 -0.295025497674942 252 173 49
-0.6783247590065002 -0.3660913109779358 -0.20694522559642792 253 187 43
-0.6301699280738831 -0.3974571228027344 -0.20932896435260773 252 199 38
-0.5803868770599365 -0.39043092727661133 -0.1508292704820633 252 203 37
-0.5462650656700134 -0.34626951813697815 -0.10164189338684082 252 206 37
-0.5012856721878052 -0.28365838527679443 -0.04483838379383087 252 203 37
-0.4342890977859497 -0.2818583548069 0.05661957338452339 252 201 38
-0.3924676179885864 -0.23325082659721375 0.07377806305885315 253 196 39
-0.30140671133995056 -0.19117191433906555 0.13844554126262665 253 192 41
-0.3280315399169922 -0.1391800045967102 0.13606512546539307 253 192 41
-0.34433841705322266 -0.10328508168458939 0.1340448260307312 253 185 43
-0.2966587245464325 -0.05576452612876892 0.2171303927898407 253 182 45
-0.2875368893146515 -0.09526847302913666 0.24554754793643951 253 182 45
-0.34598904848098755 -0.12752480804920197 0.12604038417339325 253 178 47
-0.34518855810165405 -0.223582461476326 0.10315649211406708 249 154 60
-0.34080615639686584 -0.23702311515808105 0.046625468879938126 251 162 56
-0.2716774046421051 -0.26454097032546997 0.04864198714494705 251 164 54
-0.24475185573101044 -0.33268988132476807 0.024272199720144272 250 159 58
-0.23159664869308472 -0.41575920581817627 -0.03428816422820091 247 146 65
-0.16317299008369446 -0.46272775530815125 -0.04843536391854286 246 145 66
-0.07557962834835052 -0.42396050691604614 0.00702497735619545 246 145 66
-0.02991689369082451 -0.37687766551971436 0.061142005026340485 246 143 67
0.002952472073957324 -0.3514274060726166 0.10608480870723724 247 146 65
0.025573471561074257 -0.3205200433731079 0.10969879478216171 247 147 65
0.04993757978081703 -0.30909934639930725 0.14353540539741516 247 147 65
0.05815414711833 -0.26034075021743774 0.17388828098773956 248 150 63
0.10297977179288864 -0.238020122051239 0.2040279358625412 247 147 65
0.12330562621355057 -0.20326657593250275 0.22068719565868378 245 139 70
0.11697915941476822 -0.23771890997886658 0.22928555309772491 245 141 69
0.10141800343990326 -0.24813587963581085 0.2076519876718521 243 135 72
0.09552440792322159 -0.2515510618686676 0.2018895298242569 242 133 74
0.0947149246931076 -0.23638541996479034 0.20097418129444122 242 132 75
0.07207921892404556 -0.27491068840026855 0.18636594712734222 240 129 77
0.047694314271211624 -0.2948566973209381 0.15277762711048126 239 125 79
0.022234274074435234 -0.30442726612091064 0.15448559820652008 239 125 79
-0.045829471200704575 -0.30830225348472595 0.1316472589969635 238 124 80
-0.07928936183452606 -0.3645860254764557 0.09892310202121735 239 125 79
-0.1338774412870407 -0.3790260851383209 0.011306379921734333 239 125 79
-0.16503244638442993 -0.4499681890010834 0.05296548083424568 239 126 78
-0.1212773397564888 -0.3703310489654541 0.060352712869644165 244 138 71
-0.07269936054944992 -0.33325764536857605 0.1395820826292038 242 133 74
-0.07826164364814758 -0.3530817925930023 0.1521720141172409 242 133 74
-0.12243220210075378 -0.31686243414878845 0.11793575435876846 242 133 74
-0.13237200677394867 -0.29968351125717163 0.17049719393253326 234 116 85
-0.09549815207719803 -0.33092746138572693 0.15449288487434387 227 103 95
-0.1061379611492157 -0.34912919998168945 0.14663836359977722 222 96 100
-0.11215738952159882 -0.33233752846717834 0.12250581383705139 218 90 104
-0.06583612412214279 -0.34333470463752747 0.14821434020996094 215 87 107
-0.03829174116253853 -0.34179285168647766 0.1433590054512024 214 85 109
-0.059927672147750854 -0.3561497628688812 0.12231549620628357 212 82 110
-0.03306177631020546 -0.3740864396095276 0.13657505810260773 211 81 111
-0.016704242676496506 -0.3525121510028839 0.13445591926574707 211 81 111
-0.01063352171331644 -0.34084552526474 0.1681201308965683 210 80 112
-0.029190845787525177 -0.3236444890499115 0.17266157269477844 211 81 111
-0.017315074801445007 -0.339580774307251 0.17568060755729675 212 82 110
-0.04219452664256096 -0.3634412884712219 0.1503942757844925 212 82 110
-0.09578868001699448 -0.39562612771987915 0.12175984680652618 212 82 110
-0.12755964696407318 -0.4322746992111206 0.0665026530623436 210 80 112
-0.13029147684574127 -0.4653427302837372 0.0380382239818573 208 77 115
-0.16966454684734344 -0.4883236885070801 -0.017723623663187027 206 74 117
-0.21912141144275665 -0.4791705012321472 -0.01978081837296486 202 70 120
-0.28914979100227356 -0.4598340094089508 -0.07706960290670395 197 64 125
-0.3351013958454132 -0.5153727531433105 -0.12571056187152863 191 57 130
-0.3501879572868347 -0.5271821022033691 -0.1604611873626709 188 54 133
-0.3472610414028168 -0.5012617111206055 -0.15725189447402954 187 53 134
-0.3158484995365143 -0.5011928081512451 -0.2021884024143219 185 51 136
-0.34015509486198425 -0.489152193069458 -0.23154966533184052 187 53 134
-0.37316206097602844 -0.5211902856826782 -0.26263299584388733 191 57 130
-0.36443015933036804 -0.523070752620697 -0.29326990246772766 195 62 127
-0.36023256182670593 -0.5341531038284302 -0.2936140298843384 201 69 121
-0.3210159242153168 -0.5073670744895935 -0.3240783214569092 204 72 118
-0.3376283347606659 -0.5452959537506104 -0.3225170373916626 219 91 103
-0.37534651160240173 -0.5449212193489075 -0.3569064736366272 208 77 115
-0.3652626574039459 -0.5750994086265564 -0.3384076952934265 209 79 113
-0.3632570207118988 -0.5599126815795898 -0.361352801322937 214 85 109
-0.39024609327316284 -0.5514912009239197 -0.3832612633705139 217 89 105
-0.4291791617870331 -0.5287293791770935 -0.37863731384277344 215 87 107
-0.38769450783729553 -0.5543799996376038 -0.40325310826301575 209 79 113
-0.36915960907936096 -0.5385799407958984 -0.4028075933456421 205 73 117
-0.3911755383014679 -0.536213219165802 -0.4122627079486847 201 69 121
-0.4220927953720093 -0.5438574552536011 -0.42821499705314636 199 66 123
-0.37946346402168274 -0.5258599519729614 -0.42716464400291443 196 63 126
-0.33786603808403015 -0.5356801152229309 -0.3868868350982666 196 63 126
-0.3549354672431946 -0.5257800221443176 -0.39829230308532715 192 59 129
-0.38441532850265503 -0.5524556040763855 -0.3889567255973816 195 62 127
-0.40022578835487366 -0.5089647769927979 -0.4096248745918274 189 55 132
-0.3501940667629242 -0.5104731917381287 -0.45462989807128906 173 38 146
-0.4172099530696869 -0.4952392876148224 -0.4230703115463257 182 47 139
-0.470375657081604 -0.5179414749145508 -0.4059687554836273 176 42 143
-0.49859121441841125 -0.5567958950996399 -0.39346224069595337 175 40 144
-0.5278976559638977 -0.5295361280441284 -0.4023524522781372 193 60 128
-0.5680335760116577 -0.505903959274292 -0.3756331503391266 189 55 132
-0.5723927617073059 -0.4784100651741028 -0.38689935207366943 183 48 138
-0.562105655670166 -0.5148192644119263 -0.3852252960205078 194 61 128
-0.5784914493560791 -0.5002881288528442 -0.3915625214576721 190 56 131
-0.593874454498291 -0.5125890374183655 -0.383674681186676 193 60 128
-0.6134937405586243 -0.45894208550453186 -0.3972920775413513 193 60 128
-0.6310027837753296 -0.4457463026046753 -0.38440245389938354 181 46 140
-0.6286553144454956 -0.4331287443637848 -0.4234241247177124 182 47 139
-0.5748549103736877 -0.4457252025604248 -0.43826737999916077 174 39 145
-0.5344041585922241 -0.45861953496932983 -0.4645368456840515 168 34 150
-0.5132735967636108 -0.46405696868896484 -0.5060564875602722 162 28 154
-0.493521124124527 -0.4570738673210144 -0.5041837096214294 155 23 158
-0.5154736042022705 -0.4116230905056 -0.5345633625984192 151 19 160
-0.5196108818054199 -0.3845076560974121 -0.5401934385299683 154 21 158
-0.5353004932403564 -0.376234769821167 -0.5302280187606812 150 18 160
-0.5206470489501953 -0.3407115340232849 -0.5401753187179565 143 13 163
-0.5251316428184509 -0.34083235263824463 -0.5484614968299866 130 4 167
-0.5140650272369385 -0.3486155867576599 -0.5641245245933533 126 3 167
-0.5180710554122925 -0.32471200823783875 -0.5549386739730835 120 1 168
-0.5046624541282654 -0.35835057497024536 -0.5482164621353149 118 1 168
-0.49600255489349365 -0.3348624110221863 -0.5720889568328857 117 0 168
-0.5076338052749634 -0.30797678232192993 -0.5568504929542542 118 1 168
-0.4981001317501068 -0.29737716913223267 -0.540147602558136 123 2 168
-0.478951632976532 -0.31739652156829834 -0.5643890500068665 121 1 168
-0.45288896560668945 -0.36052387952804565 -0.5688362121582031 121 1 168
-0.42053624987602234 -0.37059271335601807 -0.5748339295387268 121 1 168
-0.43090352416038513 -0.36486566066741943 -0.5480390787124634 123 2 168
-0.4583284854888916 -0.3394377827644348 -0.5199421644210815 121 1 168
-0.4331839680671692 -0.362480103969574 -0.5022038221359253 121 1 168
-0.3866272568702698 -0.37752071022987366 -0.5314306020736694 118 1 168
-0.37557271122932434 -0.40111786127090454 -0.5190733671188354 118 1 168
-0.3748747408390045 -0.39344528317451477 -0.5046212077140808 115 0 168
-0.37209174036979675 -0.38673800230026245 -0.5112593770027161 115 0 168
-0.41920116543769836 -0.3904002010822296 -0.492907851934433 115 0 168
-0.4248920977115631 -0.4009706974029541 -0.47319090366363525 115 0 168
-0.4363793432712555 -0.38303428888320923 -0.48087337613105774 115 0 168
-0.4039512276649475 -0.3794713318347931 -0.4986857771873474 115 0 168
-0.4430452287197113 -0.40654465556144714 -0.48352155089378357 118 1 168
-0.4512278139591217 -0.39313188195228577 -0.5009558796882629 126 3 167
-0.44265425205230713 -0.36518216133117676 -0.5289843082427979 126 3 167
-0.4749746024608612 -0.34511539340019226 -0.5150368809700012 132 5 166
-0.49020326137542725 -0.3212982714176178 -0.4896901249885559 133 6 166
-0.4697752892971039 -0.29780519008636475 -0.4805695712566376 137 8 165
-0.41464993357658386 -0.29006218910217285 -0.5219249725341797 139 9 164
-0.3900519907474518 -0.3878996968269348 -0.5153090357780457 137 8 165
-0.4379723072052002 -0.30872970819473267 -0.5099316239356995 133 6 166
-0.41665518283843994 -0.3477485179901123 -0.4974413812160492 136 7 165
-0.405987024307251 -0.360526978969574 -0.5116715431213379 133 6 166
-0.40243586897850037 -0.3878021538257599 -0.4988690912723541 137 8 165
-0.4425486624240875 -0.38756534457206726 -0.5106700658798218 140 10 164
-0.48064175248146057 -0.36801013350486755 -0.4761502146720886 143 13 163
-0.4772591292858124 -0.3871152997016907 -0.4937695562839508 149 17 161
-0.4935253858566284 -0.38603878021240234 -0.484676718711853 151 19 160
-0.5338978171348572 -0.3488272726535797 -0.45433199405670166 151 19 160
-0.5609582662582397 -0.3110005557537079 -0.4396073520183563 151 19 160
-0.5930280685424805 -0.2489062249660492 -0.43279290199279785 158 25 156
-0.6082678437232971 -0.20658978819847107 -0.4309717118740082 163 29 153
-0.5715199112892151 -0.26199474930763245 -0.46923404932022095 168 34 150
-0.5749555230140686 -0.3229694366455078 -0.441588431596756 168 34 150
-0.6205222010612488 -0.21680960059165955 -0.43029534816741943 165 31 151
-0.6350089311599731 -0.16057878732681274 -0.4491589665412903 157 24 157
-0.5445891618728638 -0.25407037138938904 -0.4226744771003723 143 13 163
-0.5099124312400818 -0.22605662047863007 -0.4612220227718353 153 20 159
-0.4842202067375183 -0.20396165549755096 -0.473484605550766 153 20 159
-0.49486100673675537 -0.16616703569889069 -0.44416090846061707 154 21 158
-0.516388475894928 -0.17171162366867065 -0.4580059349536896 155 23 158
-0.5271428227424622 -0.09309524297714233 -0.42658278346061707 151 19 160
-0.5356050729751587 -0.09481386840343475 -0.4095246493816376 150 18 160
-0.5354674458503723 -0.10560224950313568 -0.43212398886680603 144 14 163
-0.5615888237953186 -0.13026823103427887 -0.4057747721672058 151 19 160
-0.5738217234611511 -0.16772662103176117 -0.41784849762916565 162 28 154
