ply
format ascii 1.0
element vertex 808
property float x
property float y
property float z
end_header
-0.18311765789985657 0.043782588094472885 0.9821155071258545
0.09098604321479797 -0.3353640139102936 0.9376845955848694
0.25700387358665466 -0.3252243995666504 0.9100428819656372
0.1407247632741928 -0.6890656352043152 0.7109044194221497
0.37304046750068665 -0.7294949293136597 0.5733045339584351
0.18395382165908813 -0.9785555601119995 -0.09268293529748917
0.15646331012248993 -0.9783597588539124 -0.13539335131645203
0.35800665616989136 -0.93360435962677 0.014631344936788082
0.5373325347900391 -0.8416520357131958 0.053810253739356995
0.5529472827911377 -0.7831810116767883 0.28438857197761536
0.6338921189308167 -0.7089091539382935 0.30923891067504883
0.6444467902183533 -0.7128728628158569 0.27658724784851074
0.5441055297851562 -0.753350019454956 0.36934128403663635
0.566306471824646 -0.7849540710449219 0.2512848973274231
0.5361901521682739 -0.7563314437866211 0.3747837543487549
0.6580802202224731 -0.6869399547576904 0.3082919418811798
0.6466890573501587 -0.6943109035491943 0.3157937228679657
0.6205546855926514 -0.6801593899726868 0.3902500569820404
0.7327197790145874 -0.6690578460693359 0.1244320496916771
0.6736165285110474 -0.5872118473052979 0.448801726102829
0.7785177826881409 -0.43157151341438293 0.45569297671318054
0.763759970664978 -0.22233633697032928 0.6060011386871338
0.7653607726097107 -0.2635085880756378 0.5871849060058594
0.6594697833061218 -0.3508605659008026 0.6648281216621399
0.7657572627067566 -0.3998029828071594 0.5037592649459839
0.7554783821105957 -0.5873427391052246 0.2903115451335907
0.7348352670669556 -0.567146897315979 0.3719698488712311
0.7049420475959778 -0.5647447109222412 0.4290919303894043
0.7773159742355347 -0.45045825839042664 0.43916651606559753
0.5821042656898499 -0.4713045656681061 0.6625908613204956
0.3188760280609131 -0.16226492822170258 0.9338030815124512
0.18666556477546692 0.128229558467865 0.9740190505981445
0.3765910863876343 0.19179664552211761 0.9063074588775635
0.10820578038692474 0.20309802889823914 0.9731612205505371
-0.05294852331280708 0.47237956523895264 0.8798033595085144
-0.08434054255485535 0.5986379384994507 0.7965672016143799
-0.030489282682538033 0.55120450258255 0.8338130116462708
0.156537264585495 0.6189326047897339 0.769687294960022
0.10809444636106491 0.4515855610370636 0.8856557607650757
0.3403853178024292 0.09601575881242752 0.935370922088623
0.38755476474761963 0.06757573038339615 0.9193664789199829
0.3416839838027954 -0.2570975422859192 0.9039651155471802
0.5516260266304016 -0.5618497729301453 0.6164685487747192
0.5349222421646118 -0.6686931252479553 0.5164375901222229
0.39054739475250244 -0.6603196859359741 0.6414441466331482
0.15745440125465393 -0.42999568581581116 0.8889948129653931
0.20733100175857544 -0.35951852798461914 0.9098133444786072
-0.024117114022374153 -0.1664458066225052 0.9857556819915771
-0.15905942022800446 0.10377757996320724 0.9817994832992554
0.14335104823112488 -0.13460581004619598 0.9804752469062805
0.2167775183916092 -0.06000082939863205 0.9743753671646118
0.1675460934638977 -0.18235145509243011 0.9688530564308167
0.3976752460002899 -0.3578614890575409 0.8448606133460999
0.6873331069946289 -0.4739019274711609 0.5504453778266907
0.5797027945518494 -0.5076480507850647 0.6373681426048279
0.4968346357345581 -0.42606642842292786 0.7560574412345886
-0.05059051141142845 -0.3519378900527954 0.9346551895141602
0.023291239514946938 -0.3302093744277954 0.9436203241348267
0.11367366462945938 -0.5022106766700745 0.8572413325309753
0.23858509957790375 0.03312671184539795 0.970556378364563
0.32516971230506897 0.07145620137453079 0.9429520964622498
0.27352625131607056 -0.07334029674530029 0.9590644836425781
0.0743926614522934 0.06836260110139847 0.9948830604553223
0.3355007469654083 -0.008808743208646774 0.9419987797737122
0.8414294123649597 -0.18297992646694183 0.5084437131881714
0.7976260781288147 -0.3228308856487274 0.5094829201698303
0.5839478373527527 -0.5053332448005676 0.6353292465209961
0.7055767178535461 -0.5472288131713867 0.4502243995666504
0.8885518312454224 -0.355789452791214 0.28963688015937805
0.8118380904197693 -0.33376607298851013 0.47908157110214233
0.7024598717689514 -0.018930846825242043 0.7114714980125427
0.2554017901420593 0.2539810836315155 0.9328791499137878
0.18441680073738098 0.5359594225883484 0.8238555788993835
0.0930573046207428 0.5064935684204102 0.8572074174880981
0.11297468096017838 0.5100294947624207 0.8527054786682129
0.050100311636924744 0.19114843010902405 0.9802817106246948
0.2911309599876404 0.14005281031131744 0.9463762640953064
0.4270079433917999 0.040494319051504135 0.9033406972885132
0.526069700717926 -0.08893789350986481 0.8457781672477722
0.5114211440086365 -0.10688558965921402 0.8526569604873657
0.5235737562179565 -0.07016117125749588 0.8490864634513855
0.17429134249687195 0.10098880529403687 0.9795017838478088
0.04684211686253548 0.15145961940288544 0.9873529672622681
0.07331781834363937 0.229344442486763 0.9705800414085388
0.02869873121380806 0.08082879334688187 0.9963148236274719
-0.08104211091995239 0.24541808664798737 0.9660239219665527
-0.089157834649086 0.18030066788196564 0.9795624613761902
-0.15190498530864716 0.12387648224830627 0.9806016087532043
-0.12039914727210999 0.4058363735675812 0.90598064661026
-0.3927006721496582 0.17560599744319916 0.9027450680732727
-0.30001646280288696 0.26351621747016907 0.9168148040771484
-0.5691972374916077 0.18845094740390778 0.800312876701355
-0.7131189703941345 0.14168353378772736 0.6865764260292053
-0.7218655943870544 0.12536399066448212 0.6805835366249084
-0.5774469375610352 0.3296956419944763 0.7468975186347961
-0.7158792018890381 0.32688379287719727 0.6169797778129578
-0.6051981449127197 0.29735299944877625 0.7384554147720337
-0.6259769201278687 0.2940635681152344 0.7222737669944763
-0.7146276235580444 0.27200183272361755 0.644455075263977
-0.5643314719200134 0.25176671147346497 0.7862210273742676
-0.4208888113498688 0.47093239426612854 0.7752903699874878
-0.5489524602890015 0.3774641454219818 0.7457693815231323
-0.503307044506073 0.29749223589897156 0.8112831711769104
-0.4852842688560486 0.15360480546951294 0.8607582449913025
-0.5278431177139282 0.13265052437782288 0.8389192819595337
-0.3990144729614258 0.16142551600933075 0.9026235342025757
-0.49124157428741455 0.21481835842132568 0.8441177606582642
-0.38928741216659546 -0.07662447541952133 0.9179238080978394
-0.3798019289970398 0.15820066630840302 0.9114400744438171
-0.481870174407959 -0.033470526337623596 0.875603199005127
-0.134816512465477 -0.43544745445251465 0.8900617957115173
0.6004951596260071 -0.6384317874908447 0.48146694898605347
0.6770409941673279 -0.5659830570220947 0.4704027473926544
0.5786718130111694 -0.6589800715446472 0.48050400614738464
0.5489856600761414 -0.5849514603614807 0.5970314741134644
0.5990655422210693 -0.42416808009147644 0.6791185140609741
0.7392813563346863 -0.19428573548793793 0.6447604894638062
0.7573167085647583 -0.19523271918296814 0.6231818199157715
0.6572406888008118 -0.1227385401725769 0.7436195015907288
0.7719180583953857 -0.0724031999707222 0.6315854787826538
0.7988071441650391 -0.0049888393841683865 0.6015664935112
0.8177127838134766 0.37784910202026367 0.4342532753944397
0.3503529131412506 0.269342839717865 0.8970547318458557
0.5608107447624207 -0.28557753562927246 0.7771336436271667
0.2572052478790283 0.29857102036476135 0.9190760850906372
0.36373576521873474 -0.2828342318534851 0.8875252604484558
0.5096144080162048 -0.2825082242488861 0.8127005696296692
0.5109574198722839 -0.16159820556640625 0.8442798852920532
0.25171396136283875 -0.13297618925571442 0.9586226940155029
0.5368458032608032 -0.25698527693748474 0.8035889267921448
0.5040152668952942 -0.04003424569964409 0.862766444683075
0.37397488951683044 0.3275659382343292 0.8676654696464539
0.5055367946624756 0.14094412326812744 0.8512151837348938
0.5242802500724792 -0.10989795625209808 0.8444244265556335
0.600951075553894 -0.20804649591445923 0.7717347145080566
0.7514104247093201 -0.3110502362251282 0.581919252872467
0.8053244352340698 -0.451043963432312 0.3847232758998871
0.5664644837379456 -0.64134281873703 0.5174915194511414
0.35376590490341187 -0.9145705699920654 0.19598568975925446
0.056979354470968246 -0.9942567348480225 0.09059182554483414
-0.1821577101945877 -0.9536546468734741 0.23950232565402985
-0.1217786893248558 -0.6422668695449829 0.7567451596260071
-0.17846952378749847 -0.49197253584861755 0.852121889591217
-0.14655743539333344 -0.7406050562858582 0.6557629704475403
0.371456503868103 -0.684428870677948 0.6273573040962219
0.5242988467216492 -0.7684856057167053 0.3667977750301361
0.26211369037628174 -0.950857937335968 0.16481968760490417
0.2920261323451996 -0.9543567895889282 -0.06264030188322067
0.42441120743751526 -0.9033073782920837 0.06253647059202194
0.08925536274909973 -0.9930612444877625 0.07656864076852798
-0.18950000405311584 -0.9369539022445679 0.29361027479171753
-0.3121090829372406 -0.9081191420555115 0.2791193425655365
-0.5319414734840393 -0.7559596300125122 0.38152751326560974
-0.630470871925354 -0.6955094337463379 0.3446345329284668
-0.3786616325378418 -0.8592586517333984 0.34393325448036194
-0.3314237892627716 -0.8700721263885498 0.364873468875885
-0.3313662111759186 -0.7820055484771729 0.5278862118721008
-0.21102944016456604 -0.8219037652015686 0.5290943384170532
-0.050168510526418686 -0.8703829050064087 0.48981285095214844
0.36486348509788513 -0.9112597703933716 -0.19099822640419006
0.37659287452697754 -0.8834452629089355 0.2787509560585022
0.09180820733308792 -0.8391004800796509 0.5361731648445129
-0.07206646353006363 -0.9521051049232483 0.2971571087837219
-0.23650816082954407 -0.8953074216842651 0.37747660279273987
-0.40146392583847046 -0.7508707046508789 0.5244234800338745
-0.47675633430480957 -0.8063594102859497 0.34998270869255066
-0.4954985976219177 -0.7411684393882751 0.45293527841567993
-0.5085062980651855 -0.8118928074836731 0.28679510951042175
-0.42810380458831787 -0.8289505839347839 0.35995563864707947
-0.5092703104019165 -0.7890458106994629 0.34358465671539307
-0.611221194267273 -0.7265136241912842 0.3139851689338684
-0.35056692361831665 -0.8454459309577942 0.4028944969177246
-0.40708306431770325 -0.8496013283729553 0.3353520631790161
-0.3607013523578644 -0.7695912718772888 0.5269001722335815
-0.3180358111858368 -0.8774172067642212 0.35915496945381165
-0.3726685047149658 -0.7797449827194214 0.503106415271759
-0.31880247592926025 -0.8464887142181396 0.426405668258667
-0.14958003163337708 -0.9180523753166199 0.3671589195728302
-0.34198686480522156 -0.8562018275260925 0.38725098967552185
-0.38367965817451477 -0.7469533085823059 0.5430014729499817
-0.19397394359111786 -0.7371412515640259 0.6472996473312378
-0.057831138372421265 -0.8794932961463928 0.47238442301750183
0.16611455380916595 -0.21440894901752472 0.9625148177146912
-0.17786696553230286 -0.3623851537704468 0.9148991107940674
-0.4606016278266907 -0.4976283311843872 0.7349912524223328
-0.6446745991706848 -0.6042420268058777 0.468280166387558
-0.6985766291618347 -0.5093774199485779 0.5025190114974976
-0.607782244682312 -0.5017294883728027 0.6155226826667786
-0.5365114808082581 -0.7341069579124451 0.41622403264045715
-0.233816996216774 -0.8786399960517883 0.4163186252117157
-0.1847480982542038 -0.9424892067909241 0.2785358428955078
0.03780128434300423 -0.9674674868583679 0.25015559792518616
0.211709126830101 -0.9633827209472656 0.1645386517047882
0.31771427392959595 -0.9477291107177734 0.029447415843605995
0.39137816429138184 -0.9096391201019287 0.13921143114566803
0.1196315661072731 -0.9836432337760925 0.13466356694698334
-0.08253081142902374 -0.9741828441619873 0.2101343721151352
-0.21905243396759033 -0.944893479347229 0.24329505860805511
-0.44239526987075806 -0.8866130709648132 0.13492055237293243
-0.3729741871356964 -0.8779957890510559 0.3000227212905884
-0.2822071313858032 -0.8327756524085999 0.4762813150882721
-0.22677236795425415 -0.9610123038291931 0.1582077592611313
0.07438969612121582 -0.9496184587478638 0.3044520318508148
0.2586125135421753 -0.9476885199546814 0.18709927797317505
0.4603412449359894 -0.8873937129974365 -0.024866687133908272
0.7777414917945862 -0.6275832653045654 0.03545844927430153
0.7332844734191895 -0.6775072813034058 0.057252053171396255
0.5221580266952515 -0.851266622543335 0.051922507584095
0.2927719056606293 -0.9524862170219421 0.08399166911840439
0.25013330578804016 -0.9660432934761047 0.06475844234228134
0.05401229113340378 -0.9602704644203186 -0.27379441261291504
-0.044867873191833496 -0.9964805841445923 0.0708044171333313
-0.10338731855154037 -0.99294513463974 0.05806073546409607
-6.350640614982694e-05 -0.9917711019515991 0.12802335619926453
0.05812454968690872 -0.9923964142799377 -0.10849417746067047
-0.02282879874110222 -0.9897379875183105 0.14105893671512604
-0.10031426697969437 -0.9749361872673035 0.19858601689338684
-0.017399821430444717 -0.9826414585113525 0.1846970170736313
-0.08130119740962982 -0.9748952984809875 -0.20728980004787445
-0.07367963343858719 -0.9928710460662842 -0.09369376301765442
-0.2460167407989502 -0.9299628734588623 0.2732119560241699
-0.3387949466705322 -0.9147277474403381 0.22020699083805084
-0.1791221797466278 -0.9419255256652832 0.28406262397766113
-0.2455792874097824 -0.8960047960281372 0.36995434761047363
-0.4018254578113556 -0.8750805854797363 0.2697596549987793
-0.3038569390773773 -0.890676736831665 0.33818042278289795
-0.3104241192340851 -0.8707771897315979 0.38129255175590515
-0.2968530058860779 -0.8802649974822998 0.3701510429382324
-0.3266441524028778 -0.8891586661338806 0.3204689621925354
-0.495525985956192 -0.8308714628219604 0.2531926929950714
-0.6500107645988464 -0.6622637510299683 0.3726831376552582
-0.6557357907295227 -0.7042040228843689 0.2722266614437103
-0.6385484337806702 -0.694050669670105 0.3324901759624481
-0.6247398853302002 -0.6999930143356323 0.34599101543426514
-0.6462163925170898 -0.7126564383506775 0.2729929983615875
-0.6026186943054199 -0.6654886603355408 0.44042667746543884
-0.580724835395813 -0.751902163028717 0.31209251284599304
-0.44287165999412537 -0.837566077709198 0.31991830468177795
-0.4911987781524658 -0.8271918892860413 0.2729053795337677
-0.46990257501602173 -0.8005010485649109 0.3720077574253082
-0.4342062771320343 -0.8843358159065247 0.17150826752185822
-0.6331498622894287 -0.7622913122177124 0.13428768515586853
-0.37014544010162354 -0.906132698059082 0.20473366975784302
-0.2325979471206665 -0.9496111869812012 0.21008755266666412
-0.23629574477672577 -0.9660314321517944 0.10463039577007294
-0.08217917382717133 -0.9738001227378845 0.21203765273094177
-0.16519518196582794 -0.9420700073242188 0.29191556572914124
-0.3115651309490204 -0.9470859169960022 0.07717089354991913
-0.13166043162345886 -0.9755635261535645 0.17590151727199554
-0.1419954001903534 -0.9896944165229797 0.018500681966543198
-0.1018591970205307 -0.9832050800323486 0.1514345407485962
-0.02536180429160595 -0.9856148362159729 0.1670933961868286
-0.16872546076774597 -0.9704221487045288 0.17266328632831573
-0.13774682581424713 -0.9760448932647705 0.16841068863868713
-0.23393571376800537 -0.9597694873809814 0.15529517829418182
-0.25730496644973755 -0.91757732629776 0.30306118726730347
-0.20977327227592468 -0.8495052456855774 0.4840826094150543
-0.23229452967643738 -0.8786898851394653 0.41706496477127075
-0.2262158840894699 -0.9069175720214844 0.3554249405860901
-0.13935397565364838 -0.9901542663574219 -0.013227789662778378
-0.1048358902335167 -0.9818010926246643 0.15835416316986084
-0.18711531162261963 -0.9656028747558594 0.18055157363414764
-0.23058101534843445 -0.9527424573898315 0.19777336716651917
-0.16674530506134033 -0.9844703674316406 0.05490050092339516
-0.22063472867012024 -0.9746308922767639 -0.03761567920446396
-0.23500920832157135 -0.9143455624580383 0.3297617733478546
-0.2311759740114212 -0.9431748986244202 0.23870216310024261
0.00785795133560896 -0.991991400718689 0.12606047093868256
0.02546834945678711 -0.9986377358436584 0.045541372150182724
-0.1357455998659134 -0.9785118699073792 0.1552017629146576
-0.19696146249771118 -0.9426610469818115 0.26943689584732056
-0.3395657539367676 -0.9277867674827576 0.15461841225624084
-0.1624462902545929 -0.9584505558013916 0.23448602855205536
-0.3815132677555084 -0.9241668581962585 0.019059129059314728
-0.37587928771972656 -0.912156879901886 0.16335429251194
-0.1394210308790207 -0.9610939621925354 0.23845361173152924
-0.41200166940689087 -0.9096818566322327 -0.052283234894275665
-0.22603155672550201 -0.974058985710144 -0.010903426446020603
-0.154899463057518 -0.9644939303398132 0.21391066908836365
-0.12185492366552353 -0.9871644973754883 0.10323625057935715
0.12447316199541092 -0.988986074924469 -0.08008068799972534
0.2035154402256012 -0.9720079898834229 0.11739613115787506
0.18235404789447784 -0.9692899584770203 0.1649969071149826
0.43733838200569153 -0.8973490595817566 -0.05915921553969383
0.5504493117332458 -0.8239231109619141 -0.1347455233335495
0.44575899839401245 -0.8944564461708069 0.03530801832675934
0.06039033457636833 -0.9908292889595032 0.12087269872426987
-0.11461108177900314 -0.93503737449646 0.3355134129524231
-0.413990318775177 -0.695131242275238 0.5877113938331604
-0.7603777647018433 -0.4171561300754547 0.49780160188674927
-0.6289293766021729 -0.7315523624420166 0.26320886611938477
-0.3034168779850006 -0.5006960034370422 0.8107044696807861
-0.0910179391503334 -0.839681088924408 0.5353983640670776
0.2399328052997589 -0.9489638805389404 0.20469434559345245
0.2858313024044037 -0.9393923282623291 0.18932147324085236
0.2798285484313965 -0.9598531723022461 -0.01943780668079853
0.46960464119911194 -0.8809617757797241 0.05811860412359238
0.3461671471595764 -0.9356579780578613 -0.06864708662033081
0.37437573075294495 -0.9201363921165466 0.11485648900270462
0.42053544521331787 -0.9068276882171631 -0.02852397970855236
0.47785452008247375 -0.8692836761474609 0.1264948844909668
0.5677330493927002 -0.8212334513664246 -0.057050902396440506
0.42852723598480225 -0.9011099934577942 -0.06606842577457428
0.2552008628845215 -0.957233190536499 0.13629816472530365
0.23252363502979279 -0.9626713395118713 0.13855254650115967
0.021004827693104744 -0.9851344227790833 -0.1704965978860855
0.07034141570329666 -0.9915136098861694 -0.10932900756597519
0.044497210532426834 -0.9985321164131165 0.030878182500600815
0.017470763996243477 -0.9969504475593567 -0.07605650275945663
0.18863892555236816 -0.9775459170341492 -0.09391123056411743
0.3175356090068817 -0.9462903141975403 -0.060875050723552704
0.43739187717437744 -0.8981127738952637 0.045627303421497345
0.5523931980133057 -0.8101881742477417 -0.19610407948493958
0.5366484522819519 -0.8437573313713074 -0.009056724607944489
0.31765902042388916 -0.9137395024299622 0.2533237636089325
0.25041472911834717 -0.8012620210647583 0.543389081954956
0.14175155758857727 -0.5895118713378906 0.795224666595459
-0.17181198298931122 -0.5687683820724487 0.8043525815010071
-0.522550106048584 -0.6927171349525452 0.49707573652267456
-0.1732567399740219 -0.6769605278968811 0.7153366804122925
-0.3405989408493042 -0.6970006227493286 0.6310170292854309
-0.7208078503608704 -0.6318883299827576 0.28487423062324524
-0.14279955625534058 -0.9301434755325317 0.3382919132709503
0.18228304386138916 -0.9518677592277527 0.246415376663208
0.3883059322834015 -0.9214864373207092 0.009013294242322445
0.5875043272972107 -0.8089908361434937 0.019301434978842735
0.6984384059906006 -0.7113276720046997 0.07871893048286438
0.658017098903656 -0.7506264448165894 0.05977901071310043
0.5941078662872314 -0.799488365650177 0.08862441778182983
0.5527829527854919 -0.8329142928123474 -0.026169870048761368
0.5855201482772827 -0.8102545142173767 -0.025569315999746323
0.540283739566803 -0.8414629101753235 -0.005803488660603762
0.46805045008659363 -0.8797385096549988 0.08360045403242111
0.30704614520072937 -0.9516865015029907 -0.00392572209239006
0.29536694288253784 -0.9541041851043701 -0.049433089792728424
0.2510250210762024 -0.949001133441925 -0.1907442957162857
0.45027998089790344 -0.8928713798522949 0.005345895886421204
0.335860937833786 -0.9289472699165344 0.1557380110025406
0.32328128814697266 -0.9454925060272217 0.0391554981470108
0.4023006856441498 -0.9146777987480164 -0.03896971046924591
0.36393749713897705 -0.9298802614212036 0.05359414592385292
0.3820415735244751 -0.8955484628677368 0.22811637818813324
0.3541705012321472 -0.8942131400108337 -0.27376288175582886
0.4148832857608795 -0.9072732925415039 -0.06875350326299667
0.514962911605835 -0.8418289422988892 0.16167041659355164
0.5183236002922058 -0.8531880378723145 0.058402564376592636
0.6979734897613525 -0.7157302498817444 0.02373279072344303
0.7246896624565125 -0.6564895510673523 -0.20939521491527557
0.7461137771606445 -0.6553462147712708 0.11762437969446182
0.7273273468017578 -0.6581876873970032 0.19438078999519348
0.7570648193359375 -0.642936646938324 0.11612612754106522
0.5112400650978088 -0.674877941608429 0.5321404337882996
0.3020637035369873 -0.7703832983970642 0.5614866018295288
0.36831361055374146 -0.53734290599823 0.7586881518363953
0.13089494407176971 -0.6032091379165649 0.7867688536643982
-0.09850797802209854 -0.9020364284515381 0.4202693998813629
0.08554656058549881 -0.8699985146522522 0.4855763912200928
-0.026184916496276855 -0.9449130892753601 0.3262723982334137
0.3292773365974426 -0.7683285474777222 0.5488602519035339
0.33443474769592285 -0.885704517364502 0.3219951093196869
0.40568795800209045 -0.9132646322250366 -0.03694472089409828
0.5745607614517212 -0.7916313409805298 0.20784558355808258
0.679528534412384 -0.7136610150337219 0.17008545994758606
0.7130857110023499 -0.7007249593734741 0.022207502275705338
0.5421432256698608 -0.5247939229011536 0.6562561392784119
0.4238443672657013 -0.6577184796333313 0.6227056384086609
0.42885953187942505 -0.49360236525535583 0.7565951347351074
0.17043109238147736 -0.8725239038467407 0.4578813314437866
0.3960971236228943 -0.8083493113517761 0.4355210065841675
0.1377807855606079 -0.9856548309326172 0.09747330099344254
0.19182243943214417 -0.978115439414978 -0.08058664947748184
0.33602026104927063 -0.9408830404281616 -0.042772118002176285
0.194736048579216 -0.9806147217750549 -0.021740801632404327
0.2308434695005417 -0.9728502631187439 0.01654140092432499
0.15363812446594238 -0.9761145114898682 -0.15360920131206512
0.20497894287109375 -0.9787309169769287 -0.008325998671352863
0.19693569839000702 -0.9793877005577087 0.044901687651872635
0.23939141631126404 -0.9706900119781494 0.02127617970108986
0.42690637707710266 -0.8996630311012268 -0.09141833335161209
0.46952390670776367 -0.8755151033401489 -0.11410778760910034
0.47776514291763306 -0.8701889514923096 -0.12046487629413605
0.499747097492218 -0.8605349063873291 -0.09865325689315796
0.5811957120895386 -0.7984238862991333 -0.15726062655448914
0.5955899357795715 -0.7989214658737183 -0.08364881575107574
0.5626273155212402 -0.8169867992401123 -0.12642432749271393
0.532821774482727 -0.8274838924407959 -0.17711974680423737
0.487140029668808 -0.8705830574035645 0.06913633644580841
0.286788672208786 -0.9579272866249084 0.01130087859928608
0.2523598372936249 -0.9418120384216309 0.22204621136188507
0.14645475149154663 -0.9883235692977905 -0.04204164445400238
0.08154696971178055 -0.955834686756134 0.2823653519153595
0.1197681576013565 -0.7869455218315125 0.6052869558334351
0.14076688885688782 -0.744972825050354 0.6520737409591675
0.28419697284698486 -0.4126642346382141 0.8654133677482605
-0.0470128133893013 -0.6893062591552734 0.7229430675506592
0.05335885286331177 -0.6189146637916565 0.7836437225341797
-0.16631387174129486 -0.9780303239822388 0.12568359076976776
0.06667538732290268 -0.9771794676780701 0.2016797661781311
0.2996116876602173 -0.8691225647926331 0.3935210108757019
0.2233126312494278 -0.9286280870437622 0.2962791323661804
0.22586689889431 -0.9734889268875122 0.03610174357891083
0.26964688301086426 -0.9588294625282288 0.08908785134553909
0.21777129173278809 -0.9753215909004211 -0.036381546407938004
0.29389825463294983 -0.9541153311729431 0.05733742192387581
0.25624874234199524 -0.9645768404006958 0.06267444044351578
0.30312636494636536 -0.9528422355651855 -0.014356646686792374
0.5023220181465149 -0.8625515103340149 0.06064199283719063
0.509333074092865 -0.8571179509162903 -0.07699767500162125
0.4056733250617981 -0.8869545459747314 -0.2207733541727066
0.3617534041404724 -0.9046763777732849 -0.22515566647052765
0.3826752305030823 -0.920112133026123 -0.08338702470064163
0.5612630248069763 -0.7944034337997437 -0.23217874765396118
0.7092230319976807 -0.6922116279602051 -0.13358734548091888
0.7236488461494446 -0.6896422505378723 -0.026941698044538498
0.7692957520484924 -0.6073852777481079 -0.19815920293331146
0.7626392245292664 -0.6465092897415161 0.020176632329821587
0.7673882842063904 -0.6391116380691528 0.051492612808942795
0.7583684325218201 -0.6156507134437561 -0.21412982046604156
0.736169695854187 -0.6767964959144592 0.0007849556277506053
0.6720495223999023 -0.7369904518127441 -0.07207281142473221
0.6817935109138489 -0.6935853958129883 -0.23258750140666962
0.7020196318626404 -0.7121404409408569 -0.00494826165959239
0.6333893537521362 -0.7669341564178467 -0.1031012013554573
0.5665799379348755 -0.8031193017959595 -0.1843542903661728
0.5423135757446289 -0.8371899724006653 0.07077320665121078
0.5668611526489258 -0.8216613531112671 0.05950705334544182
0.5337948203086853 -0.7932338118553162 0.29299023747444153
0.5958810448646545 -0.8028513789176941 -0.018854135647416115
0.4963633418083191 -0.8632792830467224 -0.0915001630783081
0.37711483240127563 -0.9190999269485474 0.11419129371643066
0.2543101906776428 -0.903477668762207 0.3450426161289215
0.16317975521087646 -0.7572547793388367 0.6324061155319214
-0.020584365352988243 -0.455881804227829 0.8898022770881653
-0.25844606757164 -0.5152677893638611 0.8171320557594299
-0.25316548347473145 -0.7121421098709106 0.6547982692718506
-0.24703474342823029 -0.7499715685844421 0.6136093139648438
-0.20554479956626892 -0.5271996855735779 0.8245070576667786
-0.27878838777542114 -0.7393185496330261 0.6129316687583923
-0.08374134451150894 -0.6755615472793579 0.7325326204299927
0.20754586160182953 -0.652125358581543 0.7291483283042908
0.003596324473619461 -0.6102263927459717 0.792218804359436
0.21755161881446838 -0.3887717127799988 0.8952808380126953
0.0034000566229224205 -0.3047788143157959 0.9524170756340027
0.03489285334944725 -0.19822368025779724 0.9795355200767517
0.03262258321046829 -0.07310187816619873 0.9967908263206482
0.2065095156431198 -0.09432360529899597 0.97388756275177
-0.03286758437752724 -0.37663570046424866 0.9257782101631165
0.3275793790817261 -0.32896706461906433 0.8857044577598572
0.3605822026729584 -0.8001545667648315 0.47930479049682617
0.3364672064781189 -0.9391620755195618 -0.06902524083852768
0.5318636894226074 -0.7967689037322998 0.28684553503990173
0.43793755769729614 -0.8989306092262268 0.011593086645007133
0.47419485449790955 -0.8767333626747131 0.0804855227470398
0.5474503040313721 -0.7185032367706299 0.42901191115379333
0.6184192895889282 -0.784400224685669 0.04768464341759682
0.5145202279090881 -0.8535518646240234 -0.0819643884897232
0.3734561800956726 -0.9273725748062134 0.022595681250095367
0.35098302364349365 -0.9362425208091736 -0.016153298318386078
0.49826329946517944 -0.867003321647644 0.006241054739803076
0.4965124726295471 -0.8023264408111572 0.33128172159194946
0.6490973234176636 -0.7606402039527893 -0.009955279529094696
0.6128008961677551 -0.7870866656303406 0.0704965591430664
0.7183610796928406 -0.6956704258918762 -0.0002580952423159033
0.7988115549087524 -0.5721585154533386 -0.18583492934703827
0.7492265701293945 -0.6517260670661926 0.1179518848657608
0.4525410532951355 -0.771301805973053 0.44754907488822937
0.5442838072776794 -0.654593825340271 0.5246542096138
0.5686728954315186 -0.716389536857605 0.40422412753105164
0.5405570268630981 -0.5882832407951355 0.6014323830604553
0.6116593480110168 -0.6451892852783203 0.4578248858451843
0.6164296865463257 -0.7865481972694397 0.03682819381356239
0.49433937668800354 -0.8417565822601318 0.21696674823760986
0.5702998638153076 -0.8059468865394592 0.15876926481723785
0.6374509930610657 -0.7285159826278687 0.25084012746810913
0.6227455139160156 -0.715287446975708 0.317099004983902
0.5469391942024231 -0.8322529196739197 0.09062404930591583
0.4685896635055542 -0.8750824332237244 -0.12105565518140793
0.52433842420578 -0.8511953353881836 -0.02314753830432892
0.5622138977050781 -0.8235066533088684 -0.07584431022405624
0.6177127957344055 -0.7699706554412842 -0.15992538630962372
0.5992844104766846 -0.7963060140609741 -0.08218763023614883
0.5891310572624207 -0.801498293876648 -0.1025921106338501
0.6828924417495728 -0.7011479735374451 -0.2050597071647644
0.8157170414924622 -0.5782375335693359 -0.015721315518021584
0.8186337947845459 -0.573635995388031 0.027936236932873726
0.8037997484207153 -0.5712671875953674 -0.16601131856441498
0.733109176158905 -0.6692624092102051 0.12099126726388931
0.6856654286384583 -0.7277545928955078 0.015369459986686707
0.5205720067024231 -0.825480580329895 -0.2181437760591507
0.37758198380470276 -0.9242494702339172 0.056521572172641754
0.264375776052475 -0.8621322512626648 0.4322423040866852
0.20365028083324432 -0.9176952838897705 0.3411185145378113
0.10519929975271225 -0.9254411458969116 0.36399415135383606
0.011558262631297112 -0.9987346529960632 -0.04894448444247246
0.004096978809684515 -0.9996618628501892 0.0256804171949625
0.08880875259637833 -0.9351934194564819 0.34282130002975464
0.3392024040222168 -0.8831315040588379 0.32406845688819885
0.6995745301246643 -0.6601971387863159 -0.27337726950645447
0.6019364595413208 -0.789925754070282 -0.11700354516506195
0.7004762291908264 -0.6799848079681396 0.21668784320354462
0.9040486216545105 -0.3889174461364746 0.1773114651441574
0.9457239508628845 -0.14938074350357056 -0.28860294818878174
0.9214774370193481 -0.2831823527812958 0.26587048172950745
0.9411712288856506 -0.11260166764259338 0.31861844658851624
0.7142922282218933 0.22637870907783508 0.6622229814529419
0.8916637897491455 -0.23947352170944214 0.38417190313339233
0.9291990399360657 -0.369480699300766 -0.008554767817258835
0.5530610084533691 -0.8330442905426025 0.01267209742218256
0.48175880312919617 -0.8753495216369629 0.04088569059967995
0.7030379176139832 -0.6963384747505188 0.14439737796783447
0.5639944076538086 -0.6960598230361938 -0.44430971145629883
0.48826876282691956 -0.8041995763778687 -0.33890509605407715
0.46159636974334717 -0.861822247505188 -0.2102167010307312
0.442464679479599 -0.8566563129425049 -0.26526376605033875
0.7025251984596252 -0.6989733576774597 -0.13377048075199127
0.7882670164108276 -0.6147798895835876 0.026091909036040306
0.7543489336967468 -0.6547315716743469 0.04779292270541191
0.6334484219551086 -0.7176730632781982 -0.289289653301239
0.4921066462993622 -0.8015974760055542 0.3395180404186249
0.6422553658485413 -0.7396226525306702 0.20116282999515533
0.806761622428894 -0.5904727578163147 -0.021852346137166023
0.5250291228294373 -0.8458303213119507 0.09442157298326492
0.15340909361839294 -0.8643198609352112 0.47897469997406006
0.27966785430908203 -0.8209747672080994 0.4977814257144928
0.35384389758110046 -0.7695725560188293 0.5315567255020142
0.47405463457107544 -0.7803738117218018 0.4077853858470917
0.4560502767562866 -0.715187668800354 0.5296458601951599
0.407666951417923 -0.773706316947937 0.4849599301815033
0.44990408420562744 -0.7923284769058228 0.4120701849460602
0.5999417901039124 -0.7308101654052734 0.32555538415908813
0.6237353682518005 -0.6933574080467224 0.36084580421447754
0.5821262001991272 -0.7753919959068298 0.24473722279071808
0.6351698637008667 -0.7390415072441101 0.22444801032543182
0.6802506446838379 -0.5780232548713684 0.4507196247577667
0.9011048078536987 -0.3597758710384369 0.24201533198356628
0.922972559928894 -0.03894610330462456 -0.3828900158405304
0.9471226334571838 -0.29220250248908997 0.13257603347301483
0.8829938769340515 -0.35418272018432617 0.30802014470100403
0.9892522096633911 -0.09232097864151001 0.1133880689740181
0.8334491848945618 -0.08508747071027756 0.5460060238838196
0.1951638162136078 0.2697727382183075 0.9429389238357544
0.15017357468605042 0.422333300113678 0.8939141035079956
0.26422420144081116 0.6976332664489746 0.6659530401229858
-0.34536829590797424 0.9368430376052856 -0.05519062653183937
-0.17056502401828766 0.14101965725421906 0.9752030372619629
-0.02271118015050888 -0.44345274567604065 0.8960099220275879
0.4924625754356384 -0.731421172618866 0.4717029631137848
0.5282172560691833 -0.8477469682693481 -0.04808073118329048
0.2664051949977875 -0.9248690009117126 0.2713772654533386
0.18779562413692474 -0.7989908456802368 0.5712673664093018
0.4806782305240631 -0.7073035836219788 0.5183339715003967
0.8467714190483093 -0.5109635591506958 -0.1479673832654953
0.6767276525497437 -0.7278177738189697 0.11100012063980103
0.5187917947769165 -0.8548951745033264 -0.0030512006487697363
0.35525548458099365 -0.9340030550956726 0.0378405824303627
0.5068932771682739 -0.859615683555603 -0.06418819725513458
0.4305538833141327 -0.8808423280715942 -0.19682517647743225
0.36170604825019836 -0.9194201231002808 -0.15438738465309143
0.26610323786735535 -0.9425736665725708 -0.20185141265392303
0.23081575334072113 -0.951898992061615 -0.2015254646539688
0.29963621497154236 -0.9052563309669495 -0.3012128174304962
0.2828955352306366 -0.9355316758155823 -0.21154332160949707
0.32175853848457336 -0.8993316888809204 -0.29609790444374084
0.4550231993198395 -0.8772027492523193 -0.15319624543190002
0.5308993458747864 -0.8344719409942627 -0.14765632152557373
0.5191901326179504 -0.8546470999717712 0.0044656479731202126
0.35920435190200806 -0.933197557926178 -0.010709095746278763
0.20172902941703796 -0.7833204865455627 0.5879749059677124
-0.06431964039802551 -0.8568893671035767 0.5114719867706299
0.18453797698020935 -0.8874620795249939 0.42232298851013184
-0.2499600201845169 -0.9319931268692017 0.26250481605529785
0.09641467034816742 -0.9507604837417603 0.2945483922958374
0.14555266499519348 -0.9850438237190247 -0.0922127440571785
0.14645791053771973 -0.9610700607299805 -0.23429565131664276
0.3881683945655823 -0.9141809940338135 -0.11661186069250107
0.440074622631073 -0.875638484954834 -0.19897642731666565
0.47668740153312683 -0.8691478967666626 -0.13172301650047302
0.46025559306144714 -0.8829835057258606 -0.09222215414047241
0.4541347324848175 -0.8904068470001221 -0.03061489574611187
0.4749225974082947 -0.8765087723731995 -0.07861816883087158
0.4423469603061676 -0.864425003528595 -0.23895300924777985
0.44857117533683777 -0.8856004476547241 -0.12039850652217865
0.4337950348854065 -0.8975000977516174 -0.07947012782096863
0.5027720928192139 -0.7661906480789185 -0.4002149999141693
0.5894027948379517 -0.7911460995674133 -0.163377583026886
0.5467107892036438 -0.8351916074752808 -0.05968547612428665
0.6766906380653381 -0.6656017899513245 -0.31474438309669495
0.8143551349639893 -0.579109251499176 -0.038186535239219666
0.7773282527923584 -0.6285277605056763 -0.02671452984213829
0.7159244418144226 -0.6847166419029236 -0.1364382803440094
0.7653729319572449 -0.6434710025787354 -0.0122190797701478
0.820231020450592 -0.534497857093811 0.20379701256752014
0.49905410408973694 -0.8555502891540527 0.13776299357414246
0.6076506972312927 -0.7838146686553955 -0.12804362177848816
0.6260620355606079 -0.7780395746231079 0.05196846276521683
0.6523467898368835 -0.573434591293335 0.4955969750881195
0.666857123374939 -0.7343795895576477 0.12644457817077637
0.6056722402572632 -0.7539975643157959 0.25426119565963745
0.8447389602661133 -0.5336126685142517 0.04090924933552742
0.7916727662086487 -0.5999747514724731 -0.11525856703519821
0.7360813021659851 -0.6768417358398438 -0.008347825147211552
0.7263759970664978 -0.6619002223014832 -0.18511120975017548
0.7359794974327087 -0.664548933506012 0.12926281988620758
0.699633777141571 -0.697359561920166 -0.15557114779949188
0.6202945709228516 -0.7318785786628723 -0.28211408853530884
0.5728587508201599 -0.804438054561615 -0.15720148384571075
0.5828898549079895 -0.7787969708442688 -0.23176436126232147
0.7004621028900146 -0.706153392791748 -0.10344137251377106
0.6334436535835266 -0.7638657689094543 -0.12352412939071655
0.6054733991622925 -0.7767386436462402 -0.17343297600746155
0.6877059936523438 -0.7215291261672974 -0.08035038411617279
0.71580970287323 -0.6979551911354065 -0.021793898195028305
0.7216887474060059 -0.6723571419715881 -0.1646246612071991
0.6830019950866699 -0.7152329087257385 -0.14815551042556763
0.6992942094802856 -0.7146651148796082 -0.015537086874246597
0.7609602212905884 -0.6392526030540466 -0.11088564246892929
0.7762545347213745 -0.5651940107345581 0.27925723791122437
0.7445592284202576 -0.5458558797836304 0.38428229093551636
0.8296759128570557 -0.5153484344482422 0.2146015465259552
0.7997483611106873 -0.25645050406455994 0.5428036451339722
0.7906408309936523 0.07293922454118729 0.607920229434967
0.9333909749984741 0.2431761920452118 0.26390621066093445
0.933679461479187 0.011373251676559448 0.3579293489456177
0.8626075983047485 -0.18241572380065918 0.47183957695961
0.907869279384613 -0.40566185116767883 0.10588535666465759
0.7449235916137695 -0.6630104780197144 0.07420206815004349
0.6072369813919067 -0.794511616230011 0.003819126868620515
0.6473585963249207 -0.7566955089569092 0.09131664782762527
0.8264555335044861 -0.5533066391944885 0.10403332114219666
0.838798999786377 -0.5395073890686035 0.07312992215156555
0.7900831699371338 -0.6086454391479492 0.07293339818716049
0.7259760499000549 -0.5707672834396362 0.3836449682712555
0.6591200828552246 -0.6783754229545593 0.32460352778434753
0.6160866618156433 -0.6980894207954407 0.36484041810035706
0.41537702083587646 -0.8900278806686401 -0.18791580200195312
0.4115128219127655 -0.9113937020301819 0.004339014645665884
0.4687822759151459 -0.8372460603713989 0.28153520822525024
0.4868651032447815 -0.7517517805099487 0.44478270411491394
0.7344986796379089 -0.4907856285572052 0.46865901350975037
0.869228720664978 -0.32420092821121216 0.3732762336730957
0.7897319197654724 -0.2127865105867386 0.5753653645515442
0.6320019960403442 -0.09099721908569336 0.7696057558059692
0.7754070162773132 -0.04342564940452576 0.6299667954444885
0.9298309683799744 -0.10005918145179749 0.3541223406791687
0.8989423513412476 -0.30901649594306946 0.3105020225048065
0.9438855051994324 -0.31454455852508545 -0.10070676356554031
0.9522140622138977 -0.28548726439476013 0.10856092721223831
0.9723021388053894 -0.042982034385204315 0.2297413945198059
0.9836417436599731 0.15109433233737946 0.09807895123958588
0.8353250026702881 0.16664092242717743 0.5238920450210571
0.6319897770881653 0.11692409962415695 0.7661055326461792
0.6164676547050476 0.32077276706695557 0.719077467918396
0.791545033454895 0.1748991310596466 0.5855482816696167
0.6770716309547424 -0.20219790935516357 0.7075945734977722
0.7018030285835266 -0.37273356318473816 0.6070767045021057
0.7754055261611938 -0.30420729517936707 0.5533571243286133
0.948502779006958 0.026708558201789856 0.3156406879425049
0.9839109778404236 0.15095728635787964 0.09555676579475403
0.911505401134491 0.14847196638584137 0.38355427980422974
0.807744026184082 0.2623649537563324 0.5279338359832764
0.9252409934997559 0.11206383258104324 0.36245107650756836
0.9650954008102417 -0.16109967231750488 0.20648939907550812
0.8828631639480591 -0.4539889097213745 0.12019439041614532
0.8109610080718994 -0.5661599636077881 0.14766556024551392
0.925282895565033 -0.3755010664463043 -0.05338982120156288
0.9514851570129395 -0.28057804703712463 -0.12630119919776917
0.970298707485199 -0.20953872799873352 0.12088838219642639
0.9985393285751343 0.02945745922625065 0.04529350623488426
0.9792929291725159 -0.03477692976593971 0.1994391679763794
0.9255155324935913 -0.07907537370920181 0.3703623414039612
0.9709070920944214 -0.05793912336230278 0.23234115540981293
0.9697687029838562 -0.016158122569322586 0.243490532040596
0.9667001366615295 0.04863320663571358 0.2512480914592743
0.9867129325866699 0.14506611227989197 0.07316625118255615
0.9536590576171875 0.11011486500501633 0.28001630306243896
0.9302378296852112 0.18253785371780396 0.31833574175834656
0.9197835922241211 0.014348517172038555 0.39216363430023193
0.9698992967605591 -0.051960866898298264 0.23789814114570618
0.9697687029838562 -0.016158122569322586 0.243490532040596
0.9667001366615295 0.04863320663571358 0.2512480914592743
0.9889795780181885 0.13153967261314392 0.06794656813144684
0.9788573980331421 -0.039388224482536316 0.20071540772914886
0.9305883646011353 -0.21846027672290802 0.2937352955341339
0.8790230751037598 -0.4338721036911011 0.1976698935031891
0.8936023712158203 -0.4414478838443756 0.08123154193162918
0.9181262254714966 -0.38637176156044006 0.08809714019298553
0.8007411360740662 -0.5974900126457214 0.042653270065784454
0.6796149611473083 -0.7327408194541931 -0.034847430884838104
0.6917775869369507 -0.7170869708061218 -0.08502975851297379
0.656543493270874 -0.746705174446106 -0.10668665170669556
0.491586297750473 -0.8417044878005981 -0.22333034873008728
0.38509756326675415 -0.9137603640556335 -0.129390150308609
0.5169241428375244 -0.8554672002792358 -0.031069492921233177
0.6402525901794434 -0.7624709606170654 0.09335147589445114
0.6288018822669983 -0.7592349052429199 0.16784101724624634
0.5636606812477112 -0.8109059929847717 0.15721996128559113
0.6311726570129395 -0.7705980539321899 0.08831648528575897
0.5194278955459595 -0.8144798278808594 0.25849053263664246
0.5210809707641602 -0.8331301212310791 0.1853887140750885
0.7369686365127563 -0.673960268497467 0.05152468755841255
0.5743668079376221 -0.7975379228591919 -0.1844886690378189
0.498044490814209 -0.8670858144760132 -0.010674204677343369
0.6461785435676575 -0.7619388103485107 -0.043617792427539825
0.7816658020019531 -0.6176493167877197 0.08664805442094803
0.25384223461151123 -0.9508765935897827 0.17719462513923645
0.0837961882352829 -0.9950550198554993 0.05332605913281441
0.05024372786283493 -0.9964447617530823 0.06762639433145523
-0.2959180772304535 -0.840385377407074 0.45407602190971375
-0.27153781056404114 -0.8567850589752197 0.43839097023010254
-0.10307653248310089 -0.9295973181724548 0.35387009382247925
0.019974995404481888 -0.9955217242240906 0.09239837527275085
0.3732024133205414 -0.9231482148170471 -0.09228908270597458
0.5511828064918518 -0.7483920454978943 0.3689265251159668
0.6501865983009338 -0.6207860112190247 0.43804362416267395
0.9738002419471741 -0.1970033347606659 0.11359066516160965
0.766997754573822 -0.06635892391204834 0.6382091641426086
0.449942409992218 0.00291903642937541 0.8930528163909912
0.3729822635650635 -0.2625562846660614 0.889914870262146
0.15923337638378143 0.1028241515159607 0.9818716049194336
0.023272331804037094 -0.15257123112678528 0.9880183935165405
0.05849134922027588 -0.15376310050487518 0.9863749742507935
-0.3019913136959076 0.03895553946495056 0.9525144100189209
-0.3213261365890503 -0.30001819133758545 0.8981863260269165
0.07456590980291367 -0.24543240666389465 0.9665417671203613
-0.1366691291332245 0.15431629121303558 0.9785233736038208
-0.5646229982376099 -0.31218960881233215 0.7640278339385986
-0.26487216353416443 -0.14567618072032928 0.9532161951065063
-0.5209000706672668 0.06108006834983826 0.8514296412467957
-0.16423878073692322 0.07813094556331635 0.9833215475082397
-0.05260104686021805 -0.6587794423103333 0.7504950761795044
0.2506692111492157 -0.5657744407653809 0.7855343818664551
0.612887442111969 -0.5393887758255005 0.5774328112602234
0.7806264758110046 -0.6161041855812073 0.10506241768598557
0.8260859847068787 -0.5365450382232666 -0.17234115302562714
0.8356219530105591 -0.5418233275413513 0.09035181999206543
0.9095604419708252 -0.39679840207099915 -0.12349467724561691
0.9182664752006531 -0.3947209417819977 0.031338710337877274
0.9024056792259216 -0.3848200738430023 0.19384914636611938
0.9396681785583496 -0.3239714503288269 -0.10984605550765991
0.9177886247634888 -0.39560380578041077 0.034083206206560135
0.8709837198257446 -0.47328299283981323 0.13187304139137268
0.8004173040390015 -0.5916998982429504 -0.09603817015886307
0.7735353112220764 -0.6299516558647156 -0.0693112164735794
0.8061255216598511 -0.5812168717384338 0.1111244186758995
0.8532666563987732 -0.5147541165351868 -0.0834517627954483
0.832465648651123 -0.5419085621833801 -0.11548216640949249
0.7312718629837036 -0.5854421854019165 0.34999844431877136
0.8333714604377747 -0.4582218527793884 0.3090708553791046
0.749995768070221 -0.4967723488807678 0.43671905994415283
0.6070216298103333 -0.3692406117916107 0.7036946415901184
0.7048283219337463 -0.4024944603443146 0.5841363072395325
0.5385658740997314 -0.3755944073200226 0.7542384266853333
0.18405170738697052 -0.3052513301372528 0.934316098690033
0.09790688008069992 -0.43494170904159546 0.8951200246810913
0.09793820232152939 -0.009707613848149776 0.9951451420783997
-0.17006754875183105 0.03356363996863365 0.9848605990409851
-0.007133778650313616 0.07585570961236954 0.9970932602882385
-0.2649534344673157 0.4067414402961731 0.8742774724960327
-0.4558870196342468 0.3019377589225769 0.8372577428817749
-0.13583365082740784 0.20739412307739258 0.9687811136245728
-0.2621616721153259 0.28424322605133057 0.922213077545166
-0.44192102551460266 0.2485799491405487 0.8619244694709778
-0.1982092410326004 0.2096368670463562 0.9574787616729736
-0.1275910586118698 0.41591623425483704 0.9004077911376953
-0.23340636491775513 0.4735426902770996 0.849281370639801
-0.20458517968654633 0.45984947681427 0.8641083836555481
0.35730209946632385 0.02565639466047287 0.9336364269256592
0.11024828255176544 0.3637285530567169 0.9249577522277832
0.07479771226644516 0.4699837863445282 0.8795002102851868
0.4902077615261078 -0.1027967780828476 0.8655225038528442
0.11729937791824341 0.13319902122020721 0.9841234087944031
-0.1707877516746521 0.1118532195687294 0.9789384007453918
0.05269654467701912 0.04010315239429474 0.9978049993515015
-0.14175008237361908 0.3683308959007263 0.9188249111175537
-0.14754019677639008 0.1572866141796112 0.9764695763587952
0.16893364489078522 0.2500394582748413 0.9533843398094177
0.5395200252532959 0.34771397709846497 0.7668201327323914
0.23522226512432098 -0.1496204435825348 0.9603562951087952
0.6416589617729187 -0.3928984999656677 0.6587142944335938
0.8031219840049744 -0.4773954749107361 0.3564951419830322
0.9159051179885864 -0.38861262798309326 0.10048896074295044
0.7873092889785767 -0.6145101189613342 0.05021378770470619
0.428490549325943 -0.8919086456298828 0.1445503830909729
0.3293953537940979 -0.7656305432319641 0.55254727602005
0.3826586902141571 -0.49417558312416077 0.7806169390678406
0.11789381504058838 0.022822849452495575 0.992763876914978
0.05738396197557449 -0.5439435839653015 0.8371573686599731
0.1682206690311432 -0.6107364296913147 0.7737588882446289
0.177174374461174 -0.18036533892154694 0.967510998249054
0.2352934628725052 -0.5051193833351135 0.830356240272522
0.45282435417175293 -0.297677218914032 0.8404393792152405
0.9036942720413208 -0.3909737467765808 0.17457415163516998
0.8261451721191406 -0.35839828848838806 0.4347814619541168
0.9640654921531677 -0.03967919200658798 0.26268482208251953
0.99003666639328 0.1262895166873932 0.0622764453291893
0.9788573980331421 -0.039388224482536316 0.20071540772914886
0.9305883646011353 -0.21846027672290802 0.2937352955341339
0.8790230751037598 -0.4338721036911011 0.1976698935031891
0.8952232599258423 -0.4373175799846649 0.08560831099748611
0.9500206708908081 -0.26921555399894714 0.15806259214878082
0.9821168184280396 -0.177763432264328 0.06202217563986778
0.9571626782417297 -0.2806992828845978 -0.07104583084583282
0.8337888121604919 -0.36350780725479126 0.4155217707157135
0.862768828868866 -0.29148489236831665 0.4131178557872772
0.8201420903205872 -0.23903195559978485 0.5198371410369873
0.8994843363761902 -0.29493248462677 0.3224017322063446
0.8214181065559387 -0.5365409851074219 0.19338074326515198
0.7819542288780212 -0.586223840713501 0.21187053620815277
