ply
format ascii 1.0
element vertex 787
property float x
property float y
property float z
end_header
0.05472346395254135 0.055790383368730545 0.1343839019536972
0.030783824622631073 0.1449427753686905 0.47827985882759094
-0.09868883341550827 -0.0647527202963829 0.5655205845832825
-0.14503544569015503 -0.16644760966300964 0.36389851570129395
-0.07613705098628998 -0.06850134581327438 0.263124018907547
-0.006632489617913961 0.04616207629442215 0.29473987221717834
-0.1939622312784195 -0.1890425682067871 0.46795767545700073
-0.198480024933815 -0.10740603506565094 0.3820827603340149
-0.08212487399578094 -0.06147849187254906 0.20190463960170746
0.08727297186851501 0.1579253226518631 0.19225193560123444
0.14977462589740753 0.2208585888147354 0.44338956475257874
-0.3448667526245117 -0.03310560807585716 0.5139287710189819
-0.297510027885437 -0.11272697150707245 0.2351314276456833
-0.29869186878204346 -0.06412572413682938 -0.021647147834300995
-0.29168230295181274 0.3371017575263977 -0.2279205620288849
-0.339688241481781 0.20767240226268768 0.1066790372133255
-0.3652585446834564 0.1572675108909607 0.15326908230781555
-0.35645273327827454 0.13881923258304596 0.16912797093391418
-0.28926900029182434 0.020628809928894043 0.20407003164291382
-0.11327840387821198 -0.023479197174310684 0.21676668524742126
-0.10409579426050186 0.05952088534832001 0.2078489512205124
-0.014410826377570629 0.08214281499385834 0.42205649614334106
-0.22963455319404602 -0.18538720905780792 0.49216026067733765
-0.2636459171772003 -0.07395770400762558 0.43387430906295776
-0.2774063050746918 -0.04701223596930504 0.23024021089076996
-0.3041103482246399 0.0534190870821476 0.2295691967010498
-0.28102728724479675 0.01421578973531723 0.20678910613059998
-0.11327840387821198 -0.023479197174310684 0.21676668524742126
-0.10409579426050186 0.05952088534832001 0.2078489512205124
-0.014410826377570629 0.08214281499385834 0.42205649614334106
-0.22745521366596222 -0.18557994067668915 0.49106672406196594
-0.2263992428779602 -0.06878441572189331 0.41589099168777466
0.0031340194400399923 -0.04116262495517731 0.1313653290271759
0.15609903633594513 -0.03395654633641243 0.03630495071411133
0.030490713194012642 0.015770820900797844 0.02813442051410675
0.15741245448589325 0.05043945088982582 0.30408433079719543
0.06534507870674133 -0.16541703045368195 0.300517201423645
-0.0003490467497613281 0.001408225973136723 0.1965360790491104
0.028904106467962265 -0.0902392715215683 0.23530671000480652
0.13127928972244263 0.0990336462855339 0.33255210518836975
-0.010488485917448997 -0.16177654266357422 0.3576599359512329
-0.01557141076773405 0.0045158653520047665 0.21383754909038544
0.13962720334529877 -0.1226850152015686 0.13396982848644257
0.07502821832895279 0.03252284973859787 0.04279138892889023
0.1133621335029602 0.02788170799612999 0.34325695037841797
-0.02660927176475525 -0.1688980758190155 0.4202900230884552
-0.05817315727472305 -0.0173383466899395 0.2892278730869293
-0.13002808392047882 -0.07442402094602585 0.2294084131717682
-0.2457868456840515 0.02499249577522278 0.2456604391336441
-0.35045021772384644 0.1439078450202942 0.17179645597934723
-0.35878682136535645 0.15360495448112488 0.16205169260501862
-0.35878682136535645 0.15360495448112488 0.16205169260501862
-0.35878682136535645 0.15360495448112488 0.16205169260501862
-0.35878682136535645 0.15360495448112488 0.16205169260501862
-0.351700097322464 0.11149655282497406 0.17494171857833862
-0.11404880881309509 -0.12932652235031128 0.15038885176181793
0.08911902457475662 -0.1865946650505066 0.08324766159057617
0.17487375438213348 -0.08819558471441269 0.11923859268426895
0.04263904318213463 -0.07711506634950638 0.2840156853199005
-0.22183682024478912 -0.28719595074653625 0.37227940559387207
-0.10736830532550812 -0.025356411933898926 0.2848263680934906
-0.10034342110157013 -0.05344296991825104 0.10909882932901382
0.08703939616680145 -0.2689928710460663 0.03994540870189667
0.2233482301235199 -0.13635264337062836 0.0542265810072422
-0.02658976800739765 -0.06134443357586861 0.056636422872543335
-0.3260706961154938 -0.18058310449123383 0.15537504851818085
-0.09700559824705124 -0.12889039516448975 -0.0051060887053608894
-0.07277430593967438 -0.10722175985574722 0.025140099227428436
-0.02434319630265236 0.032938167452812195 0.16605186462402344
0.012835088185966015 0.08077126741409302 0.3685681223869324
-0.10867690294981003 -0.22489041090011597 0.5015655755996704
-0.1022258996963501 -0.18013137578964233 0.44390806555747986
0.006520284339785576 -0.24524050951004028 0.3399480879306793
-0.017337234690785408 -0.16798894107341766 0.20502349734306335
-0.02837885543704033 -0.10708748549222946 0.33533957600593567
-0.10894240438938141 -0.18250387907028198 0.34892675280570984
-0.06205004081130028 -0.020185772329568863 0.4499013125896454
-0.1885932981967926 -0.18965496122837067 0.40604129433631897
-0.21638604998588562 -0.09384112805128098 0.41215991973876953
-0.27031055092811584 -0.050259049981832504 0.23073019087314606
-0.31416043639183044 0.07136635482311249 0.22611473500728607
-0.35198742151260376 0.13324226438999176 0.1742548793554306
-0.28926900029182434 0.020628809928894043 0.20407003164291382
-0.11327840387821198 -0.023479197174310684 0.21676668524742126
-0.10409579426050186 0.05952088534832001 0.2078489512205124
-0.014410826377570629 0.08214281499385834 0.42205649614334106
-0.22963455319404602 -0.18538720905780792 0.49216026067733765
-0.2636459171772003 -0.07395770400762558 0.43387430906295776
-0.2774063050746918 -0.04701223596930504 0.23024021089076996
-0.31416043639183044 0.07136635482311249 0.22611473500728607
-0.3548140525817871 0.14840221405029297 0.16720852255821228
-0.35878682136535645 0.15360495448112488 0.16205169260501862
-0.35645273327827454 0.13881923258304596 0.16912797093391418
-0.28926900029182434 0.020628809928894043 0.20407003164291382
-0.11327840387821198 -0.023479197174310684 0.21676668524742126
-0.10409579426050186 0.05952088534832001 0.2078489512205124
-0.014410826377570629 0.08214281499385834 0.42205649614334106
-0.22963455319404602 -0.18538720905780792 0.49216026067733765
-0.2636459171772003 -0.07395770400762558 0.43387430906295776
-0.2774063050746918 -0.04701223596930504 0.23024021089076996
-0.31416043639183044 0.07136635482311249 0.22611473500728607
-0.3548140525817871 0.14840221405029297 0.16720852255821228
-0.35878682136535645 0.15360495448112488 0.16205169260501862
-0.35878682136535645 0.15360495448112488 0.16205169260501862
-0.35878682136535645 0.15360495448112488 0.16205169260501862
-0.356921911239624 0.14178301393985748 0.17087681591510773
-0.3533853590488434 0.11688500642776489 0.2100767195224762
-0.17889632284641266 0.2920582890510559 -0.09014382213354111
-0.25662392377853394 -0.07122097909450531 -0.1203448623418808
-0.332256019115448 -0.33466678857803345 0.03062787838280201
-0.2515089213848114 -0.21573826670646667 -0.09156446903944016
-0.09326861053705215 0.04297001287341118 0.12269256263971329
-0.047462016344070435 -0.054919518530368805 0.11648731678724289
-0.027423735707998276 -0.01747257448732853 0.18420398235321045
0.007178057450801134 0.018300648778676987 0.3032172918319702
-0.029970873147249222 -0.08059138804674149 0.44498956203460693
-0.11322256922721863 -0.17284631729125977 0.45143482089042664
-0.08411645144224167 -0.09143198281526566 0.2714962661266327
-0.11713450402021408 0.024981630966067314 0.1265445053577423
-0.00819895975291729 -0.1517637073993683 0.34249788522720337
-0.034030430018901825 0.19295397400856018 0.11441968381404877
-0.13214126229286194 -0.020410750061273575 0.2469901293516159
-0.047311022877693176 -0.03744950145483017 0.20591393113136292
0.01715835928916931 -0.026600545272231102 0.2405361384153366
0.07285409420728683 -0.01842414401471615 0.45627161860466003
-0.08406977355480194 -0.2917272448539734 0.5478681921958923
-0.1010066494345665 -0.17159011960029602 0.33666202425956726
-0.25207802653312683 -0.10036216676235199 0.3956734538078308
-0.06458674371242523 -0.06707029789686203 0.5472598075866699
-0.24454769492149353 -0.23540568351745605 0.6006584763526917
-0.2744259238243103 -0.08130636811256409 0.4490413963794708
-0.2603371739387512 -0.06464805454015732 0.22434955835342407
-0.14914637804031372 -0.12141487002372742 0.18607471883296967
0.07252414524555206 -0.27940455079078674 -0.018470916897058487
0.21748697757720947 -0.17380072176456451 0.04312443733215332
0.0687698945403099 -0.2203810214996338 0.05327668786048889
0.05485478416085243 -0.1450118124485016 0.15609228610992432
0.060800325125455856 -0.018860042095184326 0.1682388335466385
0.010213939473032951 -0.0639505609869957 0.313493549823761
0.05559997633099556 -0.13707558810710907 0.3209826648235321
-0.006081343162804842 -0.09031275659799576 0.2549513578414917
-0.007117812521755695 -0.14769452810287476 0.28007587790489197
0.007700697518885136 -0.151357501745224 0.3120366632938385
0.006364857777953148 -0.12900467216968536 0.30068907141685486
-0.0010096430778503418 -0.10840513557195663 0.3048549294471741
-0.0023662522435188293 -0.11992845684289932 0.334147572517395
-0.05542328208684921 -0.0996144637465477 0.4256187081336975
-0.07963553816080093 -0.1574714034795761 0.3412010371685028
-0.006536424625664949 -0.0816032886505127 0.29724639654159546
0.0036287489347159863 -0.10511316359043121 0.2918991446495056
0.0074167996644973755 -0.11697466671466827 0.31812503933906555
-0.01994425803422928 -0.15298113226890564 0.31443890929222107
-0.032783813774585724 -0.16353531181812286 0.2591211497783661
-0.017172181978821754 -0.11738304793834686 0.2547435760498047
-0.007182146888226271 -0.18246538937091827 0.3143848776817322
-0.009580186568200588 -0.19121472537517548 0.25455498695373535
0.014981421642005444 -0.14858053624629974 0.1744910627603531
0.06836416572332382 -0.1374647617340088 0.2364056408405304
0.12775515019893646 -0.33007165789604187 0.23610453307628632
-0.08266210556030273 -0.14138993620872498 0.26342466473579407
-0.11262854188680649 -0.2923533320426941 0.2165212333202362
0.036135267466306686 -0.2976643145084381 0.18085092306137085
0.04703383147716522 -0.16336335241794586 0.09997168183326721
0.061693307012319565 -0.08163752406835556 0.17136548459529877
0.07278835028409958 -0.11187868565320969 0.23925556242465973
-0.0011538483668118715 -0.053282298147678375 0.36758285760879517
-0.03754371777176857 -0.13710248470306396 0.3536487817764282
-0.09449514001607895 -0.1631648689508438 0.4542998671531677
-0.09506577998399734 -0.20447126030921936 0.3451983332633972
-0.046282049268484116 -0.12690617144107819 0.22391171753406525
0.008504309691488743 -0.11447341740131378 0.22987501323223114
-0.0276158656924963 -0.16011029481887817 0.2359299510717392
-0.00034641154343262315 -0.05101889371871948 0.296415239572525
-0.0068930936977267265 -0.10376798361539841 0.31141313910484314
-0.053762465715408325 -0.1366225928068161 0.3114706873893738
-0.01597362942993641 -0.06583745032548904 0.296418160200119
0.008159198798239231 -0.10196669399738312 0.3073331415653229
-0.06717100739479065 -0.16716617345809937 0.31321272253990173
-0.012500242330133915 -0.14853963255882263 0.3488709330558777
0.029158012941479683 -0.24391065537929535 0.2839760184288025
0.09454964101314545 -0.2027093768119812 0.3044469356536865
0.06722494214773178 -0.09363462775945663 0.27900242805480957
0.05114112049341202 -0.44919896125793457 0.423304945230484
-0.04169706627726555 -0.146272674202919 0.21334445476531982
-0.013771739788353443 -0.06722347438335419 0.3873976767063141
-0.2750105857849121 -0.1720142960548401 0.6776277422904968
-0.3101055920124054 -0.12189953774213791 0.5392606854438782
-0.21977464854717255 -0.09739363193511963 0.32627639174461365
-0.21432755887508392 -0.06176116690039635 0.2524685561656952
-0.10152675956487656 -0.03331887349486351 0.21418581902980804
-0.06185012310743332 0.010505311191082 0.18999451398849487
0.011636471375823021 0.022487929090857506 0.34043043851852417
-0.10353469103574753 -0.10341092199087143 0.34119051694869995
-0.05652854964137077 -0.009703379124403 0.4406641125679016
-0.18726587295532227 -0.18948699533939362 0.4049190580844879
-0.21638604998588562 -0.09384112805128098 0.41215991973876953
-0.2589928209781647 -0.060117945075035095 0.22835195064544678
-0.19931583106517792 -0.05204428732395172 0.2198183238506317
-0.10896293073892593 -0.02642364427447319 0.2167799472808838
-0.0983971580862999 0.052917905151844025 0.20634889602661133
0.002817256608977914 0.04354367405176163 0.3905014395713806
-0.10713142156600952 -0.15946556627750397 0.36403316259384155
-0.11928237229585648 -0.04744979366660118 0.31744319200515747
-0.013376406393945217 0.022795269265770912 0.3520054221153259
-0.07757984846830368 -0.1608906090259552 0.43821629881858826
-0.05160686746239662 -0.0450323112308979 0.2682690918445587
0.0027472174260765314 0.0907023623585701 0.0554654523730278
0.16659580171108246 -0.10570921003818512 0.11813744157552719
0.1640607863664627 0.19981403648853302 -0.07121570408344269
0.20655116438865662 -0.13621997833251953 0.04666778817772865
0.09413671493530273 0.03142561390995979 -0.06553878635168076
0.07727950066328049 -0.20540712773799896 -0.011711898259818554
0.10368433594703674 0.20429517328739166 0.024367593228816986
0.040811795741319656 -0.09319260716438293 0.2733159065246582
-0.016326917335391045 0.17852768301963806 0.1139909029006958
-0.21320343017578125 0.09104254096746445 0.251076340675354
-0.32374462485313416 0.12923046946525574 0.20042498409748077
-0.2805173695087433 0.17057041823863983 0.1675216108560562
-0.03046853095293045 0.014642099849879742 0.20919351279735565
-0.06575670838356018 -0.06620797514915466 0.2974327802658081
-0.023142719641327858 -0.19537416100502014 0.3577076196670532
-0.15063679218292236 -0.19054080545902252 0.10584000498056412
-0.3548809587955475 -0.3473718464374542 0.054014649242162704
-0.33379122614860535 -0.22927217185497284 0.14240601658821106
-0.3740149438381195 0.08855915069580078 0.17594584822654724
-0.36007094383239746 0.15294308960437775 0.16264013946056366
-0.35878682136535645 0.15360495448112488 0.16205169260501862
-0.35878682136535645 0.15360495448112488 0.16205169260501862
-0.35878682136535645 0.15360495448112488 0.16205169260501862
-0.35878682136535645 0.15360495448112488 0.16205169260501862
-0.35878682136535645 0.15360495448112488 0.16205169260501862
-0.35878682136535645 0.15360495448112488 0.16205169260501862
-0.35878682136535645 0.15360495448112488 0.16205169260501862
-0.35878682136535645 0.15360495448112488 0.16205169260501862
-0.35878682136535645 0.15360495448112488 0.16205169260501862
-0.36045628786087036 0.15202130377292633 0.16803056001663208
-0.3467671871185303 0.21280747652053833 0.16396784782409668
-0.016827983781695366 0.25008440017700195 0.0835217833518982
0.0696289986371994 0.05808008462190628 -0.05046950653195381
-0.014483116567134857 0.23788510262966156 -0.11543639004230499
0.08103447407484055 -0.25321853160858154 0.1396830528974533
0.13809335231781006 -0.08150611072778702 -0.01890665665268898
0.07979414612054825 -0.19305548071861267 -0.047641877084970474
0.09488208591938019 -0.0016704427544027567 0.15185557305812836
0.029240120202302933 -0.27907508611679077 0.11371322721242905
0.1470055878162384 -0.1328713595867157 0.017104841768741608
0.06853509694337845 -0.17411239445209503 -0.09576421231031418
0.12908826768398285 -0.0737452358007431 -0.017100054770708084
0.184935063123703 -0.06106764078140259 0.002021270338445902
0.09681931883096695 -0.043372251093387604 0.11112142354249954
-0.025948498398065567 -0.36667656898498535 0.1982267200946808
0.10422651469707489 -0.13294389843940735 0.08395913988351822
0.08736380934715271 -0.17958232760429382 -0.03787611424922943
0.0349135547876358 -0.030753226950764656 -0.16618409752845764
0.06019870564341545 -0.18239885568618774 0.12746986746788025
0.006129428744316101 -0.15256963670253754 -0.0429648794233799
0.04796073958277702 -0.24805887043476105 -0.1996772438287735
-0.1442813277244568 0.08243681490421295 -0.12006109207868576
-0.08901146799325943 -0.17346283793449402 -0.094367116689682
-0.2921915352344513 -0.05157061293721199 0.2747114896774292
-0.16622591018676758 0.05203980207443237 0.38182923197746277
0.021144578233361244 0.18305324018001556 0.03694968298077583
0.21337662637233734 -0.1000572219491005 -0.010723835788667202
0.1914915293455124 -0.3620085120201111 0.029918571934103966
0.27175167202949524 -0.27595797181129456 -0.053974349051713943
0.31052136421203613 -0.30029159784317017 -0.06273819506168365
0.18202267587184906 -0.18372982740402222 -0.04400433972477913
-0.01802932098507881 -0.2927391231060028 0.10266858339309692
0.06534317880868912 -0.002827212680131197 0.12366937100887299
0.09166005998849869 -0.018034543842077255 0.005165926646441221
0.07521826028823853 -0.17145918309688568 0.14009742438793182
0.07399103045463562 -0.25314757227897644 0.34230098128318787
0.054144881665706635 -0.42682933807373047 0.4243762195110321
-0.12555202841758728 -0.2851569652557373 0.16894063353538513
-0.13447193801403046 -0.4428509473800659 -0.1511392593383789
-0.07813968509435654 -0.5372850894927979 -0.09670951217412949
-0.20309145748615265 -0.40952202677726746 -0.1123819574713707
0.06415140628814697 -0.050970710813999176 -0.1443270444869995
0.09457237273454666 -0.015327287837862968 -0.13786543905735016
0.1452924907207489 -0.1409301608800888 -0.27870237827301025
-0.03505832701921463 -0.12802255153656006 -0.2526456415653229
0.047606535255908966 -0.2920333445072174 0.15924246609210968
-0.05558285117149353 -0.11971175670623779 -0.0785287469625473
-0.0755348801612854 0.08513539284467697 0.16209132969379425
-0.31587597727775574 0.15016089379787445 0.07693597674369812
-0.27600935101509094 0.3350532650947571 0.1427813619375229
0.30224812030792236 0.41545775532722473 0.03501153737306595
0.37479355931282043 0.3644004464149475 0.004518672823905945
-0.19138282537460327 0.46602359414100647 -0.039688706398010254
-0.09767621755599976 -0.11853432655334473 0.04827806353569031
-0.0018928346689790487 0.19129440188407898 -0.08581439405679703
-0.22258558869361877 0.30611878633499146 -0.16639848053455353
-0.32633140683174133 0.18694791197776794 0.14501173794269562
-0.35991594195365906 0.1408603936433792 0.1666855812072754
-0.3533853590488434 0.11688500642776489 0.2100767195224762
-0.17889632284641266 0.2920582890510559 -0.09014382213354111
-0.25662392377853394 -0.07122097909450531 -0.1203448623418808
-0.332256019115448 -0.33466678857803345 0.03062787838280201
-0.25883087515830994 -0.20488715171813965 -0.09435366839170456
-0.17024902999401093 0.15972185134887695 0.11575246602296829
-0.38339078426361084 0.18503785133361816 0.03884793817996979
-0.3688986599445343 0.1470569372177124 0.15643444657325745
-0.3573504686355591 0.1543775051832199 0.1621730625629425
-0.35878682136535645 0.15360495448112488 0.16205169260501862
-0.35878682136535645 0.15360495448112488 0.16205169260501862
-0.3547496795654297 0.15582135319709778 0.1663876473903656
-0.2848186492919922 0.17461392283439636 0.1633240431547165
-0.03046853095293045 0.014642099849879742 0.20919351279735565
-0.05512106791138649 -0.08373768627643585 0.30201709270477295
0.06920711696147919 -0.29333099722862244 0.3501642644405365
0.16714069247245789 -0.34751155972480774 0.048120930790901184
0.16863591969013214 -0.38059288263320923 0.12876859307289124
0.08654473721981049 -0.35436901450157166 0.2588539123535156
-0.09647645056247711 -0.2213294506072998 0.20691414177417755
0.26860302686691284 0.19813598692417145 -0.0007630473119206727
0.2802979350090027 0.4670664668083191 0.06347674876451492
0.20381179451942444 0.37081319093704224 -0.04168013110756874
0.1687324047088623 0.30339542031288147 -0.13259325921535492
0.04357242211699486 0.2988254427909851 -0.22515369951725006
-0.10958633571863174 0.1805727630853653 -0.2944367825984955
-0.017672620713710785 0.046442773193120956 -0.27130594849586487
0.020543444901704788 -0.03734874725341797 -0.04707842692732811
-0.07873903959989548 0.02700159139931202 -0.15075203776359558
-0.04431559517979622 -0.08371509611606598 -0.022503109648823738
0.13044682145118713 0.18569976091384888 0.17515480518341064
-0.5030844807624817 0.3412710726261139 0.04485839605331421
-0.2865629196166992 0.10721579194068909 -0.23111020028591156
-0.22407984733581543 0.11040424555540085 -0.18384027481079102
-0.2816433608531952 0.3381783366203308 -0.23512671887874603
-0.3420480191707611 0.2107977420091629 0.10264632850885391
-0.3652585446834564 0.1572675108909607 0.15326908230781555
-0.35878682136535645 0.15360495448112488 0.16205169260501862
-0.35481059551239014 0.16192135214805603 0.16615161299705505
-0.29627320170402527 0.256443053483963 0.15160498023033142
0.1093621626496315 0.4051741361618042 0.07669474184513092
0.15384098887443542 0.45336219668388367 0.18709959089756012
-0.5324453711509705 0.42005547881126404 0.0513664074242115
-0.13197845220565796 0.1418817639350891 -0.3925275504589081
-0.11995027214288712 -0.1101650670170784 -0.38229119777679443
-0.07373695075511932 -0.052635326981544495 -0.4577411115169525
-0.17107634246349335 -0.2485600709915161 -0.26546934247016907
-0.1353011280298233 -0.15953315794467926 0.008327568881213665
-0.2709767818450928 -0.20017854869365692 -0.1894836276769638
-0.16092252731323242 0.14816799759864807 0.10416838526725769
-0.3772110044956207 0.19511297345161438 0.04234671965241432
-0.3129136860370636 0.26345887780189514 0.14985211193561554
0.11183962970972061 0.40705743432044983 0.07671739161014557
0.15384098887443542 0.45336219668388367 0.18709959089756012
-0.5324453711509705 0.42005547881126404 0.0513664074242115
-0.13521476089954376 0.15213602781295776 -0.3921472728252411
-0.10220454633235931 -0.05982526019215584 -0.4057927131652832
-0.0239889994263649 -0.23760932683944702 -0.19607265293598175
-0.06072225049138069 -0.23548142611980438 0.07776231318712234
0.032765742391347885 -0.1683642864227295 0.36224469542503357
-0.16009783744812012 -0.20830847322940826 0.043340254575014114
-0.3628426790237427 -0.3703073263168335 0.0494522899389267
-0.32953354716300964 -0.24882493913173676 0.14981190860271454
-0.38324981927871704 0.045015688985586166 0.23125828802585602
-0.18305806815624237 0.29212990403175354 -0.0881785973906517
-0.25662392377853394 -0.07122097909450531 -0.1203448623418808
-0.3290308117866516 -0.33560994267463684 0.03433448448777199
-0.20151448249816895 -0.19295018911361694 -0.09602570533752441
0.04357872158288956 0.052182819694280624 0.19093573093414307
-0.0805203914642334 -0.07455744594335556 0.297636479139328
-0.014018379151821136 -0.22061552107334137 0.36876150965690613
-0.12776805460453033 -0.24724815785884857 0.1301058977842331
-0.24265307188034058 -0.39890286326408386 -0.1410665065050125
0.028614483773708344 -0.24686077237129211 -0.14909876883029938
0.06039856746792793 -0.2824663519859314 -0.17086921632289886
-0.09086190164089203 -0.02695092186331749 -0.10503048449754715
0.04338566213846207 -0.07252119481563568 0.2854018211364746
0.11618536710739136 0.18650560081005096 -0.009938466362655163
0.12231574952602386 0.05270341783761978 0.0006058113067410886
0.05056540295481682 0.20159146189689636 -0.0195538979023695
0.13034310936927795 -0.07673339545726776 0.11395417898893356
0.013265660032629967 0.2279752939939499 0.02450704202055931
0.02882644534111023 -0.13113625347614288 0.33505120873451233
0.04517732560634613 0.03671800345182419 0.10476379096508026
0.13391640782356262 -0.2602632939815521 0.02783910185098648
0.2691367268562317 -0.2553027272224426 0.003343043150380254
0.1858944147825241 -0.16696900129318237 0.05179942771792412
0.03802911937236786 -0.24520666897296906 0.0962676852941513
0.21629098057746887 -0.10897131264209747 0.07282545417547226
0.27326107025146484 0.010278060100972652 0.08109975606203079
0.017921430990099907 -0.0407150462269783 0.16346785426139832
-0.11710871756076813 0.1884356439113617 0.10535574704408646
0.0546436570584774 0.4371998608112335 -0.1356540471315384
-0.2136486917734146 0.44627636671066284 -0.334585040807724
0.1175919696688652 0.38658714294433594 -0.41260984539985657
0.33008530735969543 0.3960043489933014 -0.10551439970731735
0.1533847451210022 0.4054928421974182 0.004110371228307486
-0.15729296207427979 0.05912994220852852 -0.015021705999970436
0.16434653103351593 -0.025997672230005264 -0.043715618550777435
0.2125163972377777 0.12563662230968475 -0.13954946398735046
-0.37433096766471863 0.031620875000953674 -0.20519129931926727
-0.25419455766677856 -0.10504566878080368 -0.2285016030073166
-0.1856057047843933 0.07427328824996948 -0.17118144035339355
-0.014155691489577293 0.1661144345998764 -0.06701024621725082
-0.067087821662426 -0.02598961628973484 0.2638537287712097
-0.027199866250157356 -0.19259151816368103 0.35267090797424316
-0.14298073947429657 -0.1991509348154068 0.11164332926273346
-0.32205021381378174 -0.38024866580963135 0.07171418517827988
0.2944470942020416 0.1479611098766327 -0.07972157746553421
0.47821155190467834 0.41946372389793396 -0.06395465135574341
0.3222537338733673 0.3118598163127899 0.02497139759361744
0.22757486999034882 0.20450359582901 -0.10454688221216202
0.25593167543411255 0.10991581529378891 -0.029157385230064392
0.23799224197864532 0.23800460994243622 -0.13699564337730408
0.19342096149921417 0.2658320963382721 -0.16943500936031342
0.09251829981803894 0.1728612333536148 -0.18868720531463623
0.10708071291446686 0.15974736213684082 -0.16268692910671234
0.05831483379006386 0.1601177155971527 -0.1870177686214447
0.32491356134414673 0.15348219871520996 -0.08850014209747314
0.26440563797950745 0.09576353430747986 -0.00394437275826931
0.12149356305599213 0.07287468761205673 -0.04794339835643768
0.1603144109249115 0.11720540374517441 -0.08089771121740341
0.0765540599822998 0.16064371168613434 -0.1736815720796585
0.1481778770685196 0.24774153530597687 -0.2031346708536148
0.1530836522579193 0.33365169167518616 -0.2071221023797989
0.16122713685035706 0.350530207157135 -0.212187260389328
0.16081055998802185 0.34966573119163513 -0.21436743438243866
0.15266606211662292 0.3419366776943207 -0.2190902680158615
0.056820664554834366 0.3184053599834442 -0.22257781028747559
0.03594847396016121 0.2402903437614441 -0.2795009911060333
0.1580873429775238 0.1686849147081375 -0.18199512362480164
0.05202416703104973 0.1932736039161682 -0.11011194437742233
0.1276630163192749 0.1754281371831894 -0.1629151850938797
-0.021390467882156372 -0.01864653080701828 -0.019534500315785408
0.28379353880882263 0.083610400557518 -0.051872335374355316
0.20158621668815613 0.19592173397541046 -0.036475811153650284
-0.10253334045410156 -0.006687931716442108 -0.3694969117641449
0.21198293566703796 -0.1133057251572609 -0.2813660800457001
0.028536099940538406 0.09540852904319763 -0.25931116938591003
0.18166854977607727 0.20402565598487854 -0.03757086023688316
-0.06018102914094925 0.24400438368320465 0.11911940574645996
0.03499377518892288 0.09064201265573502 -0.06180472671985626
0.27060145139694214 0.14316688477993011 -0.00798200722783804
0.28189197182655334 0.08980108797550201 -0.2007351517677307
0.306071937084198 0.24246320128440857 -0.054154668003320694
0.10318908095359802 0.2723875045776367 -0.06437351554632187
-0.20615608990192413 0.2934163212776184 0.039274271577596664
-0.1228027194738388 0.4284753203392029 -0.12859652936458588
0.14696776866912842 0.437926322221756 -0.28759506344795227
-0.24160511791706085 0.34149712324142456 -0.3341748118400574
-0.10260969400405884 0.26025107502937317 -0.5558905601501465
-0.14395824074745178 -0.006161282304674387 -0.38644134998321533
-0.23538415133953094 -0.02955542504787445 -0.37511134147644043
0.06840618699789047 0.059283867478370667 -0.16108913719654083
0.17635323107242584 0.40493014454841614 0.1468421369791031
-0.4416441321372986 0.4826725125312805 -0.07450301945209503
0.05073775351047516 0.2847726345062256 -0.25319960713386536
0.14715135097503662 0.35981109738349915 -0.06737185269594193
-0.35568860173225403 0.4413394331932068 -0.2065196931362152
-0.21238134801387787 0.1893247365951538 -0.2451280951499939
0.10987354069948196 0.2771398723125458 -0.18689899146556854
0.13401050865650177 0.50079745054245 -0.08783694356679916
-0.3749536871910095 0.43628889322280884 -0.015428627841174603
0.04020685702562332 0.27614861726760864 -0.23057828843593597
0.1730155348777771 0.38158705830574036 -0.06773009151220322
-0.031173160299658775 0.4990076720714569 -0.1813725084066391
0.25190606713294983 0.3941378593444824 -0.1269010752439499
0.2073000967502594 0.3915524184703827 -0.07371173799037933
0.14452522993087769 0.3929702341556549 -0.17054104804992676
0.028229381889104843 0.28191232681274414 -0.13509532809257507
-0.023857738822698593 0.3133476674556732 -0.3177776634693146
0.23928353190422058 0.3566491901874542 -0.27283498644828796
0.20384284853935242 0.4254540205001831 -0.17088006436824799
0.22674991190433502 0.4271484315395355 -0.18431775271892548
0.20909620821475983 0.2448371797800064 -0.21530205011367798
0.09791948646306992 0.32568565011024475 -0.39525970816612244
0.2675786316394806 0.11252015829086304 -0.16704444587230682
0.048363976180553436 0.31510576605796814 -0.32831892371177673
0.30347245931625366 -0.09160935878753662 -0.5324545502662659
0.5254949331283569 -0.15381404757499695 -0.1410883218050003
-0.156999409198761 0.011860078200697899 -0.2413928359746933
-0.18131843209266663 0.008606667630374432 0.062888003885746
0.251878023147583 0.3564299941062927 -0.26904162764549255
0.3221965730190277 0.5126693844795227 -0.30233848094940186
-0.02377866767346859 0.22588492929935455 0.06998627632856369
0.24316294491291046 0.2453530728816986 -0.20847463607788086
0.09980320930480957 0.35578349232673645 -0.030786113813519478
-0.30627116560935974 0.3069363832473755 -0.3748779892921448
-0.11800438165664673 0.12296344339847565 -0.3525705337524414
0.1385030746459961 0.3571282923221588 -0.3134307861328125
0.30164092779159546 0.5019437670707703 -0.11867985874414444
0.04992547258734703 0.46039772033691406 0.08471154421567917
-0.11285287141799927 0.3396487534046173 -0.17372557520866394
0.11798706650733948 0.2754265069961548 -0.19049876928329468
-0.005730273202061653 0.39574846625328064 -0.26491162180900574
0.21568816900253296 0.40026533603668213 -0.24428091943264008
0.05233247950673103 0.36698195338249207 -0.07014764100313187
-0.09239441901445389 0.3599965274333954 -0.2992228865623474
0.16661787033081055 0.21262049674987793 -0.239996999502182
-0.012060836888849735 0.07556098699569702 -0.4014647305011749
0.2868219316005707 0.0976167693734169 -0.34074872732162476
0.14162570238113403 0.17427943646907806 0.01580360159277916
-0.22960035502910614 0.30582085251808167 -0.036181721836328506
0.3013880252838135 0.3352012634277344 -0.06802698969841003
0.3307477533817291 -0.09498846530914307 -0.00993681326508522
0.22424346208572388 -0.13489104807376862 0.034391578286886215
0.1255112588405609 -0.3067680299282074 0.00540453614667058
0.21713320910930634 -0.3263123631477356 0.05241139605641365
0.0957217589020729 -0.24251146614551544 0.03865601122379303
-0.058111388236284256 -0.48583462834358215 0.22128722071647644
0.06835833191871643 -0.383172869682312 0.11994922161102295
0.021380169317126274 -0.4177328646183014 -0.024141021072864532
0.1672641783952713 -0.4549942910671234 -0.026173995807766914
0.20548945665359497 -0.2648008465766907 -0.013911348767578602
0.2667112648487091 -0.10507795959711075 0.1168687492609024
0.23404397070407867 0.03625151887536049 0.13381534814834595
-0.009204195812344551 -0.07406886667013168 0.10576977580785751
0.23367395997047424 -0.006382369436323643 0.1323540061712265
0.3155008852481842 0.06999826431274414 0.027974093332886696
0.047614701092243195 -0.03784831613302231 0.05400692671537399
-0.035559654235839844 0.07593708485364914 0.008550742641091347
0.17623412609100342 0.08455774188041687 -0.13210192322731018
0.15532058477401733 -0.058565862476825714 0.07139139622449875
0.20541279017925262 -0.29996028542518616 0.19929613173007965
0.14291633665561676 -0.26192405819892883 0.07790615409612656
0.11955217272043228 -0.3658125698566437 0.05772184580564499
0.19256000220775604 -0.2027912139892578 0.13223928213119507
0.050682757049798965 -0.38459569215774536 0.17388379573822021
0.19285692274570465 -0.1784198135137558 0.10472787171602249
0.028285225853323936 -0.3743722140789032 0.06749147176742554
-0.03095345012843609 -0.6162756085395813 0.06766950339078903
0.028759943321347237 -0.32897502183914185 -0.12056725472211838
0.1047009602189064 -0.33418214321136475 0.005869695451110601
0.2968106269836426 -0.39431819319725037 0.007080268580466509
0.2751377820968628 -0.23485775291919708 0.11734335124492645
0.15401160717010498 -0.20450285077095032 -0.020614249631762505
0.03598972037434578 -0.2968061864376068 0.0447024442255497
0.21366144716739655 -0.15595635771751404 0.010920154862105846
0.20454776287078857 -0.08168147504329681 -0.004499863833189011
0.018368199467658997 -0.06395190209150314 0.10272877663373947
0.13518457114696503 -0.08544864505529404 0.11878257989883423
0.2380210906267166 0.11988147348165512 -0.006635942496359348
0.13797494769096375 -0.07362298667430878 0.010533911176025867
0.10751115530729294 -0.05021486058831215 -0.05070585384964943
0.28133246302604675 0.0058832671493291855 0.03306680917739868
0.14064157009124756 -0.13017989695072174 0.05120011046528816
-0.036301422864198685 -0.29034948348999023 0.18889831006526947
-0.0008477830560877919 -0.26845231652259827 0.05034308508038521
-0.05845963582396507 -0.2983976900577545 0.058366384357213974
0.1922837346792221 -0.4147859811782837 -0.05288427695631981
0.5800551176071167 -0.01642346754670143 0.13256558775901794
0.13453873991966248 0.16598615050315857 0.1626424789428711
-0.1618156135082245 0.07683444023132324 0.07533822953701019
0.17685966193675995 0.31264033913612366 -0.04283161088824272
0.0457175076007843 0.30507874488830566 -0.16151635348796844
0.051594506949186325 0.2160891443490982 -0.25121137499809265
-0.3696872591972351 -0.007135096006095409 -0.16043934226036072
-0.23106925189495087 0.002450090367347002 -0.3854599595069885
-0.1567213088274002 0.1567096710205078 -0.17906047403812408
0.09607244282960892 0.46213698387145996 -0.2189098447561264
0.1611480563879013 0.48077625036239624 0.11388451606035233
-0.10203281044960022 0.48944994807243347 -0.01468200609087944
0.09580564498901367 0.3460180163383484 -0.10104874521493912
-0.022982683032751083 0.37048864364624023 -0.16727788746356964
0.2315172553062439 0.4060031473636627 -0.23357261717319489
0.18753184378147125 0.3841394782066345 -0.08417423069477081
-0.019813328981399536 0.35488182306289673 -0.17505395412445068
-0.2701742649078369 0.1815483123064041 -0.2667064070701599
-0.09725163877010345 0.17858657240867615 -0.4475054144859314
0.1117536872625351 0.3371255695819855 -0.3237577974796295
0.1558501124382019 0.5285998582839966 -0.12543363869190216
-0.2388492226600647 0.4992159605026245 -0.06592234969139099
0.06522340327501297 0.15044881403446198 -0.3077947497367859
0.24463342130184174 0.22133207321166992 -0.14464682340621948
0.3650889992713928 0.05648263916373253 0.2830069959163666
0.17727674543857574 0.1757124960422516 0.14164668321609497
0.3476871848106384 -0.004294751677662134 -0.22237896919250488
0.351645290851593 -0.1252557337284088 -0.17795251309871674
0.21187885105609894 -0.21607547998428345 -0.09106430411338806
0.05504729598760605 -0.06024213135242462 -0.1364467889070511
0.2445545643568039 -0.17820459604263306 0.0344894677400589
0.17214874923229218 0.06223869323730469 -0.047072503715753555
0.12287953495979309 -0.2329329550266266 0.4422328472137451
0.14177711308002472 -0.10776407271623611 0.35406526923179626
-0.08493158966302872 -0.20418328046798706 0.16305547952651978
-0.30186256766319275 -0.31921476125717163 0.06425660103559494
0.0893285945057869 0.04997202381491661 0.0670861005783081
0.12559978663921356 0.4069686233997345 0.19311107695102692
-0.432394802570343 0.41057804226875305 0.029627274721860886
-0.01592288352549076 0.022152118384838104 -0.09962797164916992
0.09559096395969391 -0.08388924598693848 0.09943096339702606
0.11387723684310913 -0.09191354364156723 0.20096787810325623
0.08009577542543411 -0.23309169709682465 0.23656854033470154
-0.015952443704009056 -0.32090768218040466 0.10431106388568878
-0.0790482684969902 -0.4724837839603424 0.11874189972877502
-0.174198716878891 -0.567196786403656 0.07037398219108582
-0.3030661344528198 -0.4332113564014435 -0.08157060295343399
-0.172393336892128 -0.08450420200824738 0.13741660118103027
-0.4022940695285797 0.27083978056907654 0.0551917627453804
0.12383878231048584 0.4287582039833069 0.07260773330926895
0.14419643580913544 0.4524746835231781 0.17936229705810547
-0.49261674284935 0.39573344588279724 0.029401646926999092
-0.283123254776001 0.10896799713373184 -0.23198522627353668
-0.16464924812316895 0.12581419944763184 -0.19223743677139282
-0.012107833288609982 0.16685573756694794 -0.06829776614904404
-0.06349897384643555 -0.025454869493842125 0.26491987705230713
0.02106606960296631 -0.1891585737466812 0.34499606490135193
0.08279650658369064 -0.2008773237466812 0.1388063132762909
0.14963562786579132 -0.271701455116272 0.09866269677877426
0.1849546730518341 -0.2805970013141632 0.16396833956241608
0.13188402354717255 -0.25423985719680786 0.0752752274274826
0.14842531085014343 -0.35697174072265625 -0.027622031047940254
0.24659428000450134 -0.1314639449119568 0.04194318875670433
0.25819242000579834 -0.14805451035499573 0.20564816892147064
0.3405991494655609 -0.15747782588005066 0.16375236213207245
0.22405830025672913 -0.09486496448516846 0.08417227864265442
0.15835264325141907 -0.3118393123149872 0.10459452122449875
0.19442489743232727 -0.06768921762704849 -0.1313416212797165
0.1334061473608017 -0.2228233963251114 0.04888533055782318
0.32880476117134094 -0.08550973236560822 0.07022714614868164
0.25669461488723755 -0.10746289044618607 0.14514252543449402
0.31343933939933777 -0.025395136326551437 0.13310088217258453
0.12812112271785736 -0.24672241508960724 0.3222898840904236
-0.04935501888394356 -0.28753742575645447 0.07996752113103867
-0.007322770077735186 -0.4012429118156433 0.033748939633369446
0.1455770879983902 0.10299835354089737 0.023353759199380875
0.29699987173080444 -0.089509978890419 0.24851125478744507
0.26643261313438416 0.059852782636880875 0.09960844367742538
0.1943940967321396 -0.0103946877643466 0.11048845201730728
0.10804325342178345 -0.04339174926280975 0.06912750005722046
0.15926414728164673 -0.14620575308799744 0.06542084366083145
0.15158209204673767 0.09515248239040375 -0.0003877176495734602
0.21253135800361633 -0.06668929010629654 0.10382993519306183
0.12149644643068314 0.1318821758031845 -0.03133200481534004
0.045315057039260864 0.028315898030996323 0.13123773038387299
0.17944489419460297 0.05464521422982216 0.1787463277578354
0.14686305820941925 0.1180143728852272 0.01017860509455204
-0.019216980785131454 0.15404236316680908 0.0852622240781784
0.1407105028629303 -0.18097259104251862 0.3871058523654938
0.09477423876523972 0.014268621802330017 0.2594442069530487
0.10885506123304367 -0.34165772795677185 0.3583987057209015
0.1489814966917038 -0.30290788412094116 0.07318822294473648
0.23921112716197968 -0.2740415632724762 0.06847415119409561
0.2387973517179489 -0.23418420553207397 0.1794404536485672
0.16484379768371582 -0.3440198302268982 0.20940998196601868
0.12164289504289627 -0.22238919138908386 0.1595308631658554
0.10189700871706009 -0.18910366296768188 0.10118500888347626
0.10260341316461563 -0.13897134363651276 0.12231674790382385
0.0201195627450943 -0.09041409194469452 0.13604938983917236
0.0818382278084755 -0.08672100305557251 0.07834424078464508
0.19844868779182434 -0.13259801268577576 0.0013132267631590366
0.2092646062374115 -0.07607684284448624 0.0691988617181778
0.19097857177257538 -0.1824236661195755 0.20350012183189392
0.12990114092826843 -0.1829073429107666 0.2607118785381317
0.048077743500471115 -0.15645110607147217 0.2801157832145691
0.02018939144909382 -0.18123328685760498 0.2377411276102066
0.10173095017671585 -0.16245511174201965 0.19311682879924774
0.11978907883167267 -0.21093736588954926 0.19089019298553467
0.05988667905330658 -0.14453494548797607 0.2320103943347931
0.06118732690811157 -0.18345165252685547 0.25043076276779175
0.014156126417219639 -0.052835654467344284 0.21745896339416504
0.020341457799077034 -0.23150691390037537 0.3004317879676819
0.07956559211015701 -0.2079572081565857 0.2846822440624237
0.0014127871254459023 -0.12358837574720383 0.23371849954128265
0.03532290831208229 -0.13056719303131104 0.18903422355651855
0.1640390157699585 0.06000000610947609 0.2870270013809204
0.0872480571269989 -0.15693548321723938 0.3625309467315674
0.21522101759910583 -0.09485340118408203 0.1848577857017517
0.22228224575519562 -0.04788661748170853 0.10042503476142883
0.1003023013472557 -0.126417338848114 0.20628908276557922
0.20648038387298584 -0.0856882631778717 0.29601380228996277
0.10528967529535294 -0.24919836223125458 0.40670984983444214
-0.13034604489803314 -0.3833673894405365 0.34762582182884216
-0.07504253834486008 -0.373838871717453 0.17492108047008514
0.11377165466547012 -0.17857089638710022 0.11804754287004471
0.016190044581890106 -0.038164399564266205 0.15328750014305115
0.03989950194954872 -0.06455500423908234 0.2935308516025543
0.09581128507852554 -0.14287319779396057 0.1739528924226761
0.1459883749485016 -0.029182571917772293 0.2702806293964386
0.039139434695243835 -0.2770332992076874 0.23921065032482147
0.11369965225458145 -0.1661057323217392 0.20503945648670197
0.15403591096401215 -0.13891327381134033 0.1145678162574768
0.23727774620056152 -0.1290588080883026 0.198262557387352
0.13396994769573212 -0.12080269306898117 0.2116187959909439
0.12812663614749908 -0.1791406124830246 0.14149446785449982
0.13485507667064667 -0.09601320326328278 0.10871022939682007
0.15054363012313843 -0.22700129449367523 0.13026201725006104
0.1637193262577057 -0.11035558581352234 0.13451650738716125
0.010312879458069801 -0.06215803325176239 0.1102943867444992
0.10159360617399216 -0.06835569441318512 0.20690862834453583
0.07703518867492676 0.1454589068889618 0.013163893483579159
0.18774858117103577 -0.07860959321260452 0.07216476649045944
0.2333812117576599 -0.07716544717550278 -0.05550495535135269
0.28749504685401917 -0.17002031207084656 0.03719549998641014
0.2623271048069 -0.11960066109895706 0.09214644134044647
0.264282763004303 -0.2569788694381714 0.19744010269641876
0.13509386777877808 -0.2288466840982437 0.17144663631916046
0.0928606241941452 -0.16605046391487122 0.18292708694934845
0.09520205855369568 -0.24118997156620026 0.14398224651813507
0.05991309881210327 -0.22151632606983185 0.11572061479091644
0.03206728771328926 -0.21095606684684753 -0.016761602833867073
0.0868462398648262 -0.14811526238918304 0.1203705221414566
0.06289835274219513 -0.06801949441432953 0.04826223850250244
-0.14754873514175415 -0.012695210985839367 0.07479996979236603
0.2036934196949005 -0.1738126426935196 0.150989830493927
0.21145059168338776 -0.07397864013910294 0.12838242948055267
0.10352436453104019 -0.13856378197669983 0.2776247262954712
-0.0521061010658741 -0.16976776719093323 0.3670552968978882
-0.09728553146123886 -0.2585535943508148 0.33792510628700256
0.041523631662130356 -0.18729263544082642 0.161396786570549
0.2209644913673401 -0.2052634209394455 0.05191430449485779
0.034320443868637085 -0.07060486078262329 0.14472191035747528
0.16295070946216583 -0.45071864128112793 0.38576483726501465
0.09067320823669434 -0.023153124377131462 0.0170443058013916
-0.027667498216032982 -0.058407336473464966 0.0009846542961895466
0.16101153194904327 -0.27703893184661865 0.111794114112854
0.14491006731987 -0.0362122505903244 -0.03186235949397087
0.2560194730758667 -0.22346539795398712 0.15847493708133698
0.11590570956468582 -0.1469624787569046 0.05783400312066078
0.06626395136117935 -0.1468697041273117 0.16370734572410583
0.07393842935562134 -0.005133070517331362 0.11058897525072098
0.042251136153936386 -0.12589463591575623 0.22249320149421692
0.10939274728298187 -0.21710607409477234 0.2016686648130417
-0.0025486790109425783 -0.1364317536354065 0.12173537164926529
-0.03419458866119385 -0.08428683876991272 0.10991250723600388
0.20385873317718506 0.01928817853331566 0.18056899309158325
0.31753844022750854 -0.03879908099770546 0.1079283058643341
-0.011359727941453457 -0.24108535051345825 0.3165687620639801
-0.028715141117572784 -0.2647855281829834 0.16798906028270721
0.10034918785095215 -0.33866041898727417 0.3020477294921875
0.10105029493570328 -0.40694618225097656 0.11610699445009232
-0.06396442651748657 -0.28499898314476013 0.06761566549539566
0.06438633799552917 -0.38810065388679504 -0.05521947145462036
0.15816038846969604 -0.2390742301940918 0.1507372260093689
0.1864798665046692 -0.19699175655841827 0.10765084624290466
0.1862696260213852 -0.17650923132896423 0.11653251945972443
0.2048119157552719 -0.151549831032753 0.15166433155536652
0.16180408000946045 -0.161372110247612 0.16096781194210052
0.1641516238451004 -0.15335431694984436 0.1998264640569687
0.11126463860273361 -0.1995677798986435 0.19364766776561737
0.0886329635977745 -0.1700022667646408 0.23405516147613525
0.07982835918664932 -0.1950712949037552 0.225229412317276
0.04581667110323906 -0.2140367329120636 0.23543836176395416
0.03879885375499725 -0.12523159384727478 0.23416751623153687
0.014541407115757465 -0.16516517102718353 0.26067742705345154
0.016075463965535164 -0.07447826862335205 0.2629551291465759
0.004232839215546846 -0.13491594791412354 0.2916969358921051
0.00662129046395421 -0.10608632117509842 0.30718541145324707
-0.01490499172359705 -0.15079419314861298 0.35156601667404175
-0.003491421462967992 -0.21578004956245422 0.27236178517341614
0.06903161108493805 -0.10365968942642212 0.17969289422035217
0.06802588701248169 -0.09836260229349136 0.22827844321727753
-0.11035186052322388 -0.13939431309700012 0.3547697067260742
0.027730759233236313 -0.053391970694065094 0.31421107053756714
0.028113432228565216 -0.13180476427078247 0.27162426710128784
-0.049812737852334976 -0.13749746978282928 0.25038787722587585
0.012744121253490448 -0.12855611741542816 0.28575751185417175
0.06974469870328903 -0.10345692187547684 0.3239184319972992
-0.03384322673082352 -0.2044995129108429 0.2808741331100464
0.07703262567520142 -0.10718155652284622 0.1889280527830124
-0.04074711725115776 0.04225166514515877 0.21989299356937408
0.04541568085551262 -0.06191842257976532 0.40913376212120056
-0.015260965563356876 -0.06299801170825958 0.4433748424053192
0.02933645062148571 -0.10124336928129196 0.36009925603866577
0.035100799053907394 -0.18359307944774628 0.2761717736721039
0.01724546030163765 -0.24907614290714264 0.23851853609085083
0.04063854739069939 -0.1878902018070221 0.2281501144170761
0.09345515072345734 -0.2343236654996872 0.2750118672847748
0.03552868962287903 -0.3135870695114136 0.3203476369380951
-0.05266830697655678 -0.285317987203598 0.22843703627586365
-0.025830693542957306 -0.2424878031015396 0.10983689874410629
0.0530017726123333 -0.13836543262004852 0.2047446370124817
0.05887272581458092 -0.22717571258544922 0.11281396448612213
-0.07873649150133133 0.10208365321159363 0.2586503028869629
0.20449256896972656 -0.06743956357240677 0.4318588078022003
0.057135313749313354 -0.08844497799873352 0.4496925473213196
0.028593814000487328 -0.05128226429224014 0.3057626485824585
-0.01975363679230213 -0.03846799209713936 0.31009384989738464
0.06590136140584946 -0.12620465457439423 0.46636587381362915
0.04482642933726311 -0.2144964337348938 0.34579402208328247
0.060997411608695984 -0.19551804661750793 0.37596407532691956
0.05074586346745491 -0.21106716990470886 0.381015807390213
-0.10192709416151047 -0.2098223865032196 0.49813300371170044
-0.07500660419464111 -0.2090011090040207 0.3708905577659607
0.06536063551902771 -0.10411214083433151 0.32087403535842896
-0.05625493824481964 -0.15363413095474243 0.41900643706321716
-0.04590130224823952 -0.15916210412979126 0.39453747868537903
0.013074690476059914 -0.2765428125858307 0.4418488144874573
-0.06944441795349121 -0.2805476486682892 0.36056238412857056
-0.113344207406044 -0.14479216933250427 0.24365845322608948
0.03861670196056366 -0.08039994537830353 0.3503548502922058
-0.10187434405088425 -0.2649432122707367 0.526604950428009
-0.06609880924224854 -0.2907055914402008 0.5597395896911621
