ply
format ascii 1.0
element vertex 799
property float x
property float y
property float z
end_header
0.12376155704259872 0.4155384600162506 0.19805686175823212
-0.31614261865615845 0.3337177038192749 0.18295392394065857
-0.1779104620218277 0.6007747054100037 0.030016735196113586
0.05213291570544243 0.761992871761322 -0.20298512279987335
-0.027036497369408607 0.616608202457428 -0.41976720094680786
0.08446145802736282 0.0817345604300499 -0.5633898973464966
0.0701998919248581 0.0819031298160553 -0.5046268105506897
-0.09910298883914948 0.2743147611618042 -0.251268595457077
0.016572969034314156 0.05321112647652626 -0.04638223722577095
-0.23273740708827972 -0.04599861428141594 0.3309166431427002
-0.009460692293941975 -0.031641002744436264 0.2774183750152588
-0.2934647798538208 -0.05200280249118805 0.3536575734615326
-0.18218465149402618 0.3095215857028961 0.4235108494758606
-0.2739050090312958 0.1712786704301834 0.1828593611717224
-0.40362635254859924 0.07251054048538208 0.3597591519355774
-0.34067609906196594 -0.19131338596343994 0.2268373668193817
-0.3956204950809479 0.16162870824337006 0.05259321257472038
-0.2635100781917572 0.29294201731681824 0.15194442868232727
-0.0513887032866478 -0.09793028235435486 -0.10941764712333679
-0.22024282813072205 -0.2509314715862274 0.22482584416866302
0.01008651778101921 -0.038324207067489624 0.16182151436805725
-0.30908289551734924 0.10013294965028763 -0.012080935761332512
-0.22450676560401917 0.3434261679649353 -0.04226310923695564
0.019309408962726593 0.17000822722911835 -0.41088661551475525
-0.08924710005521774 0.27764973044395447 -0.24364019930362701
0.021623052656650543 -0.005237010307610035 -0.09372246265411377
-0.18711942434310913 -0.22230370342731476 0.2483687847852707
0.01825534738600254 -0.03993911296129227 0.16430312395095825
-0.30249208211898804 0.10642563551664352 -0.007538163103163242
-0.13813085854053497 0.4919685423374176 0.06975872814655304
0.11322920769453049 0.8602228164672852 -0.1764245629310608
0.2482665479183197 0.7433977723121643 -0.45475342869758606
0.05036286637187004 0.40215495228767395 -0.2593960762023926
0.027358941733837128 0.4675854444503784 -0.3465230464935303
0.08522946387529373 0.7370561957359314 -0.28178879618644714
-0.031137773767113686 0.6140822172164917 -0.42461514472961426
0.09271712601184845 0.08484829217195511 -0.5592798590660095
0.08123599737882614 0.004611814394593239 -0.5661300420761108
0.07698662579059601 0.0035249239299446344 -0.5686560273170471
0.07698662579059601 0.0035249239299446344 -0.5686560273170471
0.06918510049581528 0.00044096505735069513 -0.5720992088317871
0.06142265722155571 0.0792807936668396 -0.511006236076355
-0.08412005007266998 0.3467130959033966 -0.17242400348186493
-0.07533460855484009 0.18519024550914764 0.09621317684650421
-0.12296853959560394 -0.1706756204366684 0.3496975004673004
-0.06466913968324661 -0.15624836087226868 0.4725859463214874
-0.1677493453025818 0.04647767171263695 0.34380000829696655
-0.350517213344574 0.31544357538223267 0.24069157242774963
-0.2766164243221283 0.46513301134109497 0.1920473426580429
-0.008486500009894371 0.054923251271247864 -0.006745241116732359
-0.19016672670841217 -0.22457845509052277 0.2509814500808716
0.023242175579071045 0.01896781288087368 0.20728784799575806
-0.2749393880367279 0.33099135756492615 0.21718096733093262
-0.25638067722320557 0.49188587069511414 0.26769793033599854
-0.22962869703769684 0.03767407312989235 0.3618851900100708
-0.17906029522418976 -0.09090561419725418 0.48364123702049255
-0.27224647998809814 0.20330670475959778 0.41495150327682495
-0.1967100203037262 0.4185309410095215 0.3436873257160187
-0.22530604898929596 0.13372042775154114 0.5094626545906067
-0.097539521753788 0.3251760005950928 0.38006922602653503
-0.3218696415424347 0.20204494893550873 0.1733608841896057
-0.33630597591400146 0.03765260800719261 0.38744446635246277
-0.23643895983695984 0.17011184990406036 0.26205968856811523
-0.13863271474838257 0.4198954403400421 0.07997635006904602
-0.16845759749412537 0.34531182050704956 0.011392779648303986
0.08386346697807312 0.08962863683700562 -0.4635530710220337
0.08455919474363327 0.0026707223150879145 -0.5663609504699707
0.07698662579059601 0.0035249239299446344 -0.5686560273170471
0.06918510049581528 0.00044096505735069513 -0.5720992088317871
0.06603667140007019 0.08050984889268875 -0.5075689554214478
-0.09910298883914948 0.2743147611618042 -0.251268595457077
0.016572969034314156 0.05321112647652626 -0.04638223722577095
-0.23655880987644196 -0.04721564054489136 0.3299615979194641
-0.009116128087043762 0.0030494751408696175 0.29872292280197144
-0.3116662800312042 0.018364526331424713 0.3715950548648834
-0.12009185552597046 0.1607380211353302 0.41430312395095825
-0.2707938849925995 0.09489338845014572 0.4443381428718567
-0.024511536583304405 0.40420210361480713 0.5192459225654602
-0.17290760576725006 0.3776226341724396 0.48057225346565247
0.04927121102809906 0.6310813426971436 0.40584495663642883
-0.17208944261074066 0.5884679555892944 0.15575549006462097
-0.060470469295978546 0.7669997215270996 0.0821060761809349
0.004180521704256535 0.8470332026481628 -0.0879361480474472
0.0017757166642695665 0.6819309592247009 -0.3591057062149048
0.09843926876783371 0.08741949498653412 -0.5558746457099915
0.08123599737882614 0.004611814394593239 -0.5661300420761108
0.07698662579059601 0.0035249239299446344 -0.5686560273170471
0.07698662579059601 0.0035249239299446344 -0.5686560273170471
0.15909789502620697 0.04630410298705101 -0.5436794757843018
0.5854519009590149 0.41168561577796936 -0.19374138116836548
0.748556911945343 0.3206956088542938 0.02153690904378891
0.3715871572494507 0.5573439598083496 0.49341583251953125
0.3577739894390106 0.47289079427719116 0.38822102546691895
0.19518162310123444 -0.03909584507346153 0.6301096081733704
-0.18047910928726196 0.18502572178840637 0.6743906140327454
-0.3561040759086609 0.3873006999492645 0.49930667877197266
-0.6145814657211304 0.12730950117111206 0.2959345877170563
-0.563732922077179 0.10324211418628693 0.16177302598953247
-0.37504398822784424 0.3414878249168396 0.2939142882823944
-0.16002996265888214 0.4893919825553894 0.3285456597805023
-0.12335479259490967 0.45704033970832825 0.3616108000278473
0.15488235652446747 0.2528160810470581 0.27842044830322266
0.27526867389678955 0.44724392890930176 0.38277679681777954
0.011209015734493732 0.49559178948402405 0.351317435503006
0.3670137822628021 0.17851799726486206 -0.09538355469703674
-0.07999209314584732 0.23575839400291443 -0.2575356960296631
0.065513975918293 0.08444402366876602 -0.0014456401113420725
0.5029160380363464 0.4050423204898834 0.3111741840839386
0.629142165184021 0.18587444722652435 0.5222984552383423
0.5415551662445068 0.2842373251914978 0.5827282071113586
0.5542224049568176 0.2457800954580307 0.6437787413597107
0.34763360023498535 0.35509151220321655 0.5934291481971741
0.1151481568813324 0.3602939546108246 0.654334306716919
0.24378429353237152 0.2633833885192871 0.6310638785362244
-0.4287279546260834 0.068526491522789 0.4041428864002228
-0.27265530824661255 0.33307287096977234 0.5452004671096802
-0.38734185695648193 0.16078805923461914 0.4713960587978363
0.011302938684821129 0.7272751331329346 0.3997397720813751
-0.0038010908756405115 0.3487064838409424 0.3700438141822815
0.15956732630729675 0.5615198016166687 0.2388218641281128
0.46949803829193115 0.7528936266899109 0.16225236654281616
0.6404948830604553 0.4060663878917694 0.21967826783657074
0.7191320657730103 0.23965893685817719 0.2278030514717102
0.5142443180084229 0.5619854927062988 0.5739525556564331
0.4724337160587311 0.6468997001647949 0.5142147541046143
0.13296496868133545 0.46925273537635803 0.524812638759613
-0.0594206377863884 0.2927669286727905 0.5537751317024231
0.08031924813985825 0.3907892405986786 0.5162107348442078
-0.12236419320106506 0.48190924525260925 0.342922568321228
-0.27863436937332153 0.10086241364479065 0.46391305327415466
-0.34338730573654175 0.07467751204967499 0.5195274949073792
-0.30832114815711975 0.27383244037628174 0.39804744720458984
-0.41656675934791565 0.26083552837371826 0.26996004581451416
-0.360258549451828 -0.06630206853151321 0.36753544211387634
-0.1819184124469757 0.11934243142604828 0.1133786290884018
-0.3370189964771271 0.055952124297618866 0.011093247681856155
-0.36600789427757263 -0.05905451625585556 -0.06246136873960495
-0.13151095807552338 0.20199407637119293 -0.17854076623916626
0.07056912779808044 0.4252515733242035 -0.13401846587657928
0.18917252123355865 0.5806879997253418 -0.4757018983364105
-0.1533668041229248 0.695918619632721 -0.23317687213420868
-0.2577894926071167 0.695697009563446 0.01631126180291176
-0.3387258052825928 0.5934115052223206 -0.06754535436630249
-0.47857004404067993 0.3022158145904541 0.3481847047805786
-0.3584616184234619 0.02298850752413273 0.24648119509220123
-0.4237858057022095 0.04109342768788338 -0.029484154656529427
-0.010273022577166557 0.5568472743034363 0.0437958762049675
0.1239473819732666 0.08251265436410904 -0.3748885989189148
0.1365678757429123 0.07665462046861649 -0.476300448179245
-0.08885309845209122 0.27696356177330017 -0.24880436062812805
0.021623052656650543 -0.005237010307610035 -0.09372246265411377
-0.18711942434310913 -0.22230370342731476 0.2483687847852707
0.01825534738600254 -0.03993911296129227 0.16430312395095825
-0.30908289551734924 0.10013294965028763 -0.012080935761332512
-0.2034575194120407 0.3581874668598175 -0.03236515447497368
0.17521633207798004 0.2644919455051422 -0.405963659286499
0.18207500874996185 0.3024931252002716 -0.47147417068481445
-0.0667867586016655 0.6644958257675171 -0.12114693224430084
-0.01870773173868656 0.5410993695259094 -0.1463475525379181
-0.13116545975208282 0.3236340582370758 -0.09464127570390701
0.2245432436466217 0.6546254754066467 -0.01342384610325098
0.1578466296195984 0.7604445815086365 -0.27326422929763794
-0.1526331603527069 0.6191953420639038 -0.19337941706180573
-0.09873756021261215 0.13774250447750092 -0.2809053063392639
-0.13735145330429077 0.11699070036411285 -0.2563435733318329
0.24371337890625 0.3751358985900879 -0.2000468373298645
0.17835193872451782 0.0038102015387266874 -0.4577236771583557
0.14219112694263458 0.00026802424690686166 -0.5415301322937012
0.08078930526971817 0.003984868060797453 -0.5680735111236572
0.07698662579059601 0.0035249239299446344 -0.5686560273170471
0.07698662579059601 0.0035249239299446344 -0.5686560273170471
0.07698662579059601 0.0035249239299446344 -0.5686560273170471
0.07698662579059601 0.0035249239299446344 -0.5686560273170471
0.07698662579059601 0.0035249239299446344 -0.5686560273170471
0.08683981746435165 0.013554570265114307 -0.5654192566871643
0.1035405844449997 0.12027088552713394 -0.5426768660545349
-0.05685344710946083 0.2542215585708618 -0.4568917751312256
-0.27654725313186646 0.21218381822109222 -0.3478049635887146
-0.28861019015312195 -0.19696848094463348 -0.29799318313598633
-0.13642901182174683 0.04924735054373741 -0.3003578186035156
0.013915475457906723 -0.09994407743215561 -0.3581075668334961
0.030702995136380196 -0.21107369661331177 -0.7195355892181396
0.10271947085857391 0.0013892316492274404 -0.6361622214317322
0.5860700607299805 0.4176886975765228 -0.19028149545192719
0.7830685377120972 0.2763625383377075 -0.017492441460490227
0.5043274164199829 0.42504000663757324 0.3558349013328552
0.661407470703125 0.4383915662765503 0.08035661280155182
0.8245106935501099 0.08781907707452774 0.15093190968036652
0.3980323076248169 0.3637256324291229 0.16492748260498047
0.7224584817886353 0.05522732809185982 -0.015821099281311035
0.3822294771671295 0.02208271250128746 -0.40429767966270447
0.10893123596906662 -0.0003944922355003655 -0.5645408034324646
0.1008085086941719 0.017309410497546196 -0.5654421448707581
0.20765508711338043 0.1478375941514969 -0.5199832320213318
0.09089360386133194 0.13747043907642365 -0.6129358410835266
-0.1307106614112854 0.2559291422367096 -0.33081287145614624
-0.10568299889564514 0.08106057345867157 -0.308940052986145
-0.13945847749710083 0.1162615418434143 -0.2589166760444641
0.23967325687408447 0.3741988241672516 -0.20204739272594452
0.16901537775993347 0.07473888993263245 -0.40442976355552673
-0.03219775855541229 0.2766916751861572 -0.23435242474079132
0.02452409267425537 -0.004861320834606886 -0.09403127431869507
-0.17581981420516968 -0.21729131042957306 0.2570495307445526
0.11757029592990875 0.0595756471157074 0.26616743206977844
-0.2982652187347412 0.38122284412384033 0.020369697362184525
-0.17538908123970032 0.5147829055786133 0.03158842772245407
-0.1218402311205864 0.2683645784854889 -0.10988635569810867
-0.16963323950767517 0.2480471283197403 -0.039179202169179916
-0.09672819823026657 0.3366445004940033 0.02820618636906147
-0.12763866782188416 0.3625378906726837 0.0951373428106308
-0.0645812451839447 0.4153023660182953 0.14553281664848328
-0.23369643092155457 0.32780903577804565 0.11701572686433792
-0.26142755150794983 0.35261574387550354 0.15702107548713684
-0.3455153703689575 0.49857234954833984 0.30779775977134705
-0.511005163192749 0.3347891569137573 0.4586004316806793
-0.42842739820480347 0.4216359853744507 0.32519546151161194
-0.4139966070652008 0.4749077260494232 0.26754507422447205
-0.40891799330711365 0.5140601396560669 0.41184237599372864
-0.4782559871673584 0.17863595485687256 0.2703550457954407
-0.3930126428604126 0.45037877559661865 0.21646033227443695
-0.3336564898490906 0.43794548511505127 0.24440978467464447
-0.28960779309272766 0.41561731696128845 0.29585880041122437
-0.17870204150676727 0.5092923045158386 0.3116203844547272
-0.10475100576877594 0.586558997631073 0.4300885796546936
0.12844659388065338 0.6812141537666321 0.3157139718532562
0.3141084909439087 0.3556048274040222 0.26201367378234863
0.12896066904067993 0.593945324420929 0.5137435793876648
0.3582121431827545 0.25848567485809326 0.4795786142349243
0.3082578480243683 0.4436584711074829 0.45223191380500793
0.18445764482021332 0.5155667066574097 0.6637065410614014
0.43591123819351196 0.05757890269160271 0.7282825708389282
0.30064839124679565 0.407065749168396 0.6383112668991089
0.23262205719947815 0.5205835700035095 0.5156718492507935
0.46482276916503906 0.2833608090877533 0.759111762046814
0.18692263960838318 0.5176650881767273 0.33665645122528076
0.6017929911613464 0.21173347532749176 -0.020923102274537086
0.37540894746780396 0.4799214005470276 0.13380952179431915
0.45233094692230225 0.28093665838241577 0.07738600671291351
0.25968092679977417 0.446937620639801 0.3249626159667969
0.503309965133667 0.46007078886032104 0.19716109335422516
0.4570223391056061 0.34308579564094543 0.4045409858226776
0.379122257232666 0.49596258997917175 0.24725039303302765
0.5237591862678528 0.35035449266433716 0.3573935627937317
0.1933818757534027 0.15687669813632965 0.2403605729341507
-0.04346200451254845 0.23173394799232483 0.07958707958459854
-0.17269255220890045 0.2205931395292282 0.06730692088603973
-0.19816696643829346 0.042828090488910675 -0.09399944543838501
-0.13957132399082184 0.05406276136636734 -0.3095122277736664
0.1000230684876442 0.464499831199646 -0.16008096933364868
0.03341950476169586 0.19160830974578857 -0.13275054097175598
-0.14106886088848114 0.3340942859649658 -0.09980212152004242
-0.1083904355764389 0.4651172459125519 0.011090938933193684
-0.24284690618515015 0.08086790889501572 0.002438985975459218
-0.062413401901721954 0.2912778854370117 0.02211226522922516
-0.07486674189567566 0.327912300825119 -0.011422036215662956
0.1273053139448166 0.23580552637577057 -0.13811996579170227
-0.05976187437772751 0.07922045141458511 -0.20973479747772217
0.27076011896133423 0.36189836263656616 -0.18569549918174744
0.18177160620689392 0.00443719606846571 -0.4568297564983368
0.1776406317949295 0.024543937295675278 -0.531711220741272
0.2444310039281845 0.3029479384422302 -0.45381781458854675
-0.06560388952493668 0.32239875197410583 -0.5143597722053528
-0.35784828662872314 0.46160364151000977 -0.17955739796161652
-0.3648652136325836 -0.258553683757782 -0.23472703993320465
-0.26951199769973755 0.1299251765012741 -0.15894842147827148
0.11226335167884827 0.4033554196357727 -0.11789797246456146
0.13459275662899017 -0.21952936053276062 -0.7821483016014099
0.1084805503487587 0.06894764304161072 -0.6023273468017578
-0.05163083225488663 0.264106810092926 -0.45389416813850403
-0.19990302622318268 0.3661309480667114 -0.25292032957077026
-0.22145166993141174 0.2885289788246155 -0.08101070672273636
-0.04059343785047531 0.6607481241226196 -0.2576577067375183
-0.2580658793449402 0.5720874667167664 0.031085515394806862
-0.33255621790885925 0.5128319263458252 -0.18157318234443665
-0.27360713481903076 0.683210551738739 0.010417412966489792
0.049158044159412384 0.947904109954834 0.04558470472693443
0.06472980231046677 0.37127843499183655 -0.06812413781881332
0.025044508278369904 0.3715641498565674 -0.5082005858421326
0.047165386378765106 0.7283065915107727 -0.33106720447540283
-0.04328516498208046 0.6124106645584106 -0.4248776137828827
0.09271712601184845 0.08484829217195511 -0.5592798590660095
0.08123599737882614 0.004611814394593239 -0.5661300420761108
0.06918510049581528 0.00044096505735069513 -0.5720992088317871
0.09279140830039978 0.09637366980314255 -0.503002405166626
0.013490685261785984 0.4491136372089386 -0.15982569754123688
0.06601229310035706 0.1724795401096344 -0.28283172845840454
-0.28663021326065063 0.026628533378243446 0.22368675470352173
-0.17966130375862122 0.0774378851056099 0.16933563351631165
-0.29336562752723694 0.22305960953235626 0.1037331148982048
0.03940202668309212 0.5822091698646545 0.03708789497613907
-0.05207153782248497 0.26999619603157043 -0.1650238186120987
0.016504406929016113 0.15286612510681152 -0.20146487653255463
-0.09982573986053467 0.164779931306839 -0.2482847273349762
0.0654168352484703 0.41790345311164856 -0.10684618353843689
-0.008597740903496742 0.06372278928756714 -0.21401599049568176
-0.09867555648088455 0.11162066459655762 -0.24244606494903564
0.24556854367256165 0.3745051622390747 -0.1997893750667572
0.17835193872451782 0.0038102015387266874 -0.4577236771583557
0.14219112694263458 0.00026802424690686166 -0.5415301322937012
0.12795895338058472 0.026590054854750633 -0.5564199090003967
0.43855056166648865 0.25812575221061707 -0.41731518507003784
0.602870523929596 0.5245612859725952 -0.041320860385894775
0.630508303642273 0.26394838094711304 0.14741429686546326
0.6935629844665527 0.17988134920597076 0.15950840711593628
0.5771565437316895 0.3118857443332672 0.05364365130662918
0.7084634304046631 0.2277834266424179 0.23650763928890228
0.6006256937980652 0.2756529450416565 0.10317378491163254
0.6085807681083679 0.38118234276771545 0.10291900485754013
0.6861193776130676 0.28426316380500793 0.17111515998840332
0.5055866241455078 0.4780045449733734 0.02028530463576317
0.6900079846382141 0.5393792390823364 0.13876456022262573
0.7090321779251099 0.24696572124958038 0.010769571177661419
0.714399516582489 -0.09612585604190826 -0.04372745379805565
0.5454280972480774 0.12465102970600128 -0.21462781727313995
0.6141918301582336 0.5299311876296997 -0.0009464985341764987
0.20282365381717682 0.3593301773071289 -0.10194533318281174
-0.2055976539850235 -0.17839141190052032 -0.28294825553894043
-0.1201855018734932 0.059209518134593964 -0.2934400141239166
0.007199815008789301 -0.026887886226177216 -0.30360761284828186
-0.20371049642562866 0.024519339203834534 -0.48411691188812256
-0.5980479121208191 0.22851687669754028 -0.23683273792266846
-0.48926711082458496 -0.31847044825553894 -0.07674874365329742
-0.4314156174659729 0.003171728691086173 -0.18642111122608185
-0.23258017003536224 0.08306501805782318 -0.16557906568050385
-0.146218940615654 -0.4447630047798157 -0.5743570327758789
-0.46875831484794617 0.004183316603302956 -0.5389978885650635
-0.08284951746463776 0.04168523848056793 -0.5546954870223999
0.060905441641807556 0.008276023901998997 -0.5651779174804688
0.07698662579059601 0.0035249239299446344 -0.5686560273170471
0.07698662579059601 0.0035249239299446344 -0.5686560273170471
0.07698662579059601 0.0035249239299446344 -0.5686560273170471
0.07698662579059601 0.0035249239299446344 -0.5686560273170471
0.07698662579059601 0.0035249239299446344 -0.5686560273170471
0.07698662579059601 0.0035249239299446344 -0.5686560273170471
0.07698662579059601 0.0035249239299446344 -0.5686560273170471
0.1008085086941719 0.017309410497546196 -0.5654421448707581
0.20765508711338043 0.1478375941514969 -0.5199832320213318
0.09089360386133194 0.13747043907642365 -0.6129358410835266
-0.1307106614112854 0.2559291422367096 -0.33081287145614624
-0.10568299889564514 0.08106057345867157 -0.308940052986145
-0.13945847749710083 0.1162615418434143 -0.2589166760444641
0.24371337890625 0.3751358985900879 -0.2000468373298645
0.17835193872451782 0.0038102015387266874 -0.4577236771583557
0.14219112694263458 0.00026802424690686166 -0.5415301322937012
0.08078930526971817 0.003984868060797453 -0.5680735111236572
0.07698662579059601 0.0035249239299446344 -0.5686560273170471
0.07698662579059601 0.0035249239299446344 -0.5686560273170471
0.07698662579059601 0.0035249239299446344 -0.5686560273170471
0.07698662579059601 0.0035249239299446344 -0.5686560273170471
0.07698662579059601 0.0035249239299446344 -0.5686560273170471
0.07698662579059601 0.0035249239299446344 -0.5686560273170471
0.07698662579059601 0.0035249239299446344 -0.5686560273170471
0.08683981746435165 0.013554570265114307 -0.5654192566871643
0.09212382882833481 0.11537047475576401 -0.5474393963813782
-0.07545609772205353 0.29134759306907654 -0.40342259407043457
-0.34847143292427063 0.3518909811973572 -0.10591407865285873
-0.3234856128692627 -0.13230767846107483 -0.03100542724132538
-0.30315539240837097 0.08531931787729263 0.42204225063323975
-0.012497475370764732 0.17490248382091522 0.3726102113723755
-0.26154017448425293 0.06442930549383163 0.31858786940574646
-0.07218518853187561 0.39370131492614746 0.42269691824913025
-0.2775203585624695 0.5355708599090576 0.12157827615737915
-0.15816916525363922 0.8422357439994812 0.05533696711063385
-0.3288401961326599 0.6680293679237366 -0.0700480192899704
-0.28225359320640564 0.023047534748911858 -0.1995079070329666
-0.26661452651023865 0.15687619149684906 -0.13868361711502075
-0.19816629588603973 -0.15022332966327667 -0.1333017200231552
-0.1532069444656372 0.06862743198871613 -0.2153785228729248
-0.2880476713180542 0.04887286201119423 -0.18456244468688965
-0.4580949544906616 -0.002429635263979435 -0.14735977351665497
-0.5020186901092529 0.12943994998931885 0.03530246391892433
-0.45721662044525146 -0.11709347367286682 0.07794927805662155
-0.5010603070259094 -0.05992598831653595 -0.0882221907377243
-0.5002644062042236 0.036571189761161804 0.008238185197114944
-0.5017595887184143 -0.0960698202252388 0.0038044380489736795
-0.6026843786239624 -0.12490081042051315 0.007744829170405865
-0.47724083065986633 0.17525535821914673 0.04987173527479172
-0.39741647243499756 0.21186092495918274 -0.044710543006658554
-0.7112770080566406 0.3356233239173889 -0.15489664673805237
-0.36290642619132996 0.31949856877326965 -0.4647502899169922
-0.3165438771247864 0.6939935088157654 -0.259956419467926
-0.09696002304553986 0.9228900074958801 0.08356189727783203
0.6828721165657043 0.4376462399959564 0.3396960496902466
0.6507387757301331 0.28825438022613525 0.16243673861026764
0.7313085198402405 0.3143419027328491 0.41310399770736694
0.6965153217315674 0.31687912344932556 -0.0025091569405049086
0.6349494457244873 0.47995612025260925 0.30877038836479187
0.31192684173583984 0.22782593965530396 0.256643146276474
0.43136829137802124 0.0915810614824295 0.08205306529998779
0.17502428591251373 -0.09669792652130127 -0.2470310777425766
0.04621260613203049 0.48187798261642456 -0.024387914687395096
0.2627342939376831 0.3333914279937744 0.14818769693374634
-0.014058537781238556 0.554547905921936 0.4859367609024048
0.11588308215141296 0.333596795797348 0.1762801557779312
0.2937122583389282 0.38735178112983704 0.37691813707351685
0.26887956261634827 0.29090410470962524 0.41833457350730896
0.5999027490615845 0.2691282033920288 0.47715410590171814
0.6555150747299194 0.3469446301460266 0.4155903458595276
0.7512093186378479 0.3426329791545868 0.34603965282440186
0.6286964416503906 0.42863407731056213 0.4084901809692383
0.4509936571121216 0.448184996843338 0.39163482189178467
0.26359042525291443 0.2685111463069916 0.4202576279640198
0.23454250395298004 0.23365697264671326 0.7130939960479736
0.16890645027160645 0.3287069797515869 0.5883654952049255
0.47455641627311707 0.3363191783428192 0.5521029829978943
0.08341464400291443 0.3020652234554291 0.46224457025527954
0.01055638026446104 0.4562801420688629 0.3926098346710205
0.180231511592865 0.18250955641269684 -0.31238284707069397
0.09697787463665009 0.004852669779211283 -0.5593693256378174
0.05286479741334915 -0.0003091857361141592 -0.5687580704689026
-0.10626686364412308 -0.056950055062770844 -0.5954172611236572
-0.4033501446247101 0.16161364316940308 -0.351252943277359
-0.23604993522167206 -0.0998714491724968 -0.14764456450939178
-0.3971346318721771 0.07158216089010239 -0.27178117632865906
-0.2387884110212326 0.27450042963027954 -0.3062942922115326
-0.24128711223602295 0.02928595058619976 -0.4620576500892639
-0.5689694881439209 0.21565215289592743 -0.2752860486507416
-0.37425756454467773 -0.17081665992736816 -0.29615071415901184
-0.1467757374048233 0.05239899829030037 -0.29906195402145386
0.013915475457906723 -0.09994407743215561 -0.3581075668334961
0.006277196109294891 -0.21381253004074097 -0.7195637226104736
-0.16550345718860626 -0.1000307947397232 -0.6636207699775696
-0.4117724299430847 0.1622782051563263 -0.35152289271354675
-0.23604993522167206 -0.0998714491724968 -0.14764456450939178
-0.4178047478199005 0.05646837130188942 -0.2748374938964844
-0.3551570177078247 0.13765449821949005 -0.3699430525302887
-0.6084066033363342 -0.09353084862232208 -0.3683869540691376
-0.6011917591094971 -0.0541367381811142 -0.11407765746116638
-0.5801665186882019 0.025703951716423035 -0.2627619206905365
-0.5507985353469849 0.1996070295572281 -0.1971588134765625
-0.5863373875617981 -0.17049074172973633 -0.030503837391734123
-0.6936627626419067 0.007509866263717413 0.14261943101882935
-0.5473592281341553 0.18195827305316925 -0.1845094859600067
-0.34319183230400085 0.018169043585658073 -0.2720183730125427
-0.6354674696922302 -0.20040827989578247 -0.45894020795822144
-0.783057689666748 0.11927691847085953 -0.24085527658462524
-0.5835033059120178 -0.019676271826028824 -0.03699879348278046
-0.615309476852417 0.004618675448000431 0.14555643498897552
-0.6234512329101562 0.07237164676189423 0.10332639515399933
-0.6210593581199646 -0.018269799649715424 0.13265755772590637
-0.7180305123329163 0.0024307749699801207 0.14004312455654144
-0.733768105506897 0.01162021979689598 0.13457919657230377
-0.7348878383636475 0.035991910845041275 0.15141279995441437
-0.7415383458137512 0.15684378147125244 0.23040594160556793
-0.6395898461341858 0.27297717332839966 0.35160741209983826
-0.6796987056732178 0.12657152116298676 0.4298790991306305
-0.5322625637054443 0.27360427379608154 0.2541731894016266
-0.6617993712425232 0.5082896947860718 0.1251406967639923
-0.504174530506134 0.6830835938453674 0.04054472967982292
-0.6184055209159851 0.5059497356414795 -0.16706888377666473
-0.49908703565597534 0.2606463134288788 -0.28452926874160767
-0.24335753917694092 -0.08950193226337433 -0.13743580877780914
-0.4633471667766571 0.1161198765039444 -0.22927479445934296
-0.46446287631988525 0.31379738450050354 -0.18843913078308105
-0.5644537806510925 0.1320551335811615 -0.1134275570511818
-0.6524448990821838 0.4957571029663086 0.10743583738803864
-0.623781681060791 0.5398948788642883 0.1699066311120987
-0.39015817642211914 0.2826291620731354 0.4513915181159973
-0.7968249917030334 0.22391697764396667 0.4179157018661499
-0.5797123908996582 0.4034401476383209 0.30750182271003723
-0.7966901659965515 0.2581678330898285 0.3055764436721802
-0.858468770980835 0.022058846428990364 0.27227944135665894
-0.8094915151596069 0.01721227541565895 0.1608809381723404
-0.7331548929214478 -0.029390372335910797 0.1972619891166687
-0.7328590750694275 -0.07178599387407303 0.10419344156980515
-0.7300201058387756 0.03794505074620247 0.1655471920967102
-0.7172327041625977 0.07415536791086197 0.17215795814990997
-0.702059268951416 0.11005815118551254 0.14288939535617828
-0.7104086875915527 -0.0254210215061903 0.4352877736091614
-0.40461310744285583 0.08161024749279022 0.5409919619560242
-0.45407405495643616 0.30997011065483093 0.4779495894908905
-0.21468611061573029 0.5449129343032837 0.39831069111824036
-0.43711283802986145 0.1824469119310379 0.4391593337059021
-0.5805009603500366 0.22484776377677917 0.4917204976081848
-0.6169818639755249 0.1728515774011612 0.3315621316432953
-0.6068602204322815 0.011029805056750774 0.19637911021709442
-0.7167314887046814 0.00325608067214489 0.14422522485256195
-0.7331537008285522 0.012666614726185799 0.1357889324426651
-0.7328916192054749 0.015480450354516506 0.13705512881278992
-0.7207541465759277 0.03478723764419556 0.16187463700771332
-0.6914207935333252 -0.020894259214401245 0.10358301550149918
-0.7400134205818176 0.1084967702627182 0.008786940947175026
-0.6679657101631165 -0.037524282932281494 -0.012532166205346584
-0.8080005049705505 -0.0010161054087802768 -0.05619587376713753
-0.7049368619918823 0.11799407005310059 0.03305128216743469
-0.5826351046562195 -0.161887526512146 0.0591767244040966
-0.7612711191177368 0.21184691786766052 -0.03948960453271866
-0.48324140906333923 -0.04659867659211159 -0.014268782921135426
-0.7099482417106628 -0.11185546964406967 -0.16916044056415558
-0.7447199821472168 0.20060111582279205 -0.14630088210105896
-0.6517764925956726 -0.1476873904466629 -0.050045449286699295
-0.7555590867996216 0.10201573371887207 0.20960842072963715
-0.6200928092002869 0.3030964136123657 0.1751401126384735
-0.5139784812927246 0.3162616789340973 0.2439570128917694
-0.6534340381622314 0.12842239439487457 0.24160242080688477
-0.7774664163589478 0.3620763123035431 0.027737317606806755
-0.6962982416152954 0.4528822600841522 0.14851081371307373
-0.8472812175750732 0.03664176166057587 0.19034844636917114
-0.6869142055511475 0.19066448509693146 -0.029868759214878082
-0.575107753276825 -0.04572175070643425 0.12811581790447235
-0.6261811256408691 -0.17343679070472717 0.04936443641781807
-0.5883694291114807 0.22684597969055176 0.030355632305145264
-0.5153053998947144 0.03389687091112137 0.08977705985307693
-0.6481613516807556 -0.1441003680229187 0.08526621013879776
-0.6459963321685791 0.3279832601547241 0.1895548701286316
-0.3818943500518799 0.19295670092105865 0.24258440732955933
-0.5909419655799866 0.14862748980522156 0.5661069750785828
-0.46370649337768555 0.13807137310504913 0.5354004502296448
-0.4839843809604645 0.04683331400156021 0.5799565315246582
-0.558401882648468 0.18025581538677216 0.6303842067718506
-0.5772676467895508 0.17824029922485352 0.6216378808021545
-0.7574873566627502 0.2796156406402588 0.4148772358894348
-0.7657396793365479 0.3205832839012146 0.16354666650295258
-0.7585969567298889 0.15207506716251373 0.21579669415950775
-0.7636391520500183 -0.04186385124921799 0.16276612877845764
-0.606112539768219 0.43145233392715454 0.020285384729504585
-0.6991928815841675 0.060282763093709946 0.11620508134365082
-0.8640146255493164 -0.24076707661151886 0.17988035082817078
-0.7692036032676697 0.01981922797858715 0.08077310025691986
-0.6396799087524414 0.044251881539821625 0.07687260210514069
-0.6274478435516357 0.0027406734880059958 0.0036701885983347893
-0.7848379611968994 -0.08585048466920853 0.06866996735334396
-0.8256155252456665 0.016664735972881317 -0.018984559923410416
-0.6785521507263184 0.026200925931334496 0.0899689644575119
-0.682865560054779 -0.19365225732326508 0.12236429750919342
-0.7597848176956177 0.15838247537612915 -0.05591950565576553
-0.47259798645973206 0.04571625590324402 -0.05262024328112602
-0.7590029835700989 0.07097996771335602 -0.09708984196186066
-0.5998365879058838 0.10032898932695389 -0.148676335811615
-0.664289116859436 0.10368482768535614 -0.10682860761880875
-0.5891021490097046 -0.10199038684368134 0.13119231164455414
-0.3152283728122711 0.05206083878874779 0.25220873951911926
-0.2744045555591583 0.17253820598125458 0.4128103256225586
-0.1520414501428604 0.2816609740257263 0.32682129740715027
-0.4317534863948822 0.11526942998170853 0.3877708613872528
-0.5249820947647095 0.3392356336116791 0.4537494480609894
-0.4887804687023163 0.05045793950557709 0.3526178002357483
-0.6760896444320679 0.1839713752269745 0.10491488128900528
-0.6050248146057129 0.08259011059999466 -0.006827008444815874
-0.8048288822174072 0.008316854014992714 -0.1332281529903412
-0.7499949932098389 0.06463973224163055 -0.09112480282783508
-0.7085573673248291 -0.07690081745386124 0.004968902096152306
-0.70024174451828 0.030480314046144485 0.22004222869873047
-0.5252932906150818 0.12164738774299622 0.028062136843800545
-0.5217126607894897 0.14125481247901917 -0.09855367243289948
-0.5807151198387146 0.03463737666606903 -0.08241625875234604
-0.6391966938972473 -0.15420247614383698 -0.18842001259326935
-0.5081593990325928 0.13911522924900055 -0.016748739406466484
-0.3288126587867737 -0.15172448754310608 -0.1804869920015335
-0.6084893345832825 0.35227155685424805 0.0079463180154562
-0.3162778615951538 0.5108269453048706 0.17217709124088287
-0.34870195388793945 0.5025702118873596 0.17841555178165436
-0.19648577272891998 0.5703011751174927 0.27099165320396423
-0.24557280540466309 0.44444504380226135 0.5559311509132385
-0.12615008652210236 0.3969612717628479 0.34431561827659607
-0.2808205485343933 0.15644438564777374 0.23562273383140564
-0.332051545381546 0.23947012424468994 0.4271452724933624
-0.3006247878074646 0.2030715048313141 0.3353946805000305
-0.15976446866989136 0.23394861817359924 0.13727380335330963
-0.26184940338134766 0.19979779422283173 0.44017091393470764
-0.1279754638671875 0.3967885971069336 0.3973831832408905
-0.05614060163497925 0.29613587260246277 0.38240745663642883
-0.04065458104014397 0.3295411169528961 0.7099904417991638
0.23979081213474274 0.15859612822532654 0.7616481184959412
0.25926294922828674 0.48609253764152527 0.5262323617935181
0.13782531023025513 0.6352914571762085 0.5634717345237732
0.059783898293972015 0.4092382490634918 0.6294069886207581
-0.008896208368241787 0.4176890552043915 0.3415568172931671
-0.1018301248550415 0.6755062341690063 0.07900011539459229
-0.46776261925697327 0.2311234027147293 -0.15135915577411652
-0.7579793334007263 0.17360274493694305 -0.1021561473608017
-0.6283435225486755 -0.04932599887251854 0.04140665754675865
-0.6065709590911865 -0.16948390007019043 0.10039502382278442
-0.6475560069084167 0.08512041717767715 -0.04116223007440567
-0.43675175309181213 -0.14873924851417542 -0.28691619634628296
-0.8158872127532959 -0.08976081758737564 -0.28006911277770996
-0.7333630323410034 0.033841975033283234 0.005929136648774147
-0.5586623549461365 -0.03624953329563141 0.07948906719684601
-0.6565099954605103 0.1719801276922226 -0.08719045668840408
-0.5836547613143921 0.0014857945498079062 0.05658736824989319
-0.7460847496986389 0.061558064073324203 0.1391022950410843
-0.7430084943771362 0.16496554017066956 0.14186140894889832
-0.7218652963638306 -0.03293602541089058 0.13309302926063538
-0.7308269739151001 -0.0929131880402565 0.3186778128147125
-0.5585395693778992 -0.1162402555346489 0.19920110702514648
-0.6732293963432312 0.1501753032207489 -0.0363164097070694
-0.6508225202560425 0.14800681173801422 -0.14051152765750885
-0.6006907224655151 0.07784933596849442 -0.3928648829460144
-0.5060762166976929 0.17352497577667236 -0.3163333535194397
-0.3537363111972809 -0.12987945973873138 -0.16839972138404846
-0.6395969986915588 0.20789489150047302 -0.030270401388406754
-0.505217432975769 0.1583813577890396 0.03235417231917381
-0.5892700552940369 0.006802440620958805 0.15983930230140686
-0.6936619877815247 -0.10800033807754517 0.26449689269065857
-0.594948947429657 -0.030866626650094986 0.2001153826713562
-0.7596409916877747 0.21331755816936493 0.2201652079820633
-0.6692873239517212 0.18092259764671326 0.2644977569580078
-0.7300185561180115 0.2509259283542633 -0.0698884129524231
-0.5324714779853821 -0.10275795310735703 -0.15825200080871582
-0.698371171951294 -0.07960408926010132 -0.3120838403701782
-0.6317484378814697 0.06215881556272507 -0.1540910005569458
-0.4162547290325165 -0.23435407876968384 -0.2556181848049164
-0.5670892000198364 -0.03403918072581291 -0.33481332659721375
-0.4988957643508911 0.2880934476852417 -0.14082829654216766
-0.5463494658470154 -0.09972766041755676 -0.01709987409412861
-0.6893779039382935 0.21689574420452118 0.22179612517356873
-0.5580769777297974 -0.016556840389966965 0.27584198117256165
-0.5036710500717163 0.023348921909928322 0.20310604572296143
-0.6576551198959351 0.18694210052490234 0.12016835063695908
-0.5147398710250854 0.1620003879070282 0.18676024675369263
-0.4133225083351135 -0.1751258820295334 0.2613326609134674
-0.1229657307267189 -0.1481362283229828 0.07487773150205612
-0.35324278473854065 0.17214354872703552 0.029721969738602638
-0.4049651324748993 0.47962555289268494 0.09501434117555618
-0.6098781228065491 0.19219784438610077 0.017864366993308067
-0.6547701358795166 -0.3215785026550293 0.3538649380207062
-0.4908312261104584 -0.010473351925611496 0.47610053420066833
-0.590898871421814 0.13332585990428925 0.12831293046474457
-0.5142375826835632 0.14525961875915527 0.022389890626072884
-0.6926172375679016 0.023011572659015656 -0.18403272330760956
-0.6093925833702087 0.12708719074726105 0.04557428136467934
-0.4390641152858734 -0.28065261244773865 0.33658385276794434
-0.28997448086738586 0.029044773429632187 0.24694526195526123
-0.5130652785301208 0.2889285087585449 -0.002452006796374917
-0.5434848666191101 0.18840764462947845 -0.09785179793834686
-0.48264792561531067 0.20419247448444366 -0.329547643661499
-0.2299983650445938 0.2819325625896454 -0.23109275102615356
-0.12736712396144867 -0.0453263595700264 -0.13621382415294647
-0.44735634326934814 -0.12738102674484253 0.3230001628398895
-0.19317151606082916 -0.1059141606092453 0.3326270878314972
-0.5776641368865967 0.12006308883428574 0.1367640495300293
-0.42434757947921753 0.42918258905410767 0.006429233122617006
-0.267999529838562 -0.12795907258987427 -0.5326627492904663
-0.46545514464378357 0.35502034425735474 -0.12059369683265686
-0.1678328663110733 0.15742982923984528 -0.08890844881534576
-0.3723071217536926 -0.11182329058647156 0.2381501942873001
-0.30521470308303833 -0.23288053274154663 0.1850086897611618
-0.36010462045669556 0.24516957998275757 0.11535178124904633
-0.34446361660957336 0.32976388931274414 -0.07191328704357147
-0.6353767514228821 0.38258442282676697 -0.09129634499549866
-0.6027899980545044 -0.3814364969730377 -0.043652355670928955
-0.47216564416885376 0.04125691577792168 -0.03667775169014931
-0.15069794654846191 0.4281558692455292 0.011857938952744007
-0.09885857999324799 -0.4647085964679718 -0.5113135576248169
-0.41227951645851135 0.018751069903373718 -0.5321387648582458
-0.10432430356740952 0.14592191576957703 -0.5339089632034302
-0.2478887140750885 0.22075384855270386 -0.44509822130203247
-0.5747671723365784 0.3719140291213989 -0.0408940464258194
-0.5222804546356201 -0.17060212790966034 0.17544718086719513
-0.5239811539649963 0.014651050791144371 0.27661970257759094
-0.4097055494785309 0.14732953906059265 0.1442432552576065
-0.4965178668498993 -0.2707171142101288 -0.0348188653588295
-0.5272276401519775 0.251194030046463 0.012699995189905167
-0.11704161018133163 -0.011746393516659737 -0.2850707471370697
0.12218311429023743 -0.06240049749612808 -0.6278534531593323
0.25355064868927 0.4909880757331848 -0.2053789496421814
0.33960166573524475 0.3488445281982422 -0.03298021852970123
0.21916745603084564 0.2840452492237091 0.3419540524482727
0.3877785801887512 0.41513073444366455 0.02921811118721962
0.6815880537033081 0.02767859399318695 0.13995328545570374
0.5497190356254578 0.32608938217163086 0.0924278274178505
0.8032923340797424 0.23802171647548676 0.18353168666362762
0.8188067078590393 0.24000656604766846 0.08934061229228973
0.517207145690918 0.4200190603733063 0.358476847410202
0.6767087578773499 0.43835631012916565 0.09106884896755219
0.8678604960441589 0.233207106590271 0.2645116448402405
0.6825274229049683 0.4019937515258789 0.2901853024959564
0.7362340688705444 0.23390963673591614 0.21126702427864075
0.7347686886787415 0.13547661900520325 0.18224574625492096
0.6556429266929626 0.18325035274028778 0.18217577040195465
0.6994771957397461 0.21368412673473358 0.24315904080867767
0.6774023175239563 0.2384856790304184 0.27315643429756165
0.6875377893447876 0.2709209620952606 0.2528351843357086
0.6913163661956787 0.21799317002296448 0.23424291610717773
0.6180177927017212 0.3641747832298279 0.1891896277666092
0.7329734563827515 0.22626881301403046 0.1942124366760254
0.6581540107727051 0.03310902789235115 0.06101721525192261
0.6797192096710205 0.3306465744972229 0.08868525177240372
0.7484257221221924 0.409378319978714 0.2698588967323303
0.7283185124397278 0.34679755568504333 0.41606926918029785
0.6660798192024231 0.4140308201313019 0.37964314222335815
0.7453553080558777 0.39483338594436646 0.3728218376636505
0.7381239533424377 0.35372260212898254 0.3928977847099304
0.6917404532432556 0.3150043785572052 0.2865164875984192
0.7364197373390198 0.11683691293001175 0.23836730420589447
0.5345044732093811 0.2080051600933075 0.07057858258485794
0.705899178981781 0.3616200387477875 0.2415924370288849
0.6918591856956482 0.20988813042640686 0.14716972410678864
0.7020366787910461 0.393092542886734 0.31815072894096375
0.6249679327011108 0.5281429886817932 0.20699439942836761
0.7172681093215942 0.4631980061531067 0.30183419585227966
0.6658863425254822 0.36342868208885193 0.4557989239692688
0.6632688641548157 0.3771229088306427 0.26656436920166016
0.6675407886505127 0.5961788296699524 0.38859549164772034
0.5547187328338623 0.591597318649292 0.41000235080718994
0.603595495223999 0.3229779303073883 0.31403836607933044
0.5567947626113892 0.5540165901184082 0.28409573435783386
0.5214237570762634 0.6600116491317749 0.40487033128738403
0.5098657608032227 0.705418050289154 0.20493893325328827
0.5665284991264343 0.652595043182373 0.2618600130081177
0.4747781455516815 0.5964025259017944 0.22699080407619476
0.6761869192123413 0.40563052892684937 0.22063016891479492
0.4856310784816742 0.45309796929359436 -0.017146553844213486
0.6040339469909668 0.6187231540679932 0.30553099513053894
0.6339603066444397 0.4603920876979828 0.2263624668121338
0.5379282236099243 0.5283359885215759 0.4210154116153717
0.6151763200759888 0.35557103157043457 0.29540005326271057
0.24775759875774384 0.5977027416229248 0.18196851015090942
0.491987943649292 0.5485575199127197 0.5309060215950012
0.15818023681640625 0.5515545010566711 0.46687063574790955
0.23728473484516144 0.8236941695213318 0.2283337414264679
0.3101925849914551 0.36617568135261536 0.5371147990226746
0.3273060917854309 0.6066414713859558 0.5337323546409607
0.6245801448822021 0.44105005264282227 0.33980533480644226
0.6997010707855225 0.43241795897483826 0.3528182804584503
0.7415553331375122 0.31195226311683655 0.31687283515930176
0.6284346580505371 0.2982718348503113 0.14313971996307373
0.7036440968513489 0.43968018889427185 0.24896575510501862
0.6250289082527161 0.2606012523174286 0.08498991280794144
0.7653765678405762 0.4184018075466156 0.10839845985174179
0.6306365728378296 0.22160141170024872 -0.17661024630069733
0.2215099334716797 0.12693749368190765 -0.48343172669410706
0.013552529737353325 0.3470132350921631 -0.20093196630477905
0.5104467868804932 0.3981044292449951 0.326052725315094
0.5581124424934387 0.35476964712142944 0.5887933373451233
0.6528468728065491 0.4545769691467285 0.5345911979675293
0.6309573650360107 0.48574915528297424 0.5335318446159363
0.6513221263885498 0.41750508546829224 0.507800281047821
0.7132242918014526 0.49699604511260986 0.35719263553619385
0.7247328162193298 0.4191298484802246 0.48715004324913025
0.6971356868743896 0.32145315408706665 0.40679845213890076
0.6699470281600952 0.2571389675140381 0.4663025140762329
0.015750804916024208 0.33162543177604675 0.45681050419807434
-0.49133172631263733 -0.0780087262392044 0.27988722920417786
-0.5996112823486328 0.16198594868183136 0.17629685997962952
-0.5954757332801819 -0.0603206604719162 0.35783353447914124
-0.7957062125205994 -0.13006916642189026 0.2754092514514923
-0.6392684578895569 0.08428394049406052 0.16881637275218964
-0.7572029829025269 0.05136002600193024 0.17463994026184082
-0.8187095522880554 0.22061370313167572 0.16714371740818024
-0.5643163919448853 0.3499653935432434 0.1643267124891281
0.07056495547294617 0.12314601242542267 0.004004879854619503
0.17693260312080383 0.5580191016197205 0.09141363948583603
0.6133240461349487 0.024210963398218155 0.26592186093330383
0.4656679928302765 0.36640775203704834 0.21173644065856934
0.5569840669631958 0.4427834153175354 0.4366303086280823
0.5380338430404663 0.5647608637809753 0.19759628176689148
0.44831594824790955 0.4539068341255188 0.5706040859222412
0.12235134094953537 0.6602450609207153 0.4791199564933777
0.028821522369980812 0.9626315832138062 0.25784510374069214
0.1766541302204132 0.7591535449028015 0.07487399876117706
-0.09208770096302032 0.8304660320281982 0.2626378834247589
-0.0581936240196228 0.5664629340171814 0.1616859883069992
0.23060473799705505 0.45468947291374207 0.4488895535469055
-0.3199634253978729 0.43728920817375183 0.5322725772857666
-0.0004604620044119656 0.5996688604354858 0.5639885663986206
-0.3706166744232178 0.45445534586906433 0.6107038855552673
-0.3441392183303833 0.4450196325778961 0.3299059569835663
-0.12356778979301453 0.6122814416885376 0.03319593518972397
0.5500586032867432 -0.2428557127714157 0.10250072181224823
0.2766014039516449 0.5277698040008545 -0.07479228079319
0.49159717559814453 0.780971348285675 0.09712806344032288
0.6629605293273926 0.44351157546043396 0.2628895044326782
0.4312589466571808 0.754272997379303 0.1299974024295807
0.2778823971748352 0.7813516855239868 0.29986369609832764
0.2525704801082611 0.8220839500427246 0.2673851251602173
0.08904726058244705 0.08234486728906631 0.43215101957321167
-0.16633392870426178 0.33715522289276123 0.5418267846107483
0.10921464115381241 0.29555752873420715 0.5214258432388306
0.1816307157278061 0.20086415112018585 0.22807063162326813
0.011572479270398617 0.3962673842906952 0.3927706480026245
0.17218151688575745 0.5138890147209167 0.0668577253818512
-0.01547519862651825 0.39108628034591675 0.40556156635284424
0.11801604926586151 0.32842063903808594 0.3616895079612732
0.3905480206012726 0.24852131307125092 0.30880483984947205
-0.10230035334825516 0.33723703026771545 -0.18031129240989685
-0.44301900267601013 0.04045144468545914 -0.3909916877746582
-0.2648618221282959 0.09629538655281067 -0.014764415100216866
0.4906408190727234 0.42428237199783325 0.2964884340763092
0.48504403233528137 0.3428712785243988 0.3464236259460449
0.37287116050720215 0.5587969422340393 0.5031082630157471
0.4919237494468689 0.3692457377910614 0.6074974536895752
0.4638279974460602 0.49625909328460693 0.6244832277297974
0.5304347276687622 0.4517526626586914 0.614010751247406
0.7129896879196167 0.22476933896541595 0.5639994144439697
0.46876418590545654 0.5760127902030945 0.5888583660125732
0.6055775284767151 0.48965972661972046 0.5580973625183105
0.6992913484573364 0.36764225363731384 0.5017172694206238
0.677447497844696 0.39467117190361023 0.4862905442714691
0.7362961173057556 0.31426891684532166 0.4245572090148926
0.747269868850708 0.23612700402736664 0.47058725357055664
0.7110803723335266 0.3216940760612488 0.3909519910812378
0.7523166537284851 0.33987224102020264 0.37908679246902466
0.6918717622756958 0.30167654156684875 0.4801388680934906
0.6954794526100159 0.2613725960254669 0.4385189116001129
0.7210564017295837 0.34111538529396057 0.46540725231170654
0.6772440671920776 0.3638690412044525 0.5025861263275146
0.7366636991500854 0.25191229581832886 0.4882490038871765
0.7147374153137207 0.34428977966308594 0.4081566631793976
