ply
format ascii 1.0
element vertex 683
property float x
property float y
property float z
property uchar red
property uchar green
property uchar blue
end_header
-0.08427764475345612 0.1994631141424179 -0.221845805644989 0 0 255
-0.00780177628621459 0.2404419630765915 -0.13122870028018951 0 0 255
-0.036175940185785294 0.22773103415966034 -0.16782782971858978 0 0 255
-0.04937473312020302 0.26072588562965393 -0.1676078885793686 0 0 255
-0.06458398699760437 0.2831777036190033 -0.19454039633274078 0 0 255
-0.16096851229667664 0.13900956511497498 -0.2549670338630676 0 0 255
-0.16451860964298248 0.13008053600788116 -0.23452137410640717 0 0 255
-0.15489885210990906 0.13566085696220398 -0.2601637542247772 0 0 255
-0.17658112943172455 0.11771826446056366 -0.2679571509361267 0 0 255
-0.18367144465446472 0.10382834076881409 -0.271109938621521 0 0 255
-0.17314471304416656 0.11433365195989609 -0.2566273808479309 0 0 255
-0.16270895302295685 0.13793879747390747 -0.25875818729400635 0 0 255
-0.15804652869701385 0.15312910079956055 -0.27384835481643677 0 0 255
-0.15545977652072906 0.15154150128364563 -0.25292107462882996 0 0 255
-0.13865430653095245 0.20220068097114563 -0.2404615879058838 0 0 255
-0.13937224447727203 0.19559645652770996 -0.2479162961244583 0 0 255
-0.14082330465316772 0.21368490159511566 -0.24624289572238922 0 0 255
-0.13806654512882233 0.22531889379024506 -0.24077117443084717 0 0 255
-0.12973183393478394 0.23156850039958954 -0.23088444769382477 0 0 255
-0.12525394558906555 0.24305985867977142 -0.22868117690086365 0 0 255
-0.1268969476222992 0.2402147799730301 -0.23728598654270172 0 0 255
-0.12673364579677582 0.24374155700206757 -0.23994077742099762 0 0 255
-0.12701264023780823 0.24444052577018738 -0.2305092066526413 0 0 255
-0.12367115914821625 0.2532751262187958 -0.2331424206495285 0 0 255
-0.12673433125019073 0.2401275783777237 -0.24638180434703827 0 0 255
-0.12651419639587402 0.23990868031978607 -0.2404640167951584 0 0 255
-0.12698739767074585 0.2467484474182129 -0.2298511266708374 0 0 255
-0.12221217155456543 0.251331090927124 -0.2261343151330948 0 0 255
-0.11898288875818253 0.25039562582969666 -0.2197766751050949 0 0 255
-0.14152416586875916 0.21584263443946838 -0.25253161787986755 0 0 255
-0.14493615925312042 0.201237291097641 -0.24755579233169556 0 0 255
-0.14242315292358398 0.20093929767608643 -0.24381676316261292 0 0 255
-0.14365684986114502 0.20481561124324799 -0.24949945509433746 0 0 255
-0.1396273374557495 0.2119690626859665 -0.25120043754577637 0 0 255
-0.14417032897472382 0.20992514491081238 -0.25405070185661316 0 0 255
-0.15162178874015808 0.19455520808696747 -0.2642849087715149 0 0 255
-0.15817582607269287 0.17925536632537842 -0.2701031565666199 0 0 255
-0.15730257332324982 0.16758619248867035 -0.2676819860935211 0 0 255
-0.15140517055988312 0.17565344274044037 -0.25589171051979065 0 0 255
-0.1448938101530075 0.17724394798278809 -0.24587473273277283 0 0 255
-0.14469623565673828 0.18765975534915924 -0.2494453638792038 0 0 255
-0.1486729234457016 0.18449902534484863 -0.25289076566696167 0 0 255
-0.15149375796318054 0.17926545441150665 -0.24942025542259216 0 0 255
-0.14706212282180786 0.17769019305706024 -0.25057610869407654 0 0 255
-0.12374979257583618 0.17510509490966797 -0.22638125717639923 0 0 255
-0.045242324471473694 0.2218201756477356 -0.16530561447143555 0 0 255
-0.09586033970117569 0.19872722029685974 -0.21605397760868073 0 0 255
-0.14143848419189453 0.17144590616226196 -0.254547655582428 0 0 255
-0.14691294729709625 0.16653431951999664 -0.24422405660152435 0 0 255
-0.14808613061904907 0.16047769784927368 -0.233573317527771 0 0 255
-0.14833545684814453 0.16209737956523895 -0.2357625961303711 0 0 255
-0.14994950592517853 0.18282584846019745 -0.25227615237236023 0 0 255
-0.14877848327159882 0.1755780428647995 -0.25255894660949707 0 0 255
-0.14973339438438416 0.16886253654956818 -0.24730974435806274 0 0 255
-0.14714471995830536 0.1810101419687271 -0.24543897807598114 0 0 255
-0.14053410291671753 0.18639791011810303 -0.23487210273742676 0 0 255
-0.148732990026474 0.13763383030891418 -0.24616765975952148 0 0 255
-0.15718889236450195 0.14618198573589325 -0.27644163370132446 0 0 255
-0.1604093313217163 0.15725478529930115 -0.27441418170928955 0 0 255
-0.1572803258895874 0.13239072263240814 -0.26614341139793396 0 0 255
-0.15264779329299927 0.12438589334487915 -0.2665749490261078 0 0 255
-0.16756011545658112 0.09514714032411575 -0.2485673576593399 0 0 255
-0.17569474875926971 0.07586275041103363 -0.2364448606967926 0 0 255
-0.1808284968137741 0.0252489373087883 -0.2811453938484192 0 0 255
-0.19416435062885284 0.01056575495749712 -0.2977500557899475 0 0 255
-0.17835742235183716 0.03561772406101227 -0.2933730185031891 0 0 255
-0.1710686981678009 0.07605301588773727 -0.29577356576919556 0 0 255
-0.1701825112104416 0.11528459936380386 -0.3018186092376709 0 0 255
-0.17283259332180023 0.1222083568572998 -0.2828386127948761 0 0 255
-0.16162724792957306 0.15678896009922028 -0.26335662603378296 0 0 255
-0.14044001698493958 0.1736012101173401 -0.2646382451057434 0 0 255
-0.1599506288766861 0.17296354472637177 -0.27434608340263367 0 0 255
-0.15404769778251648 0.16769292950630188 -0.2596178352832794 0 0 255
-0.15586107969284058 0.15320342779159546 -0.23893383145332336 0 0 255
-0.1535172164440155 0.17424677312374115 -0.2622218728065491 0 0 255
-0.1630948930978775 0.16850972175598145 -0.2889579236507416 0 0 255
-0.154158815741539 0.15047501027584076 -0.2857242822647095 0 0 255
-0.16126614809036255 0.13383348286151886 -0.2574385404586792 0 0 255
-0.15226218104362488 0.15032841265201569 -0.23791056871414185 0 0 255
-0.15619833767414093 0.18321266770362854 -0.2619984745979309 0 0 255
-0.16168393194675446 0.1627865731716156 -0.27649542689323425 0 0 255
-0.15808160603046417 0.16103766858577728 -0.2427883893251419 0 0 255
-0.1345227211713791 0.19313500821590424 -0.2180173695087433 0 0 255
-0.1266324520111084 0.2234039306640625 -0.1931835114955902 0 0 255
-0.11543208360671997 0.28572937846183777 -0.1885947734117508 0 0 255
-0.1291826069355011 0.27555912733078003 -0.19069728255271912 0 0 255
-0.12407651543617249 0.28099337220191956 -0.20713376998901367 0 0 255
-0.12829917669296265 0.2849167287349701 -0.20394636690616608 0 0 255
-0.11733922362327576 0.3028302788734436 -0.19532740116119385 0 0 255
-0.13530193269252777 0.25167563557624817 -0.2308918982744217 0 0 255
-0.14828728139400482 0.2386704534292221 -0.2312561720609665 0 0 255
-0.15473870933055878 0.22173097729682922 -0.2293967306613922 0 0 255
-0.15978993475437164 0.21408025920391083 -0.24390049278736115 0 0 255
-0.16426511108875275 0.20924395322799683 -0.25017449259757996 0 0 255
-0.16378901898860931 0.2082548290491104 -0.2500573992729187 0 0 255
-0.16328546404838562 0.20903879404067993 -0.24278166890144348 0 0 255
-0.15806850790977478 0.20657050609588623 -0.22354653477668762 0 0 255
-0.15347835421562195 0.20755958557128906 -0.21972854435443878 0 0 255
-0.15147234499454498 0.21215051412582397 -0.2242995947599411 0 0 255
-0.1491970270872116 0.23456847667694092 -0.21890558302402496 0 0 255
-0.14630500972270966 0.236282080411911 -0.21204546093940735 0 0 255
-0.14532320201396942 0.24046894907951355 -0.21233542263507843 0 0 255
-0.1387203335762024 0.2478950470685959 -0.21565383672714233 0 0 255
-0.13829219341278076 0.23835726082324982 -0.21535614132881165 0 0 255
-0.14207828044891357 0.24803496897220612 -0.21759577095508575 0 0 255
-0.14013931155204773 0.25375014543533325 -0.21462008357048035 0 0 255
-0.14109933376312256 0.2533280849456787 -0.21243074536323547 0 0 255
-0.13451296091079712 0.2589304745197296 -0.21220974624156952 0 0 255
-0.13494202494621277 0.2663249671459198 -0.21139734983444214 0 0 255
-0.1305828094482422 0.2679353654384613 -0.20688238739967346 0 0 255
-0.13218188285827637 0.2644016444683075 -0.1977771669626236 0 0 255
-0.13545677065849304 0.2627137303352356 -0.20915359258651733 0 0 255
-0.13698337972164154 0.26000839471817017 -0.21453386545181274 0 0 255
-0.15069691836833954 0.18223883211612701 -0.23839545249938965 0 0 255
-0.15689025819301605 0.16710607707500458 -0.23824861645698547 0 0 255
-0.15652145445346832 0.16283300518989563 -0.2445293515920639 0 0 255
-0.15959390997886658 0.1544428914785385 -0.24273385107517242 0 0 255
-0.15256617963314056 0.1588394045829773 -0.2371160387992859 0 0 255
-0.10880301892757416 0.21239036321640015 -0.21017712354660034 0 0 255
-0.11739502847194672 0.23573027551174164 -0.19084757566452026 0 0 255
-0.11957182735204697 0.23268863558769226 -0.20865099132061005 0 0 255
-0.10630176216363907 0.23645558953285217 -0.1984097808599472 0 0 255
-0.09796633571386337 0.2190922200679779 -0.1756906360387802 0 0 255
-0.14730699360370636 0.02451961860060692 -0.28092318773269653 0 0 255
-0.15525081753730774 0.05063352361321449 -0.28537365794181824 0 0 255
-0.16287510097026825 0.062342677265405655 -0.25651946663856506 0 0 255
-0.16574028134346008 0.076668880879879 -0.25466787815093994 0 0 255
-0.16782088577747345 0.09097783267498016 -0.2855679392814636 0 0 255
-0.16958491504192352 0.08827786147594452 -0.30024147033691406 0 0 255
-0.17071691155433655 0.11387577652931213 -0.3056524395942688 0 0 255
-0.19335748255252838 0.0904240757226944 -0.2618366777896881 0 0 255
-0.17458607256412506 0.09597203135490417 -0.226759135723114 0 0 255
-0.1711457073688507 0.10362482815980911 -0.23777702450752258 0 0 255
-0.16100414097309113 0.0945773646235466 -0.24686956405639648 0 0 255
-0.16122083365917206 0.08897392451763153 -0.26709863543510437 0 0 255
-0.18294252455234528 0.08420990407466888 -0.2540927827358246 0 0 255
-0.16564849019050598 0.09321766346693039 -0.20729848742485046 0 0 255
-0.18679746985435486 0.045371003448963165 -0.24877811968326569 0 0 255
-0.18952807784080505 0.044842109084129333 -0.2957153618335724 0 0 255
-0.19027064740657806 0.04283362999558449 -0.28430452942848206 0 0 255
-0.18212373554706573 0.06091329827904701 -0.2795273959636688 0 0 255
-0.18780097365379333 0.049942564219236374 -0.26661813259124756 0 0 255
-0.20441339910030365 0.06899872422218323 -0.2741127610206604 0 0 255
-0.16994307935237885 -0.004523651674389839 -0.2381083220243454 0 0 255
-0.15440413355827332 0.015082309022545815 -0.2608271539211273 0 0 255
-0.15610216557979584 0.06660507619380951 -0.2132818102836609 0 0 255
-0.15370504558086395 0.0949259027838707 -0.2355472296476364 0 0 255
-0.05841361731290817 0.3410106897354126 -0.10585333406925201 0 0 255
-0.004066465888172388 0.38064295053482056 -0.08052486181259155 0 0 255
0.12974293529987335 0.3788115084171295 0.10947274416685104 0 0 255
0.11943043768405914 0.3465466797351837 0.09848123788833618 0 0 255
0.09601893275976181 0.3213210105895996 0.13004107773303986 0 0 255
0.08878977596759796 0.3106701374053955 0.14558924734592438 0 0 255
0.07850963622331619 0.26657694578170776 0.12730512022972107 0 0 255
0.06681867688894272 0.29978305101394653 0.09063376486301422 0 0 255
0.07912427186965942 0.2567444443702698 0.10148532688617706 0 0 255
-0.08462145179510117 -0.271061509847641 -0.08638759702444077 0 0 255
-0.14492250978946686 -0.29464834928512573 -0.10075134038925171 0 0 255
-0.1502552628517151 -0.2929553985595703 -0.112209752202034 0 0 255
-0.1681506484746933 -0.26492974162101746 -0.12551994621753693 0 0 255
-0.16618992388248444 -0.2569844424724579 -0.14209124445915222 0 0 255
-0.16937030851840973 -0.24706630408763885 -0.13434088230133057 0 0 255
-0.1506853699684143 -0.2781369388103485 -0.1211392879486084 0 0 255
-0.15204015374183655 -0.3076569736003876 -0.11003758013248444 0 0 255
-0.14617732167243958 -0.3348800837993622 -0.08052106946706772 0 0 255
-0.1434134691953659 -0.33225032687187195 -0.08222505450248718 0 0 255
-0.16135279834270477 -0.3204393982887268 -0.10525569319725037 0 0 255
-0.16861100494861603 -0.3156244158744812 -0.10995703935623169 0 0 255
-0.17569981515407562 -0.31282514333724976 -0.11019699275493622 0 0 255
-0.16292312741279602 -0.30567672848701477 -0.13170194625854492 0 0 255
-0.16141244769096375 -0.29880833625793457 -0.12793362140655518 0 0 255
-0.15965403616428375 -0.32063812017440796 -0.112629234790802 0 0 255
-0.1656402349472046 -0.3190936744213104 -0.10573378950357437 0 0 255
-0.16241246461868286 -0.32960280776023865 -0.09617434442043304 0 0 255
-0.15722809731960297 -0.33494681119918823 -0.08116642385721207 0 0 255
-0.15741556882858276 -0.33760446310043335 -0.06713522970676422 0 0 255
-0.14614196121692657 -0.352245032787323 -0.04513194039463997 0 0 255
-0.139369934797287 -0.35361751914024353 -0.03521983325481415 0 0 255
-0.13033173978328705 -0.36672094464302063 -0.04273320361971855 0 0 255
-0.1322767287492752 -0.3748220205307007 -0.038543347269296646 0 0 255
-0.12450597435235977 -0.38846245408058167 -0.04707743600010872 0 0 255
-0.12980160117149353 -0.39264386892318726 -0.03006976842880249 0 0 255
-0.1255512237548828 -0.390184223651886 -0.020373322069644928 0 0 255
-0.12096550315618515 -0.39550307393074036 -0.019451981410384178 0 0 255
-0.11477161198854446 -0.40069448947906494 -0.013796618208289146 0 0 255
-0.11652610450983047 -0.3958349823951721 -0.026564205065369606 0 0 255
-0.11779593676328659 -0.386181116104126 -0.04354097694158554 0 0 255
-0.11348658800125122 -0.38870516419410706 -0.04189489781856537 0 0 255
-0.11744334548711777 -0.3931194841861725 -0.036099907010793686 0 0 255
-0.1316993534564972 -0.3848210275173187 -0.041698504239320755 0 0 255
-0.12872950732707977 -0.37749433517456055 -0.03612122684717178 0 0 255
-0.13177898526191711 -0.37754902243614197 -0.04360140487551689 0 0 255
-0.12747789919376373 -0.38421231508255005 -0.06476608663797379 0 0 255
-0.13271959125995636 -0.4000224173069 -0.04039301350712776 0 0 255
-0.1251300722360611 -0.4013848900794983 -0.020212385803461075 0 0 255
-0.1247829869389534 -0.40038469433784485 -0.024058179929852486 0 0 255
-0.12302244454622269 -0.4010699391365051 -0.03653477504849434 0 0 255
-0.11969248950481415 -0.39198315143585205 -0.0341486781835556 0 0 255
-0.11743053793907166 -0.3817852735519409 -0.014540220610797405 0 0 255
-0.1129654124379158 -0.38203731179237366 -0.01887514628469944 0 0 255
-0.117992103099823 -0.39562496542930603 -0.03274643048644066 0 0 255
-0.12303882092237473 -0.38939619064331055 -0.02971123345196247 0 0 255
-0.12404819577932358 -0.38982516527175903 -0.02105223760008812 0 0 255
-0.12094422429800034 -0.3932500183582306 -0.007470042910426855 0 0 255
-0.11287223547697067 -0.3971320390701294 0.004143391270190477 0 0 255
-0.11002679169178009 -0.39635685086250305 0.0029798063915222883 0 0 255
-0.09729265421628952 -0.39866891503334045 -0.005524368025362492 0 0 255
-0.09992477297782898 -0.3983398377895355 -0.0052007995545864105 0 0 255
-0.107277050614357 -0.38844406604766846 -0.0018244609236717224 0 0 255
-0.10457786172628403 -0.40640899538993835 -0.01177126169204712 0 0 255
-0.10173734277486801 -0.4234704077243805 -0.004793104249984026 0 0 255
-0.09620384126901627 -0.4221741259098053 -0.0058487094938755035 0 0 255
-0.10281437635421753 -0.4194624125957489 0.003528434317559004 0 0 255
-0.09319035708904266 -0.4307917356491089 0.012778057716786861 0 0 255
-0.10176247358322144 -0.42598119378089905 0.016208764165639877 0 0 255
-0.11274893581867218 -0.4223373532295227 0.016315532848238945 0 0 255
-0.11276137083768845 -0.4384646415710449 0.01670849323272705 0 0 255
-0.11839566379785538 -0.4299604892730713 0.03386215493083 0 0 255
-0.10606388747692108 -0.4345393478870392 0.02971186861395836 0 0 255
-0.1011006087064743 -0.45181354880332947 -0.016174407675862312 0 0 255
-0.09713873267173767 -0.4880293011665344 -0.02304256334900856 0 0 255
-0.09012626111507416 -0.457338809967041 -0.01714618317782879 0 0 255
-0.12167949229478836 -0.4257781505584717 0.021441031247377396 0 0 255
-0.14645543694496155 -0.3766433894634247 -0.11083654314279556 0 0 255
-0.1906198263168335 -0.38995328545570374 -0.13321712613105774 0 0 255
-0.19649174809455872 -0.39514514803886414 -0.13928642868995667 0 0 255
-0.19340230524539948 -0.3900209069252014 -0.14286145567893982 0 0 255
-0.21886031329631805 -0.3783774673938751 -0.1794753521680832 0 0 255
-0.236715167760849 -0.3577675521373749 -0.19259753823280334 0 0 255
-0.23292958736419678 -0.33417707681655884 -0.21107225120067596 0 0 255
-0.2148149311542511 -0.296843022108078 -0.2243349403142929 0 0 255
-0.23813265562057495 -0.3143608868122101 -0.20709307491779327 0 0 255
-0.23815269768238068 -0.3102681338787079 -0.1762372851371765 0 0 255
-0.2053936868906021 -0.31622692942619324 -0.19310210645198822 0 0 255
-0.19168196618556976 -0.32020142674446106 -0.1825934201478958 0 0 255
-0.18972356617450714 -0.3332395553588867 -0.14876540005207062 0 0 255
-0.19953566789627075 -0.3489502966403961 -0.13598281145095825 0 0 255
-0.18992991745471954 -0.35307538509368896 -0.14017023146152496 0 0 255
-0.17828845977783203 -0.3615061640739441 -0.12247443199157715 0 0 255
-0.18009456992149353 -0.36054348945617676 -0.07731688767671585 0 0 255
-0.17778728902339935 -0.3656167685985565 -0.0756605714559555 0 0 255
-0.1777724176645279 -0.3922874629497528 -0.08383473753929138 0 0 255
-0.16986483335494995 -0.3964979648590088 -0.09549138695001602 0 0 255
-0.17025184631347656 -0.3706744611263275 -0.11667198687791824 0 0 255
-0.18494220077991486 -0.3585873544216156 -0.1167997270822525 0 0 255
-0.18419864773750305 -0.3492516279220581 -0.08067741990089417 0 0 255
-0.1692437380552292 -0.34359532594680786 -0.1240873858332634 0 0 255
-0.17634904384613037 -0.3577325642108917 -0.13435454666614532 0 0 255
-0.17166194319725037 -0.34256216883659363 -0.09742414206266403 0 0 255
-0.15771973133087158 -0.3534384071826935 -0.08833352476358414 0 0 255
-0.15998566150665283 -0.3583340346813202 -0.0921652540564537 0 0 255
-0.15163299441337585 -0.3849849998950958 -0.10890037566423416 0 0 255
-0.15641935169696808 -0.3836349546909332 -0.09827447682619095 0 0 255
-0.1679355651140213 -0.3907938301563263 -0.09347835928201675 0 0 255
-0.18745404481887817 -0.373392790555954 -0.07818223536014557 0 0 255
-0.16206079721450806 -0.39723217487335205 -0.0685468316078186 0 0 255
-0.15985749661922455 -0.4336645007133484 -0.06443867832422256 0 0 255
-0.16047066450119019 -0.4523339569568634 -0.08365557342767715 0 0 255
-0.15165415406227112 -0.4641733467578888 -0.09155439585447311 0 0 255
-0.1883864551782608 -0.4116296172142029 -0.18533407151699066 0 0 255
-0.21309320628643036 -0.3206896483898163 -0.22676284611225128 0 0 255
-0.21348772943019867 -0.31793802976608276 -0.18974095582962036 0 0 255
-0.17773714661598206 -0.32538041472435 -0.2048625499010086 0 0 255
-0.21626746654510498 -0.29186493158340454 -0.18474876880645752 0 0 255
-0.1976696401834488 -0.3136494755744934 -0.18994922935962677 0 0 255
-0.19600607454776764 -0.3240196108818054 -0.1859481781721115 0 0 255
-0.19712689518928528 -0.3540557026863098 -0.18038372695446014 0 0 255
-0.20551152527332306 -0.3672071695327759 -0.14413337409496307 0 0 255
-0.1855292171239853 -0.38125255703926086 -0.1535206288099289 0 0 255
-0.1995077282190323 -0.3831074833869934 -0.168016716837883 0 0 255
-0.19324620068073273 -0.3993157744407654 -0.15971481800079346 0 0 255
-0.19523213803768158 -0.39725738763809204 -0.13041144609451294 0 0 255
-0.18837301433086395 -0.3813167214393616 -0.1365675926208496 0 0 255
-0.20090845227241516 -0.38675665855407715 -0.15187644958496094 0 0 255
-0.18233275413513184 -0.42860594391822815 -0.14476343989372253 0 0 255
-0.18156510591506958 -0.4273425042629242 -0.16318900883197784 0 0 255
-0.16318054497241974 -0.4185324013233185 -0.17334046959877014 0 0 255
-0.1815573126077652 -0.4095449447631836 -0.13514381647109985 0 0 255
-0.1728304922580719 -0.388205349445343 -0.1484418660402298 0 0 255
-0.18446563184261322 -0.3703058958053589 -0.16868355870246887 0 0 255
-0.1923331767320633 -0.35306814312934875 -0.18157367408275604 0 0 255
-0.19503717124462128 -0.348354309797287 -0.1690424531698227 0 0 255
-0.18377378582954407 -0.3477118909358978 -0.15465934574604034 0 0 255
-0.17948099970817566 -0.34539470076560974 -0.14159058034420013 0 0 255
-0.18894948065280914 -0.3446504771709442 -0.14631381630897522 0 0 255
-0.18897221982479095 -0.34355804324150085 -0.14938046038150787 0 0 255
-0.18288229405879974 -0.3559625446796417 -0.1352340579032898 0 0 255
-0.17994678020477295 -0.35749325156211853 -0.12942519783973694 0 0 255
-0.1627901792526245 -0.36212071776390076 -0.12871308624744415 0 0 255
-0.15867233276367188 -0.3663458526134491 -0.11973994225263596 0 0 255
-0.15752822160720825 -0.37380310893058777 -0.10865972191095352 0 0 255
-0.1510954052209854 -0.36955028772354126 -0.10181372612714767 0 0 255
-0.14902345836162567 -0.3646486699581146 -0.09627045691013336 0 0 255
-0.14220726490020752 -0.36543524265289307 -0.08600552380084991 0 0 255
-0.1462387889623642 -0.371038556098938 -0.08070411533117294 0 0 255
-0.14223432540893555 -0.37575727701187134 -0.06602797657251358 0 0 255
-0.13369214534759521 -0.3823387324810028 -0.060383595526218414 0 0 255
-0.1342047154903412 -0.38696953654289246 -0.06170963868498802 0 0 255
-0.1366739124059677 -0.38690051436424255 -0.06668179482221603 0 0 255
-0.13527017831802368 -0.38501879572868347 -0.0681765228509903 0 0 255
-0.1288256049156189 -0.38647282123565674 -0.06723727285861969 0 0 255
-0.1269201785326004 -0.3917767405509949 -0.05882296711206436 0 0 255
-0.12383632361888885 -0.3916655480861664 -0.05626652017235756 0 0 255
-0.12349826097488403 -0.39604759216308594 -0.045015424489974976 0 0 255
-0.11741112917661667 -0.40332281589508057 -0.030144190415740013 0 0 255
-0.1170763298869133 -0.40629205107688904 -0.03428273648023605 0 0 255
-0.11281927675008774 -0.4073216915130615 -0.034597478806972504 0 0 255
-0.11048290878534317 -0.4109248220920563 -0.03246057778596878 0 0 255
-0.10866645723581314 -0.41061216592788696 -0.03482326865196228 0 0 255
-0.10095398128032684 -0.4085673987865448 -0.03602439537644386 0 0 255
-0.10022058337926865 -0.4106310307979584 -0.03731899708509445 0 0 255
-0.10405457764863968 -0.40927964448928833 -0.0285347793251276 0 0 255
-0.10050521790981293 -0.41209161281585693 -0.024089829996228218 0 0 255
-0.10028918832540512 -0.4106135964393616 -0.023464856669306755 0 0 255
-0.10644248872995377 -0.40713655948638916 -0.024291835725307465 0 0 255
-0.10313853621482849 -0.4033379852771759 -0.030589358881115913 0 0 255
-0.1028159037232399 -0.4041460156440735 -0.02457926608622074 0 0 255
-0.1017896980047226 -0.4032386541366577 -0.03239269554615021 0 0 255
-0.10700200498104095 -0.40095171332359314 -0.02943887934088707 0 0 255
-0.10561712831258774 -0.39897486567497253 -0.027979178354144096 0 0 255
-0.10732577741146088 -0.3956952393054962 -0.030154332518577576 0 0 255
-0.11188030987977982 -0.39188599586486816 -0.04063444584608078 0 0 255
-0.11309842020273209 -0.38571834564208984 -0.04033863544464111 0 0 255
-0.11281761527061462 -0.3900168240070343 -0.034037839621305466 0 0 255
-0.1106056496500969 -0.39354604482650757 -0.03316747024655342 0 0 255
-0.10781342536211014 -0.3951219916343689 -0.03548992797732353 0 0 255
-0.10280290246009827 -0.3933335542678833 -0.03442031145095825 0 0 255
-0.09933813661336899 -0.3951340615749359 -0.03512159362435341 0 0 255
-0.10240983217954636 -0.39618924260139465 -0.03059861622750759 0 0 255
-0.10329379886388779 -0.3961035907268524 -0.027726050466299057 0 0 255
-0.10580665618181229 -0.39722567796707153 -0.024249425157904625 0 0 255
-0.10811056196689606 -0.4012835621833801 -0.026671476662158966 0 0 255
-0.10830572247505188 -0.3991827666759491 -0.02943410724401474 0 0 255
-0.10389060527086258 -0.4000895917415619 -0.0329926460981369 0 0 255
-0.10656376928091049 -0.40399396419525146 -0.028824489563703537 0 0 255
-0.10428395867347717 -0.40313777327537537 -0.024901919066905975 0 0 255
-0.10408405214548111 -0.40503332018852234 -0.028171055018901825 0 0 255
-0.10990136116743088 -0.40588223934173584 -0.0339336097240448 0 0 255
-0.10948840528726578 -0.40750813484191895 -0.039632152765989304 0 0 255
-0.11023011803627014 -0.40163475275039673 -0.034041181206703186 0 0 255
-0.1048763245344162 -0.40395694971084595 -0.03847561776638031 0 0 255
-0.10512764006853104 -0.4023399353027344 -0.037081457674503326 0 0 255
-0.10446401685476303 -0.40287357568740845 -0.03727922961115837 0 0 255
-0.1004633903503418 -0.39807286858558655 -0.03354021534323692 0 0 255
-0.10018372535705566 -0.39958590269088745 -0.023950135335326195 0 0 255
-0.10005674511194229 -0.4010501205921173 -0.01758519746363163 0 0 255
-0.09807717800140381 -0.39778077602386475 -0.00874993298202753 0 0 255
-0.09306881576776505 -0.40052375197410583 -0.010028094053268433 0 0 255
-0.08670050650835037 -0.4029662311077118 -0.012816600501537323 0 0 255
-0.087277851998806 -0.4057702422142029 -0.008339153602719307 0 0 255
-0.08631336688995361 -0.4045571982860565 -0.0035520989913493395 0 0 255
-0.08499090373516083 -0.4006810486316681 -0.0019736504182219505 0 0 255
-0.08662214130163193 -0.4072893261909485 0.0024655552115291357 0 0 255
-0.08884243667125702 -0.40637779235839844 -0.0017653309041634202 0 0 255
-0.08373375982046127 -0.4018087089061737 -0.005941648967564106 0 0 255
-0.08142545819282532 -0.4012826979160309 -0.0059993756003677845 0 0 255
-0.08269352465867996 -0.4043293297290802 4.968249049852602e-05 0 0 255
-0.086521215736866 -0.4078528881072998 0.0003370167105458677 0 0 255
-0.09416145086288452 -0.40506407618522644 -0.005370086990296841 0 0 255
-0.09374571591615677 -0.4062187969684601 -0.015491373836994171 0 0 255
-0.09714579582214355 -0.40113112330436707 -0.02305803820490837 0 0 255
-0.10135597735643387 -0.39844396710395813 -0.028819214552640915 0 0 255
-0.11101917922496796 -0.39404746890068054 -0.03375278413295746 0 0 255
-0.11380670219659805 -0.39812523126602173 -0.04377184808254242 0 0 255
-0.11902345716953278 -0.4002188444137573 -0.04981539770960808 0 0 255
-0.11807221174240112 -0.3956810235977173 -0.05640491843223572 0 0 255
-0.12411977350711823 -0.3936181664466858 -0.05357934534549713 0 0 255
-0.12229402363300323 -0.3948589861392975 -0.05966521054506302 0 0 255
-0.11472775787115097 -0.39304283261299133 -0.06907001882791519 0 0 255
-0.11531233787536621 -0.3849683701992035 -0.07495676726102829 0 0 255
-0.10936121642589569 -0.38457921147346497 -0.06881789863109589 0 0 255
-0.1141580194234848 -0.39013513922691345 -0.06975513696670532 0 0 255
-0.11927944421768188 -0.3842821717262268 -0.06744325906038284 0 0 255
-0.11668023467063904 -0.3908286690711975 -0.07308336347341537 0 0 255
-0.12619812786579132 -0.3907155692577362 -0.07171081006526947 0 0 255
-0.12849198281764984 -0.3965938985347748 -0.07362674176692963 0 0 255
-0.13092535734176636 -0.39333948493003845 -0.09025688469409943 0 0 255
-0.13313709199428558 -0.3784089684486389 -0.09944745153188705 0 0 255
-0.12764248251914978 -0.3882327973842621 -0.10609005391597748 0 0 255
-0.13569101691246033 -0.39440280199050903 -0.09664519131183624 0 0 255
-0.1232079491019249 -0.39766061305999756 -0.112703837454319 0 0 255
-0.11546443402767181 -0.3950401246547699 -0.10520308464765549 0 0 255
-0.10349325835704803 -0.3951396942138672 -0.08823425322771072 0 0 255
-0.09318529814481735 -0.40693357586860657 -0.0649448111653328 0 0 255
-0.07578549534082413 -0.4448990523815155 -0.03582890331745148 0 0 255
-0.09889612346887589 -0.4738284945487976 -0.04956510290503502 0 0 255
-0.0964505523443222 -0.4637226462364197 -0.062464531511068344 0 0 255
-0.09515615552663803 -0.446519672870636 -0.09670743346214294 0 0 255
-0.10577735304832458 -0.4213500916957855 -0.0928564965724945 0 0 255
-0.1321449726819992 -0.3722413182258606 -0.17258085310459137 0 0 255
-0.13336017727851868 -0.36351248621940613 -0.1418629139661789 0 0 255
-0.12195809930562973 -0.3740450143814087 -0.1532169133424759 0 0 255
-0.14504718780517578 -0.3714636564254761 -0.14607419073581696 0 0 255
-0.13517136871814728 -0.3600219488143921 -0.15091630816459656 0 0 255
-0.13324598968029022 -0.3609471917152405 -0.15634530782699585 0 0 255
-0.12700094282627106 -0.3721916079521179 -0.1483851820230484 0 0 255
-0.12205954641103745 -0.37589630484580994 -0.1316501498222351 0 0 255
-0.10734448581933975 -0.38843026757240295 -0.1033787801861763 0 0 255
-0.08520617336034775 -0.40596818923950195 -0.0709633156657219 0 0 255
-0.08631215989589691 -0.4219871759414673 -0.05877314507961273 0 0 255
-0.06609325110912323 -0.40353477001190186 -0.05377308651804924 0 0 255
-0.08547253161668777 -0.40598157048225403 -0.041005298495292664 0 0 255
-0.0757724866271019 -0.41356274485588074 -0.028766268864274025 0 0 255
-0.07886462658643723 -0.4178146421909332 -0.03204737603664398 0 0 255
-0.07884033024311066 -0.4115245044231415 -0.039182424545288086 0 0 255
-0.07835837453603745 -0.4001975357532501 -0.023577170446515083 0 0 255
-0.0799240991473198 -0.41284123063087463 -0.02022852934896946 0 0 255
-0.08757251501083374 -0.4007529318332672 -0.03287667781114578 0 0 255
-0.0952262207865715 -0.39553317427635193 -0.02575833536684513 0 0 255
-0.08405473083257675 -0.3975384831428528 -0.03527038171887398 0 0 255
-0.0875978097319603 -0.39089471101760864 -0.038053788244724274 0 0 255
-0.08755034953355789 -0.3877253830432892 -0.04087596386671066 0 0 255
-0.09156231582164764 -0.391951322555542 -0.04630103334784508 0 0 255
-0.0998915433883667 -0.3967437148094177 -0.036313410848379135 0 0 255
-0.0917564183473587 -0.4006032347679138 -0.03210265561938286 0 0 255
-0.09195031970739365 -0.3981840908527374 -0.036975473165512085 0 0 255
-0.09748327732086182 -0.39787405729293823 -0.034611739218235016 0 0 255
-0.09609568119049072 -0.3952323794364929 -0.031490083783864975 0 0 255
-0.10179462283849716 -0.3913077414035797 -0.043717022985219955 0 0 255
-0.11034942418336868 -0.3881106972694397 -0.05369877070188522 0 0 255
-0.11184301972389221 -0.38792794942855835 -0.0439632311463356 0 0 255
-0.11181960254907608 -0.3900894522666931 -0.04480190947651863 0 0 255
-0.10474807769060135 -0.3896388113498688 -0.034289248287677765 0 0 255
-0.10017095506191254 -0.3996140956878662 -0.04598623141646385 0 0 255
-0.1054539680480957 -0.38899707794189453 -0.049060650169849396 0 0 255
-0.11419112980365753 -0.38767996430397034 -0.04817501828074455 0 0 255
-0.10919822007417679 -0.38446980714797974 -0.04287901148200035 0 0 255
-0.10901986807584763 -0.38341909646987915 -0.05319119989871979 0 0 255
-0.11388976871967316 -0.3825380206108093 -0.07205020636320114 0 0 255
-0.11214485764503479 -0.3862664997577667 -0.07149167358875275 0 0 255
-0.11393266171216965 -0.3933449983596802 -0.058540601283311844 0 0 255
-0.11641261726617813 -0.396168977022171 -0.051606886088848114 0 0 255
-0.1096775010228157 -0.3962203562259674 -0.05279117077589035 0 0 255
-0.1081957295536995 -0.3890455365180969 -0.053527023643255234 0 0 255
-0.11028425395488739 -0.39509955048561096 -0.047091927379369736 0 0 255
-0.11500369757413864 -0.3931344151496887 -0.0662754476070404 0 0 255
-0.12383165210485458 -0.38452014327049255 -0.0786515474319458 0 0 255
-0.11585629731416702 -0.3897719383239746 -0.07427621632814407 0 0 255
-0.11386293172836304 -0.3924451768398285 -0.07199075073003769 0 0 255
-0.11432038247585297 -0.39467740058898926 -0.060588937252759933 0 0 255
-0.11247405409812927 -0.3950711190700531 -0.0534641370177269 0 0 255
-0.10837537050247192 -0.3982006311416626 -0.051385968923568726 0 0 255
-0.11038734763860703 -0.3971685469150543 -0.05178260803222656 0 0 255
-0.11012522131204605 -0.39651617407798767 -0.05382922291755676 0 0 255
-0.11238998919725418 -0.3937114477157593 -0.0570681206882 0 0 255
-0.11770472675561905 -0.393404483795166 -0.07428959757089615 0 0 255
-0.11248821765184402 -0.3806987702846527 -0.07000327110290527 0 0 255
-0.11144565790891647 -0.38499024510383606 -0.06563257426023483 0 0 255
-0.11321566253900528 -0.38823792338371277 -0.07362088561058044 0 0 255
-0.1154194176197052 -0.3853835165500641 -0.06526212394237518 0 0 255
-0.11247880011796951 -0.3938480019569397 -0.05252634733915329 0 0 255
-0.11304257810115814 -0.39907315373420715 -0.05183379352092743 0 0 255
-0.1096695065498352 -0.4009862542152405 -0.06949537992477417 0 0 255
-0.1093323826789856 -0.3934864401817322 -0.06697578728199005 0 0 255
-0.11159729957580566 -0.39685264229774475 -0.06585463881492615 0 0 255
-0.1125161349773407 -0.3948241174221039 -0.06779362261295319 0 0 255
-0.11314786970615387 -0.3950856626033783 -0.06564617902040482 0 0 255
-0.11523273587226868 -0.39723652601242065 -0.06238318979740143 0 0 255
-0.11035800725221634 -0.40280699729919434 -0.05558786168694496 0 0 255
-0.10764305293560028 -0.407290518283844 -0.055119551718235016 0 0 255
-0.11438729614019394 -0.4031725227832794 -0.06653006374835968 0 0 255
-0.11496423184871674 -0.3929004967212677 -0.059881847351789474 0 0 255
-0.09823739528656006 -0.3940275311470032 -0.06228150799870491 0 0 255
-0.09940683841705322 -0.4006170928478241 -0.06246974319219589 0 0 255
-0.11093302816152573 -0.40267521142959595 -0.0724424421787262 0 0 255
-0.12089203298091888 -0.3949357569217682 -0.06792213022708893 0 0 255
-0.11488749831914902 -0.3937550187110901 -0.057665299624204636 0 0 255
-0.10539018362760544 -0.393987238407135 -0.07118365168571472 0 0 255
-0.09627063572406769 -0.4006897211074829 -0.06514949351549149 0 0 255
-0.09989053010940552 -0.4065227210521698 -0.06042929366230965 0 0 255
-0.10882409662008286 -0.3943943679332733 -0.07835691422224045 0 0 255
-0.10749263316392899 -0.40012118220329285 -0.051964353770017624 0 0 255
-0.11666274815797806 -0.38459569215774536 -0.03765391185879707 0 0 255
-0.12289078533649445 -0.39383700489997864 -0.03063863329589367 0 0 255
-0.1232568696141243 -0.40165403485298157 -0.03962751850485802 0 0 255
-0.13091881573200226 -0.3812946081161499 -0.03590601682662964 0 0 255
-0.12170789390802383 -0.38345563411712646 -0.05541945621371269 0 0 255
-0.12438066303730011 -0.3851694166660309 -0.05618724599480629 0 0 255
-0.11828889697790146 -0.409485399723053 -0.0463346391916275 0 0 255
-0.10492810606956482 -0.40635374188423157 -0.05724348500370979 0 0 255
-0.11571028083562851 -0.4039653241634369 -0.06284099817276001 0 0 255
-0.11560468375682831 -0.41019925475120544 -0.060679055750370026 0 0 255
-0.09801249951124191 -0.415572851896286 -0.04428711533546448 0 0 255
-0.08723296970129013 -0.411513090133667 -0.01971963234245777 0 0 255
-0.08406504988670349 -0.423103392124176 -0.013623284175992012 0 0 255
-0.09180906414985657 -0.4164666533470154 -0.03094306029379368 0 0 255
-0.08875350654125214 -0.40017497539520264 -0.020253300666809082 0 0 255
-0.06812450289726257 -0.4208607077598572 -0.005384875927120447 0 0 255
-0.08408460021018982 -0.4298912584781647 -0.012746757827699184 0 0 255
-0.09672074019908905 -0.4160754382610321 -0.03901027888059616 0 0 255
-0.11800935119390488 -0.40582242608070374 -0.03476900979876518 0 0 255
-0.11169711500406265 -0.4104025661945343 -0.008202901110053062 0 0 255
-0.08152687549591064 -0.4174763858318329 0.01009734719991684 0 0 255
-0.055378977209329605 -0.43980854749679565 0.006736717186868191 0 0 255
-0.03394902125000954 -0.4384553134441376 0.005259079392999411 0 0 255
-0.0413065031170845 -0.4316612184047699 0.018819505348801613 0 0 255
-0.023905951529741287 -0.42658329010009766 0.03706872835755348 0 0 255
-0.02636355347931385 -0.42956531047821045 0.0423273891210556 0 0 255
-0.041482191532850266 -0.42145174741744995 0.03244980052113533 0 0 255
-0.026676850393414497 -0.40369513630867004 0.026377104222774506 0 0 255
-0.006125186569988728 -0.3966872990131378 0.054061200469732285 0 0 255
-0.0024482051376253366 -0.4012486934661865 0.06122502684593201 0 0 255
0.0070883468724787235 -0.38297563791275024 0.0792645663022995 0 0 255
0.032263148576021194 -0.3770025074481964 0.08552810549736023 0 0 255
0.02636805735528469 -0.3721904456615448 0.09897683560848236 0 0 255
0.022470202296972275 -0.36568683385849 0.09234590083360672 0 0 255
0.032872430980205536 -0.35537299513816833 0.09974244982004166 0 0 255
0.0468229241669178 -0.3588154911994934 0.08903597295284271 0 0 255
0.05016390606760979 -0.3397767245769501 0.08788152039051056 0 0 255
0.05597681552171707 -0.3362374007701874 0.09352891147136688 0 0 255
0.03951538726687431 -0.36108195781707764 0.09146439284086227 0 0 255
0.03090447559952736 -0.36662760376930237 0.10275682061910629 0 0 255
0.010450995527207851 -0.3674781322479248 0.0812571719288826 0 0 255
0.007453789468854666 -0.36498498916625977 0.0875009223818779 0 0 255
0.02383454516530037 -0.35419386625289917 0.09497764706611633 0 0 255
0.02592683956027031 -0.3507901728153229 0.09430088102817535 0 0 255
0.043097540736198425 -0.3638296127319336 0.11592219024896622 0 0 255
0.050624627619981766 -0.3601706624031067 0.10619845241308212 0 0 255
-0.0036687543615698814 -0.40886881947517395 0.07147295773029327 0 0 255
-0.012440269812941551 -0.4431474208831787 0.05953456461429596 0 0 255
-0.019416669383645058 -0.43469735980033875 0.06611739844083786 0 0 255
-0.029599012807011604 -0.4363959729671478 0.049424052238464355 0 0 255
-0.049586497247219086 -0.4246436655521393 0.03895436227321625 0 0 255
-0.0571775883436203 -0.4038451910018921 0.04288793355226517 0 0 255
-0.03875189647078514 -0.41676652431488037 0.02627101168036461 0 0 255
-0.055051837116479874 -0.422560453414917 0.02532162517309189 0 0 255
-0.06263966858386993 -0.43267324566841125 0.03550521656870842 0 0 255
-0.052804134786129 -0.41543442010879517 0.03538607433438301 0 0 255
-0.062114961445331573 -0.41616132855415344 0.04507489502429962 0 0 255
-0.06559550017118454 -0.4222404658794403 0.04813840612769127 0 0 255
-0.05173103138804436 -0.4223814308643341 0.03783433139324188 0 0 255
-0.04746656119823456 -0.41416501998901367 0.023704741150140762 0 0 255
-0.03673185408115387 -0.4316170811653137 0.021614480763673782 0 0 255
-0.038470979779958725 -0.4157654941082001 0.05862870067358017 0 0 255
-0.04831103980541229 -0.4279647469520569 0.02296564355492592 0 0 255
-0.07015766203403473 -0.41156458854675293 0.020372401922941208 0 0 255
-0.08103634417057037 -0.4026831388473511 0.0184584129601717 0 0 255
-0.0786324068903923 -0.3988182246685028 0.025485580787062645 0 0 255
-0.061387285590171814 -0.39324986934661865 0.012823684141039848 0 0 255
-0.062086399644613266 -0.39218971133232117 0.030117088928818703 0 0 255
-0.07304351776838303 -0.4014613628387451 0.027950167655944824 0 0 255
-0.0617777444422245 -0.38535457849502563 0.009596061892807484 0 0 255
-0.08874554187059402 -0.39137786626815796 -0.0019420456374064088 0 0 255
-0.09396488219499588 -0.37779921293258667 0.009860307909548283 0 0 255
-0.07478819042444229 -0.37151315808296204 0.023287883028388023 0 0 255
-0.07326257228851318 -0.3871610164642334 0.028293732553720474 0 0 255
-0.0761193111538887 -0.39817526936531067 0.024508802220225334 0 0 255
-0.05945587530732155 -0.4123355746269226 0.028798086568713188 0 0 255
-0.07516059279441833 -0.4109416604042053 0.021295078098773956 0 0 255
-0.051287636160850525 -0.4206935465335846 0.01226829644292593 0 0 255
-0.051110245287418365 -0.41482311487197876 0.03173242509365082 0 0 255
-0.04111504927277565 -0.43086063861846924 0.04180241376161575 0 0 255
-0.043403636664152145 -0.4380720555782318 0.038178492337465286 0 0 255
-0.06139018014073372 -0.42609694600105286 0.023537062108516693 0 0 255
-0.07340739667415619 -0.40229877829551697 0.025934742763638496 0 0 255
-0.0711146891117096 -0.39709219336509705 0.03693487495183945 0 0 255
-0.06691953539848328 -0.4086521565914154 0.04487557336688042 0 0 255
-0.059999722987413406 -0.42382892966270447 0.027240054681897163 0 0 255
-0.062316324561834335 -0.4202033579349518 0.02135147713124752 0 0 255
-0.05288330465555191 -0.41661036014556885 0.019040871411561966 0 0 255
-0.06800355017185211 -0.4112653136253357 0.018753502517938614 0 0 255
-0.0674036368727684 -0.41951867938041687 0.023732084780931473 0 0 255
-0.07040030509233475 -0.4182891845703125 0.034823622554540634 0 0 255
-0.05563658848404884 -0.4282444417476654 0.024788687005639076 0 0 255
-0.06836288422346115 -0.42666035890579224 0.016907155513763428 0 0 255
-0.06887689232826233 -0.42045170068740845 0.019149845466017723 0 0 255
-0.07256931811571121 -0.41655147075653076 0.031256187707185745 0 0 255
-0.07610811293125153 -0.4232282340526581 0.03427497297525406 0 0 255
-0.06962275505065918 -0.42601633071899414 0.016621984541416168 0 0 255
-0.07719431817531586 -0.4211925268173218 0.011124331504106522 0 0 255
-0.07700325548648834 -0.41871392726898193 0.024401720613241196 0 0 255
-0.07122605293989182 -0.4344569146633148 0.008647960610687733 0 0 255
-0.08839566260576248 -0.43957582116127014 0.005812217481434345 0 0 255
-0.07183295488357544 -0.44452568888664246 0.011189393699169159 0 0 255
-0.06337006390094757 -0.4321233928203583 -4.408145287015941e-06 0 0 255
-0.06788445264101028 -0.43149566650390625 -0.009578299708664417 0 0 255
-0.07260712236166 -0.43795540928840637 -0.01516368705779314 0 0 255
-0.08087238669395447 -0.43196067214012146 -0.011492692865431309 0 0 255
-0.0750020295381546 -0.42272791266441345 0.008523652330040932 0 0 255
-0.07713193446397781 -0.42770567536354065 0.00017507694428786635 0 0 255
-0.08344296365976334 -0.43470844626426697 -0.013922306708991528 0 0 255
-0.08032979816198349 -0.4328007102012634 -0.010732208378612995 0 0 255
-0.08336033672094345 -0.42780208587646484 -0.013884047977626324 0 0 255
-0.08345521241426468 -0.43382349610328674 -0.005042102187871933 0 0 255
-0.07625967264175415 -0.43708863854408264 -0.006003560498356819 0 0 255
-0.07411334663629532 -0.4376600980758667 -0.00552300363779068 0 0 255
-0.07103810459375381 -0.4447343349456787 0.0009542493498884141 0 0 255
-0.07678926736116409 -0.441445529460907 0.0010165072744712234 0 0 255
-0.08263147622346878 -0.43731239438056946 -0.0062226904556155205 0 0 255
-0.08332161605358124 -0.4311599135398865 0.006975230295211077 0 0 255
-0.07098978757858276 -0.423781156539917 0.006547965575009584 0 0 255
-0.07632990181446075 -0.4156566858291626 0.00553347822278738 0 0 255
-0.07736717164516449 -0.41085273027420044 0.015652218833565712 0 0 255
-0.08464261889457703 -0.4065186083316803 0.0036889740731567144 0 0 255
-0.0945831686258316 -0.38883429765701294 0.007974272593855858 0 0 255
-0.08572473376989365 -0.4287346601486206 -0.0069447471760213375 0 0 255
-0.09512633085250854 -0.43785375356674194 -0.014596770517528057 0 0 255
-0.10350552946329117 -0.4406973123550415 -0.01555261667817831 0 0 255
-0.10312715917825699 -0.41535454988479614 -0.004718494601547718 0 0 255
-0.10541409254074097 -0.41361191868782043 -0.0183428842574358 0 0 255
-0.10419532656669617 -0.4359300136566162 -0.02427162230014801 0 0 255
-0.1060805693268776 -0.4371868968009949 -0.035112570971250534 0 0 255
-0.1034863218665123 -0.44947370886802673 -0.03412758186459541 0 0 255
-0.09405598044395447 -0.44297224283218384 -0.04057692363858223 0 0 255
-0.110482357442379 -0.432498037815094 -0.0455470010638237 0 0 255
-0.10998396575450897 -0.43672746419906616 -0.048559609800577164 0 0 255
-0.1181812658905983 -0.43634161353111267 -0.05041787028312683 0 0 255
-0.11364179849624634 -0.43128424882888794 -0.05289984121918678 0 0 255
-0.11523371934890747 -0.4293672740459442 -0.058823004364967346 0 0 255
-0.11945442855358124 -0.4111728370189667 -0.061086080968379974 0 0 255
-0.10825137794017792 -0.42552894353866577 -0.05384956672787666 0 0 255
-0.11733463406562805 -0.43374061584472656 -0.05154869332909584 0 0 255
-0.11356542259454727 -0.4337439239025116 -0.043773435056209564 0 0 255
-0.11144401133060455 -0.42463991045951843 -0.05478805676102638 0 0 255
-0.11818016320466995 -0.4249282777309418 -0.04940347000956535 0 0 255
-0.12116767466068268 -0.4274154305458069 -0.05322864279150963 0 0 255
-0.11847376823425293 -0.415728896856308 -0.05049058794975281 0 0 255
-0.11174696683883667 -0.4196951389312744 -0.05922459810972214 0 0 255
-0.11110898107290268 -0.4133075773715973 -0.044692832976579666 0 0 255
-0.10029739886522293 -0.42680132389068604 -0.041975341737270355 0 0 255
-0.11092877388000488 -0.4191405475139618 -0.03852839022874832 0 0 255
-0.10460612922906876 -0.4225841760635376 -0.04192829877138138 0 0 255
-0.11093248426914215 -0.4166930615901947 -0.0427580252289772 0 0 255
-0.12111371010541916 -0.44037654995918274 -0.04534166678786278 0 0 255
-0.1224265769124031 -0.44600963592529297 -0.05418751388788223 0 0 255
-0.12054658681154251 -0.4458942711353302 -0.044360771775245667 0 0 255
-0.1235930472612381 -0.4368969202041626 -0.05029947683215141 0 0 255
-0.12356733530759811 -0.4311930239200592 -0.0692051351070404 0 0 255
-0.13529369235038757 -0.4140222370624542 -0.07757537811994553 0 0 255
-0.13143469393253326 -0.4208965599536896 -0.0686686784029007 0 0 255
-0.12978531420230865 -0.41291099786758423 -0.07725061476230621 0 0 255
-0.14410339295864105 -0.41609030961990356 -0.07323644310235977 0 0 255
-0.13331101834774017 -0.41477668285369873 -0.06095142289996147 0 0 255
-0.12163680046796799 -0.4155905544757843 -0.05835825949907303 0 0 255
-0.11718989908695221 -0.4168322682380676 -0.05955181270837784 0 0 255
-0.10988377779722214 -0.4180070161819458 -0.04921886324882507 0 0 255
-0.09882578253746033 -0.4255824387073517 -0.04596104100346565 0 0 255
-0.10471122711896896 -0.41822493076324463 -0.03683681786060333 0 0 255
-0.09476380050182343 -0.4181356728076935 -0.026923026889562607 0 0 255
-0.09068967401981354 -0.41832366585731506 -0.019363902509212494 0 0 255
-0.09147386997938156 -0.4109596014022827 -0.018355965614318848 0 0 255
-0.08980100601911545 -0.40221744775772095 -0.018983740359544754 0 0 255
-0.09473756700754166 -0.4045676290988922 -0.022355617955327034 0 0 255
-0.104655422270298 -0.4026545286178589 -0.022246377542614937 0 0 255
-0.10993451625108719 -0.4018227159976959 -0.03202708810567856 0 0 255
-0.11764777451753616 -0.3928423821926117 -0.043764736503362656 0 0 255
-0.12198752164840698 -0.38746511936187744 -0.04409729316830635 0 0 255
-0.11937635391950607 -0.38960129022598267 -0.04397955536842346 0 0 255
-0.12761764228343964 -0.39638909697532654 -0.040700264275074005 0 0 255
-0.12227150797843933 -0.3929646611213684 -0.047230593860149384 0 0 255
-0.12511220574378967 -0.39170557260513306 -0.04910493269562721 0 0 255
-0.12477315962314606 -0.3951282203197479 -0.04452918842434883 0 0 255
-0.12609456479549408 -0.3963300883769989 -0.046431440860033035 0 0 255
-0.14012478291988373 -0.3938708007335663 -0.05544905364513397 0 0 255
-0.14067772030830383 -0.38803520798683167 -0.05488237366080284 0 0 255
-0.13552626967430115 -0.37805506587028503 -0.055582500994205475 0 0 255
-0.13926385343074799 -0.3772713541984558 -0.06019018590450287 0 0 255
-0.13054266571998596 -0.37358343601226807 -0.06877752393484116 0 0 255
-0.1291027069091797 -0.3831940293312073 -0.06610651314258575 0 0 255
-0.11818894743919373 -0.38751423358917236 -0.0423760712146759 0 0 255
-0.11011543869972229 -0.39689457416534424 -0.04749036580324173 0 0 255
-0.12384729087352753 -0.3976958394050598 -0.06280551850795746 0 0 255
-0.1226559430360794 -0.39379745721817017 -0.06489827483892441 0 0 255
-0.12434648722410202 -0.3889000117778778 -0.06415732204914093 0 0 255
-0.12536972761154175 -0.38462671637535095 -0.053711067885160446 0 0 255
-0.12617480754852295 -0.3732838034629822 -0.05190577358007431 0 0 255
-0.12119908630847931 -0.35998159646987915 -0.05971536412835121 0 0 255
-0.12070691585540771 -0.37308061122894287 -0.05141179636120796 0 0 255
-0.12139276415109634 -0.39138227701187134 -0.04776931554079056 0 0 255
-0.12197236716747284 -0.38701045513153076 -0.042355697602033615 0 0 255
-0.11781565099954605 -0.3819403648376465 -0.03955273702740669 0 0 255
-0.1192624419927597 -0.3848414123058319 -0.040463630110025406 0 0 255
-0.11371596157550812 -0.38369157910346985 -0.0380384735763073 0 0 255
-0.10423772782087326 -0.3915250599384308 -0.037176936864852905 0 0 255
-0.09874342381954193 -0.3971427083015442 -0.022857919335365295 0 0 255
-0.10396844893693924 -0.40057775378227234 -0.028915774077177048 0 0 255
-0.10994940251111984 -0.3868294060230255 -0.03304043412208557 0 0 255
-0.11260221898555756 -0.385189950466156 -0.035241857171058655 0 0 255
-0.11029356718063354 -0.38777098059654236 -0.035855427384376526 0 0 255
-0.1162136122584343 -0.3894847631454468 -0.04580893740057945 0 0 255
-0.12741442024707794 -0.3851989507675171 -0.04905251786112785 0 0 255
-0.12653391063213348 -0.3818313181400299 -0.04929031804203987 0 0 255
-0.12704291939735413 -0.3815448582172394 -0.03683518245816231 0 0 255
