ply
format ascii 1.0
element vertex 699
property float x
property float y
property float z
property uchar red
property uchar green
property uchar blue
end_header
-0.2164151668548584 0.07578329741954803 0.10583030432462692 0 0 255
-0.20444363355636597 0.0779619961977005 0.11914999783039093 0 0 255
-0.21104760468006134 0.08793402463197708 0.12180401384830475 0 0 255
-0.25324001908302307 0.10769763588905334 0.1441665142774582 0 0 255
-0.26448291540145874 0.1206585094332695 0.14978519082069397 0 0 255
-0.27515706419944763 0.13907179236412048 0.14347931742668152 0 0 255
-0.27985355257987976 0.13147267699241638 0.15017807483673096 0 0 255
-0.27731120586395264 0.13208124041557312 0.16056768596172333 0 0 255
-0.2902909219264984 0.14033626019954681 0.1628105193376541 0 0 255
-0.2907576858997345 0.1418505758047104 0.17890426516532898 0 0 255
-0.27997061610221863 0.15061545372009277 0.1737726777791977 0 0 255
-0.2876744270324707 0.15299364924430847 0.16886106133460999 0 0 255
-0.2992893159389496 0.16062383353710175 0.17036715149879456 0 0 255
-0.3038313090801239 0.1581467092037201 0.17126907408237457 0 0 255
-0.3010285198688507 0.14490772783756256 0.17924000322818756 0 0 255
-0.2990553677082062 0.13857799768447876 0.17678071558475494 0 0 255
-0.28369298577308655 0.14950791001319885 0.1668795496225357 0 0 255
-0.28434914350509644 0.13436229526996613 0.15094362199306488 0 0 255
-0.2932712435722351 0.127735435962677 0.16095879673957825 0 0 255
-0.2804678976535797 0.1422242969274521 0.14944379031658173 0 0 255
-0.2873254120349884 0.12852831184864044 0.12037140876054764 0 0 255
-0.2864314913749695 0.1241796538233757 0.11328808963298798 0 0 255
-0.27854418754577637 0.1082167774438858 0.10538459569215775 0 0 255
-0.28018176555633545 0.07495098561048508 0.09210243821144104 0 0 255
-0.26860755681991577 0.08635830879211426 0.10837268084287643 0 0 255
-0.26707595586776733 0.09276248514652252 0.09926378726959229 0 0 255
-0.2613517642021179 0.07143406569957733 0.08219456672668457 0 0 255
-0.2577228546142578 0.06503058969974518 0.08622205257415771 0 0 255
-0.2582706809043884 0.07456260174512863 0.09388253837823868 0 0 255
-0.26685842871665955 0.0848843902349472 0.09635461866855621 0 0 255
-0.25894489884376526 0.0778895691037178 0.1095719262957573 0 0 255
-0.25654444098472595 0.08742891997098923 0.10736993700265884 0 0 255
-0.266245573759079 0.09410899132490158 0.11905487626791 0 0 255
-0.2714793086051941 0.10141760110855103 0.12593187391757965 0 0 255
-0.266537070274353 0.10010664910078049 0.12554985284805298 0 0 255
-0.26196742057800293 0.09670768678188324 0.11705072224140167 0 0 255
-0.2617482542991638 0.09827982634305954 0.11705737560987473 0 0 255
-0.2616322636604309 0.09334324300289154 0.12010036408901215 0 0 255
-0.24945099651813507 0.08936230093240738 0.1195770800113678 0 0 255
-0.24201716482639313 0.09306259453296661 0.1130124181509018 0 0 255
-0.25306910276412964 0.08907880634069443 0.1170807033777237 0 0 255
-0.26157495379447937 0.10492563247680664 0.11917994916439056 0 0 255
-0.2725725471973419 0.11094895005226135 0.12295428663492203 0 0 255
-0.2802164852619171 0.11569326370954514 0.12875816226005554 0 0 255
-0.2823125422000885 0.12412123382091522 0.1358659267425537 0 0 255
-0.28301602602005005 0.1220276802778244 0.1395643651485443 0 0 255
-0.28005683422088623 0.12817880511283875 0.14148816466331482 0 0 255
-0.28794097900390625 0.1135258898139 0.14041200280189514 0 0 255
-0.28057074546813965 0.11627901345491409 0.14391152560710907 0 0 255
-0.2676057815551758 0.10805363208055496 0.1434919685125351 0 0 255
-0.26128050684928894 0.10305140912532806 0.13751545548439026 0 0 255
-0.2567797899246216 0.09566835314035416 0.1369309276342392 0 0 255
-0.25493118166923523 0.09785192459821701 0.13831692934036255 0 0 255
-0.24889446794986725 0.09551016241312027 0.14176657795906067 0 0 255
-0.2507394850254059 0.09904742985963821 0.1507112681865692 0 0 255
-0.2458968460559845 0.09903837740421295 0.15870073437690735 0 0 255
-0.24644681811332703 0.10147478431463242 0.14808031916618347 0 0 255
-0.2633354961872101 0.11997920274734497 0.14581023156642914 0 0 255
-0.2726249694824219 0.11864824593067169 0.1473854035139084 0 0 255
-0.2692684531211853 0.12547646462917328 0.14994633197784424 0 0 255
-0.27121973037719727 0.11969853937625885 0.15589942038059235 0 0 255
-0.2698018550872803 0.11798164248466492 0.15874607861042023 0 0 255
-0.26748791337013245 0.11410132050514221 0.15353325009346008 0 0 255
-0.2651267945766449 0.13179020583629608 0.14844638109207153 0 0 255
-0.2803531885147095 0.12405794113874435 0.16312149167060852 0 0 255
-0.2887342572212219 0.1358417421579361 0.17077992856502533 0 0 255
-0.30188363790512085 0.14919885993003845 0.16957984864711761 0 0 255
-0.30563944578170776 0.16005869209766388 0.17067550122737885 0 0 255
-0.31050071120262146 0.15848995745182037 0.17599433660507202 0 0 255
-0.3214563727378845 0.17388837039470673 0.17703810334205627 0 0 255
-0.3226150870323181 0.17136767506599426 0.17376214265823364 0 0 255
-0.29439470171928406 0.1379278153181076 0.17924989759922028 0 0 255
-0.2783970534801483 0.13518022000789642 0.16704240441322327 0 0 255
-0.2829063832759857 0.1083483025431633 0.16282197833061218 0 0 255
-0.2852148711681366 0.10535579919815063 0.14552797377109528 0 0 255
-0.2766028046607971 0.10812206566333771 0.14208456873893738 0 0 255
-0.2732545733451843 0.11456242203712463 0.14912037551403046 0 0 255
-0.27606186270713806 0.13203807175159454 0.15628275275230408 0 0 255
-0.27753955125808716 0.1348779946565628 0.18719246983528137 0 0 255
-0.2935382127761841 0.14684073626995087 0.1941727101802826 0 0 255
-0.309948593378067 0.16487978398799896 0.20113246142864227 0 0 255
-0.3332065939903259 0.1514071673154831 0.19825683534145355 0 0 255
-0.3221683204174042 0.1611156314611435 0.1885424256324768 0 0 255
-0.3233351707458496 0.14923037588596344 0.18403233587741852 0 0 255
-0.32927411794662476 0.1498560905456543 0.19315537810325623 0 0 255
-0.3218909502029419 0.20191703736782074 0.213033065199852 0 0 255
-0.3408609628677368 0.18985408544540405 0.24270033836364746 0 0 255
-0.3460506200790405 0.19062992930412292 0.26382723450660706 0 0 255
-0.3331243395805359 0.21616344153881073 0.27986496686935425 0 0 255
-0.3317602574825287 0.2067296952009201 0.2876274585723877 0 0 255
-0.31807392835617065 0.21758519113063812 0.30800607800483704 0 0 255
-0.3246777355670929 0.22476345300674438 0.3256028890609741 0 0 255
-0.30675506591796875 0.23230566084384918 0.3463745713233948 0 0 255
-0.3157590329647064 0.24896444380283356 0.3568986654281616 0 0 255
-0.30124783515930176 0.25392279028892517 0.35617098212242126 0 0 255
-0.26630789041519165 0.2519540786743164 0.37090474367141724 0 0 255
-0.27016177773475647 0.25738394260406494 0.37679925560951233 0 0 255
-0.25277402997016907 0.26906174421310425 0.3759395480155945 0 0 255
-0.24807098507881165 0.28273287415504456 0.3523780107498169 0 0 255
-0.2817284166812897 0.29482054710388184 0.3376126289367676 0 0 255
-0.26868847012519836 0.31114691495895386 0.357194721698761 0 0 255
-0.2774862051010132 0.25868308544158936 0.33464527130126953 0 0 255
-0.246921107172966 0.25921401381492615 0.32497459650039673 0 0 255
-0.22440989315509796 0.2872963547706604 0.31192663311958313 0 0 255
-0.18230561912059784 0.2628481090068817 0.3305310010910034 0 0 255
-0.14638876914978027 0.24080942571163177 0.333040714263916 0 0 255
-0.12098848819732666 0.21156936883926392 0.3263925611972809 0 0 255
-0.12731309235095978 0.19276362657546997 0.30310460925102234 0 0 255
-0.12856607139110565 0.2018817961215973 0.28708595037460327 0 0 255
-0.11896010488271713 0.20614653825759888 0.29412493109703064 0 0 255
-0.11301769316196442 0.2141704559326172 0.28946495056152344 0 0 255
-0.11459951102733612 0.20876707136631012 0.2924859821796417 0 0 255
-0.09495197981595993 0.19709128141403198 0.2799948453903198 0 0 255
-0.08369497954845428 0.19915181398391724 0.27122020721435547 0 0 255
-0.0807052031159401 0.1943446546792984 0.26952728629112244 0 0 255
-0.06250616163015366 0.18122433125972748 0.2550468146800995 0 0 255
-0.0405195988714695 0.17662060260772705 0.23722754418849945 0 0 255
-0.0350680835545063 0.17051146924495697 0.24365383386611938 0 0 255
-0.05235797539353371 0.192509725689888 0.2412387728691101 0 0 255
-0.05627709627151489 0.19287165999412537 0.23192262649536133 0 0 255
-0.040818266570568085 0.1741802841424942 0.23094990849494934 0 0 255
-0.029052382335066795 0.17394033074378967 0.21951240301132202 0 0 255
-0.027765143662691116 0.18335464596748352 0.20382799208164215 0 0 255
-0.036568719893693924 0.18371941149234772 0.21095013618469238 0 0 255
-0.030544394627213478 0.16942502558231354 0.21089693903923035 0 0 255
-0.04777448624372482 0.174900084733963 0.2038837969303131 0 0 255
-0.06381868571043015 0.20149162411689758 0.22569359838962555 0 0 255
-0.0614013634622097 0.20253296196460724 0.21223092079162598 0 0 255
-0.052215591073036194 0.20634110271930695 0.21788989007472992 0 0 255
-0.03585144132375717 0.195905864238739 0.19725480675697327 0 0 255
-0.02281174436211586 0.1861228048801422 0.1766006350517273 0 0 255
-0.03875116631388664 0.17638491094112396 0.16795654594898224 0 0 255
-0.050959378480911255 0.189654141664505 0.19096407294273376 0 0 255
-0.03905969858169556 0.20514115691184998 0.19043469429016113 0 0 255
-0.03739219158887863 0.19148120284080505 0.1660151481628418 0 0 255
-0.054378680884838104 0.18700696527957916 0.1795438528060913 0 0 255
-0.05570127069950104 0.18660928308963776 0.19486357271671295 0 0 255
-0.044120434671640396 0.17752964794635773 0.19345976412296295 0 0 255
-0.030725251883268356 0.16116055846214294 0.1779327392578125 0 0 255
-0.03207141533493996 0.15294167399406433 0.15780900418758392 0 0 255
-0.02613893337547779 0.15596942603588104 0.17013244330883026 0 0 255
-0.042294714599847794 0.15310196578502655 0.1967456042766571 0 0 255
-0.060558389872312546 0.16968299448490143 0.21618498861789703 0 0 255
-0.05070164427161217 0.16642752289772034 0.207711324095726 0 0 255
-0.02351805940270424 0.160208597779274 0.19147314131259918 0 0 255
-0.015482897870242596 0.13698555529117584 0.16052256524562836 0 0 255
-0.0396338552236557 0.13998639583587646 0.15497511625289917 0 0 255
-0.08048230409622192 0.20260679721832275 0.19908970594406128 0 0 255
-0.05706692487001419 0.2098311334848404 0.2266458421945572 0 0 255
-0.033279161900281906 0.1705285906791687 0.2232692837715149 0 0 255
0.021610716357827187 0.1603444665670395 0.20521971583366394 0 0 255
0.054763585329055786 0.07685432583093643 0.18660295009613037 0 0 255
0.04229295998811722 0.08772890269756317 0.11364079266786575 0 0 255
-0.002002108609303832 0.11721231788396835 0.170152947306633 0 0 255
-0.027824731543660164 0.1620657593011856 0.22831812500953674 0 0 255
-0.0489976666867733 0.19588622450828552 0.2551751434803009 0 0 255
-0.0013035456649959087 0.21936625242233276 0.18659186363220215 0 0 255
0.020409807562828064 0.135137677192688 0.18253478407859802 0 0 255
0.035586751997470856 0.11659643054008484 0.1454918533563614 0 0 255
0.023295322433114052 0.1178082674741745 0.11840809136629105 0 0 255
-0.02879761904478073 0.15610995888710022 0.14727076888084412 0 0 255
-0.07106088101863861 0.19607585668563843 0.2199891358613968 0 0 255
-0.05379146337509155 0.22606819868087769 0.2197050005197525 0 0 255
-0.055057741701602936 0.21502771973609924 0.21694348752498627 0 0 255
-0.13465666770935059 0.2573544979095459 0.20920266211032867 0 0 255
-0.1922682374715805 0.30069151520729065 0.24669578671455383 0 0 255
-0.20976343750953674 0.2859717309474945 0.21709857881069183 0 0 255
-0.1605067253112793 0.23750406503677368 0.1801382452249527 0 0 255
-0.11711320281028748 0.27813902497291565 0.16222016513347626 0 0 255
-0.14060598611831665 0.23628434538841248 0.1912260502576828 0 0 255
-0.17177000641822815 0.24340911209583282 0.19939298927783966 0 0 255
-0.21481937170028687 0.27733030915260315 0.2027919590473175 0 0 255
-0.27943548560142517 0.2883993685245514 0.26181870698928833 0 0 255
-0.2484101951122284 0.27148133516311646 0.24352584779262543 0 0 255
-0.15496014058589935 0.2053101658821106 0.20515984296798706 0 0 255
-0.0441393181681633 0.17810484766960144 0.10972043871879578 0 0 255
0.08211881667375565 0.10934650152921677 0.07493370771408081 0 0 255
0.10592743009328842 0.03264328092336655 0.08043250441551208 0 0 255
0.17282111942768097 0.014325271360576153 0.054625287652015686 0 0 255
0.21079576015472412 -0.038409288972616196 0.010174334980547428 0 0 255
0.2441427856683731 -0.07497851550579071 0.006776768714189529 0 0 255
0.3058508336544037 -0.21038931608200073 -0.0623648464679718 0 0 255
0.27309975028038025 -0.17684678733348846 -0.09429051727056503 0 0 255
0.3276415765285492 -0.20436085760593414 -0.10953633487224579 0 0 255
0.35673788189888 -0.20541347563266754 -0.0909191370010376 0 0 255
0.3737034499645233 -0.18472713232040405 -0.08648424595594406 0 0 255
0.4097290337085724 -0.16978955268859863 -0.08644306659698486 0 0 255
0.39475858211517334 -0.1980675309896469 -0.10156478732824326 0 0 255
0.3851213753223419 -0.23452942073345184 -0.16035833954811096 0 0 255
0.40714776515960693 -0.2180868536233902 -0.1860867291688919 0 0 255
0.39217090606689453 -0.2232605367898941 -0.17779548466205597 0 0 255
0.4336661398410797 -0.2636900544166565 -0.1800556182861328 0 0 255
0.4801121950149536 -0.33785539865493774 -0.2611558139324188 0 0 255
0.4688659906387329 -0.3215322494506836 -0.298725962638855 0 0 255
0.4020594358444214 -0.354739248752594 -0.32765230536460876 0 0 255
0.36621302366256714 -0.32768383622169495 -0.32193660736083984 0 0 255
0.37663164734840393 -0.33170780539512634 -0.30522122979164124 0 0 255
0.36060628294944763 -0.33523452281951904 -0.3002629578113556 0 0 255
0.3677741289138794 -0.3304022550582886 -0.2537778317928314 0 0 255
0.40230193734169006 -0.28751203417778015 -0.23406937718391418 0 0 255
0.4127209782600403 -0.29556575417518616 -0.2322222739458084 0 0 255
0.4062401354312897 -0.3042694628238678 -0.24563895165920258 0 0 255
0.39359912276268005 -0.31143543124198914 -0.25886106491088867 0 0 255
0.3881332576274872 -0.3070417642593384 -0.2612934410572052 0 0 255
0.3819161653518677 -0.3105361759662628 -0.2709098756313324 0 0 255
0.38416025042533875 -0.2919159531593323 -0.26600906252861023 0 0 255
0.39098766446113586 -0.2945423722267151 -0.2590258717536926 0 0 255
0.391562819480896 -0.2905065417289734 -0.25337928533554077 0 0 255
0.39141732454299927 -0.29533717036247253 -0.24851298332214355 0 0 255
0.40349575877189636 -0.30570921301841736 -0.25522297620773315 0 0 255
0.41299811005592346 -0.31179654598236084 -0.2697337567806244 0 0 255
0.38953590393066406 -0.31312066316604614 -0.259177565574646 0 0 255
0.3944721817970276 -0.29739606380462646 -0.2569335401058197 0 0 255
0.41056546568870544 -0.305704265832901 -0.23758360743522644 0 0 255
0.4130023121833801 -0.3104492723941803 -0.24745211005210876 0 0 255
0.4014721214771271 -0.3144700825214386 -0.2583012282848358 0 0 255
0.3954310417175293 -0.31374314427375793 -0.258558988571167 0 0 255
0.3963296413421631 -0.3118354082107544 -0.26931434869766235 0 0 255
0.392805814743042 -0.31023555994033813 -0.2924742102622986 0 0 255
0.3786373436450958 -0.32274243235588074 -0.2912788391113281 0 0 255
0.379241943359375 -0.3228791356086731 -0.29706329107284546 0 0 255
0.37664496898651123 -0.32052698731422424 -0.302173912525177 0 0 255
0.3670007288455963 -0.32932907342910767 -0.2983556091785431 0 0 255
0.378385454416275 -0.30863332748413086 -0.29476574063301086 0 0 255
0.38108593225479126 -0.31960970163345337 -0.30015894770622253 0 0 255
0.3739126920700073 -0.31694677472114563 -0.30359065532684326 0 0 255
0.3680347204208374 -0.31200531125068665 -0.30593225359916687 0 0 255
0.3630220293998718 -0.3073209524154663 -0.3065297603607178 0 0 255
0.3616484999656677 -0.2958831191062927 -0.30693674087524414 0 0 255
0.3584931492805481 -0.2938648760318756 -0.3068397343158722 0 0 255
0.35868212580680847 -0.28341811895370483 -0.3079712986946106 0 0 255
0.37263065576553345 -0.2858063280582428 -0.29413044452667236 0 0 255
0.37599945068359375 -0.2985841631889343 -0.2854343354701996 0 0 255
0.373006135225296 -0.28995758295059204 -0.30474209785461426 0 0 255
0.3539281189441681 -0.28637203574180603 -0.30977097153663635 0 0 255
0.36436372995376587 -0.2797774374485016 -0.3027266263961792 0 0 255
0.3782539665699005 -0.27797120809555054 -0.3057865798473358 0 0 255
0.36704394221305847 -0.28477853536605835 -0.3129383325576782 0 0 255
0.35776469111442566 -0.2815916836261749 -0.3128631114959717 0 0 255
0.35655564069747925 -0.29278090596199036 -0.31786012649536133 0 0 255
0.3545602262020111 -0.283089816570282 -0.3302616775035858 0 0 255
0.3519624173641205 -0.28189247846603394 -0.33286818861961365 0 0 255
0.3447306454181671 -0.28666988015174866 -0.33715537190437317 0 0 255
0.3446836769580841 -0.2919824719429016 -0.3357716202735901 0 0 255
0.3416616916656494 -0.30025193095207214 -0.33116433024406433 0 0 255
0.33122342824935913 -0.2991873621940613 -0.3363746702671051 0 0 255
0.33361130952835083 -0.2985284924507141 -0.3338245153427124 0 0 255
0.348868191242218 -0.298441618680954 -0.3288978040218353 0 0 255
0.3462783992290497 -0.2907482087612152 -0.3236859440803528 0 0 255
0.3512551784515381 -0.2887324392795563 -0.3154386281967163 0 0 255
0.35564881563186646 -0.281546026468277 -0.3157694637775421 0 0 255
0.35414814949035645 -0.2804301083087921 -0.3169761002063751 0 0 255
0.3452971577644348 -0.2896243631839752 -0.3207518756389618 0 0 255
0.3285326063632965 -0.295046865940094 -0.3154817819595337 0 0 255
0.3237453103065491 -0.291674941778183 -0.3187873661518097 0 0 255
0.32979169487953186 -0.29902637004852295 -0.3281991183757782 0 0 255
0.3257482945919037 -0.29283782839775085 -0.3326152563095093 0 0 255
0.31218716502189636 -0.299287348985672 -0.32776764035224915 0 0 255
0.31760385632514954 -0.2911865711212158 -0.32056114077568054 0 0 255
0.32325077056884766 -0.3125663995742798 -0.3336159586906433 0 0 255
0.3162326216697693 -0.2848080098628998 -0.3423769474029541 0 0 255
0.32168319821357727 -0.27336424589157104 -0.33991312980651855 0 0 255
0.3311057984828949 -0.26965194940567017 -0.3275258243083954 0 0 255
0.32878363132476807 -0.27533403038978577 -0.33999207615852356 0 0 255
0.3211883008480072 -0.26601970195770264 -0.3446206748485565 0 0 255
0.3188643753528595 -0.2684740722179413 -0.3325391113758087 0 0 255
0.317134827375412 -0.2447768747806549 -0.32678815722465515 0 0 255
0.31806159019470215 -0.25041651725769043 -0.33192846179008484 0 0 255
0.28966212272644043 -0.24759036302566528 -0.33403903245925903 0 0 255
0.27800169587135315 -0.22203098237514496 -0.3345472514629364 0 0 255
0.29114213585853577 -0.21247269213199615 -0.32190901041030884 0 0 255
0.30161166191101074 -0.22541803121566772 -0.31373023986816406 0 0 255
0.31162428855895996 -0.2470775991678238 -0.325930118560791 0 0 255
0.3041391670703888 -0.26391568779945374 -0.3323260545730591 0 0 255
0.3051856458187103 -0.25350138545036316 -0.34588953852653503 0 0 255
0.31216877698898315 -0.2744225263595581 -0.34969562292099 0 0 255
0.30282098054885864 -0.2697349488735199 -0.35103875398635864 0 0 255
0.2926243543624878 -0.2673617899417877 -0.34970054030418396 0 0 255
0.2894582450389862 -0.25442400574684143 -0.3417232930660248 0 0 255
0.289543092250824 -0.24845395982265472 -0.34330424666404724 0 0 255
0.2935559153556824 -0.23781126737594604 -0.34176769852638245 0 0 255
0.28267043828964233 -0.23124386370182037 -0.3295993506908417 0 0 255
0.2765464782714844 -0.2214367389678955 -0.3372230529785156 0 0 255
0.29016879200935364 -0.22552397847175598 -0.34936341643333435 0 0 255
0.3035230040550232 -0.26198041439056396 -0.348990261554718 0 0 255
0.32182541489601135 -0.264774888753891 -0.32907456159591675 0 0 255
0.32233092188835144 -0.26536381244659424 -0.3284505009651184 0 0 255
0.3086649775505066 -0.2587803602218628 -0.3269200026988983 0 0 255
0.3237558901309967 -0.28452402353286743 -0.33280089497566223 0 0 255
0.3282849192619324 -0.2950872778892517 -0.3300436735153198 0 0 255
0.33903422951698303 -0.29459378123283386 -0.3286156952381134 0 0 255
0.3331066370010376 -0.30039453506469727 -0.33496347069740295 0 0 255
0.31060299277305603 -0.2895893156528473 -0.34011828899383545 0 0 255
0.30920377373695374 -0.2847336232662201 -0.34239450097084045 0 0 255
0.3249351382255554 -0.29020562767982483 -0.3364035487174988 0 0 255
0.3321952521800995 -0.3097572326660156 -0.32235318422317505 0 0 255
0.3177838921546936 -0.3140760660171509 -0.3123847544193268 0 0 255
0.3011481463909149 -0.306310772895813 -0.3206392824649811 0 0 255
0.2898792326450348 -0.3078975975513458 -0.3298182785511017 0 0 255
0.2737675905227661 -0.2841554284095764 -0.3293055593967438 0 0 255
0.2744317054748535 -0.29180628061294556 -0.32878556847572327 0 0 255
0.28173649311065674 -0.28620022535324097 -0.32546210289001465 0 0 255
0.28649184107780457 -0.2874205708503723 -0.32074031233787537 0 0 255
0.2841356098651886 -0.2948545217514038 -0.30356520414352417 0 0 255
0.29434624314308167 -0.30273935198783875 -0.3083219826221466 0 0 255
0.2873690724372864 -0.31085205078125 -0.31063219904899597 0 0 255
0.2782248258590698 -0.2881148159503937 -0.3173235356807709 0 0 255
0.2736743688583374 -0.3021303117275238 -0.3144238293170929 0 0 255
0.2769958972930908 -0.2933911085128784 -0.3106191158294678 0 0 255
0.2711973786354065 -0.29839760065078735 -0.30919018387794495 0 0 255
0.2526113986968994 -0.29211220145225525 -0.3030385375022888 0 0 255
0.2373185008764267 -0.2893017828464508 -0.30487552285194397 0 0 255
0.2373855859041214 -0.28331342339515686 -0.2878320813179016 0 0 255
0.23948997259140015 -0.28877943754196167 -0.2959557771682739 0 0 255
0.23594459891319275 -0.28892236948013306 -0.2963000237941742 0 0 255
0.23816825449466705 -0.2874150574207306 -0.28152069449424744 0 0 255
0.21726588904857635 -0.2909182608127594 -0.28019261360168457 0 0 255
0.1957518607378006 -0.2796424329280853 -0.27586033940315247 0 0 255
0.20359165966510773 -0.2714632749557495 -0.27491116523742676 0 0 255
0.22055953741073608 -0.27277466654777527 -0.27907711267471313 0 0 255
0.22681894898414612 -0.28075599670410156 -0.2719440162181854 0 0 255
0.21850143373012543 -0.2775157690048218 -0.27246394753456116 0 0 255
0.21310622990131378 -0.27959299087524414 -0.2686378061771393 0 0 255
0.21635538339614868 -0.2824231684207916 -0.25942865014076233 0 0 255
0.20847858488559723 -0.2724132239818573 -0.25748690962791443 0 0 255
0.20098793506622314 -0.27103960514068604 -0.25852063298225403 0 0 255
0.2021261751651764 -0.2745857238769531 -0.2584056854248047 0 0 255
0.20436960458755493 -0.2727587819099426 -0.25812143087387085 0 0 255
0.2115543931722641 -0.2739900052547455 -0.2577747702598572 0 0 255
0.21096837520599365 -0.27683112025260925 -0.2570090591907501 0 0 255
0.21193096041679382 -0.27693602442741394 -0.24880479276180267 0 0 255
0.218036487698555 -0.2794712781906128 -0.2508302330970764 0 0 255
0.22286634147167206 -0.28076374530792236 -0.24612070620059967 0 0 255
0.22350680828094482 -0.27874451875686646 -0.25394269824028015 0 0 255
0.22331072390079498 -0.2806049883365631 -0.2479371577501297 0 0 255
0.22104917466640472 -0.2812919020652771 -0.2542846202850342 0 0 255
0.219595804810524 -0.281622976064682 -0.24971264600753784 0 0 255
0.21930250525474548 -0.2858731746673584 -0.2469080090522766 0 0 255
0.21931956708431244 -0.28067538142204285 -0.24951113760471344 0 0 255
0.23901647329330444 -0.28396275639533997 -0.24570533633232117 0 0 255
0.2456739842891693 -0.3012392222881317 -0.2483331859111786 0 0 255
0.24873003363609314 -0.3008567690849304 -0.24782663583755493 0 0 255
0.2600051760673523 -0.30179399251937866 -0.24705225229263306 0 0 255
0.2676970660686493 -0.3030836582183838 -0.2492181360721588 0 0 255
0.2801458537578583 -0.3122642934322357 -0.2447243183851242 0 0 255
0.2995019853115082 -0.31036025285720825 -0.24689272046089172 0 0 255
0.3152793347835541 -0.33266976475715637 -0.2544988989830017 0 0 255
0.31985676288604736 -0.32975590229034424 -0.254067063331604 0 0 255
0.30325472354888916 -0.3239860236644745 -0.25742441415786743 0 0 255
0.29974332451820374 -0.3163917064666748 -0.26512253284454346 0 0 255
0.2884320616722107 -0.3236522674560547 -0.25793978571891785 0 0 255
0.27654391527175903 -0.31334736943244934 -0.2615090608596802 0 0 255
0.2676304578781128 -0.30185964703559875 -0.25368377566337585 0 0 255
0.25204241275787354 -0.30616316199302673 -0.23757342994213104 0 0 255
0.24692979454994202 -0.3042682707309723 -0.24959681928157806 0 0 255
0.24474991858005524 -0.3067217469215393 -0.2465033382177353 0 0 255
0.25840285420417786 -0.3027842342853546 -0.23563873767852783 0 0 255
0.2772543728351593 -0.3187274634838104 -0.2403164654970169 0 0 255
0.2806459069252014 -0.32112058997154236 -0.25419172644615173 0 0 255
0.2884635627269745 -0.33102113008499146 -0.2606850266456604 0 0 255
0.29645001888275146 -0.3290031850337982 -0.26712411642074585 0 0 255
0.2905912399291992 -0.3234771490097046 -0.2849515676498413 0 0 255
0.29596182703971863 -0.30985331535339355 -0.2731465697288513 0 0 255
0.31305819749832153 -0.31922227144241333 -0.2594339847564697 0 0 255
0.3234972357749939 -0.33495134115219116 -0.2622528374195099 0 0 255
0.32936328649520874 -0.3498828113079071 -0.2743549644947052 0 0 255
0.3416193127632141 -0.3545970916748047 -0.27169084548950195 0 0 255
0.36057162284851074 -0.3445415198802948 -0.26956477761268616 0 0 255
0.38640084862709045 -0.3417262136936188 -0.2584838271141052 0 0 255
0.39155787229537964 -0.34505534172058105 -0.26759636402130127 0 0 255
0.39047181606292725 -0.33666741847991943 -0.2618922293186188 0 0 255
0.3997999429702759 -0.33733442425727844 -0.25665491819381714 0 0 255
0.3988633155822754 -0.3214227259159088 -0.2527267336845398 0 0 255
0.39123380184173584 -0.32276278734207153 -0.23934248089790344 0 0 255
0.3913224935531616 -0.30137965083122253 -0.21739952266216278 0 0 255
0.39254122972488403 -0.2937229573726654 -0.1950448453426361 0 0 255
0.41811782121658325 -0.2956870496273041 -0.20011425018310547 0 0 255
0.3986148238182068 -0.29030534625053406 -0.20689210295677185 0 0 255
0.39438167214393616 -0.27772608399391174 -0.20685820281505585 0 0 255
0.39588049054145813 -0.26884645223617554 -0.203289195895195 0 0 255
0.38171717524528503 -0.2545524835586548 -0.19224779307842255 0 0 255
0.3952958285808563 -0.2552320957183838 -0.1798122674226761 0 0 255
0.4002699553966522 -0.2618749439716339 -0.17924994230270386 0 0 255
0.39859747886657715 -0.2586517333984375 -0.19365684688091278 0 0 255
0.39628300070762634 -0.2529440224170685 -0.2035796195268631 0 0 255
0.4068433940410614 -0.26082247495651245 -0.17639872431755066 0 0 255
0.3958168923854828 -0.2592974603176117 -0.1624068170785904 0 0 255
0.39372655749320984 -0.25270503759384155 -0.15880326926708221 0 0 255
0.4016501307487488 -0.2437087595462799 -0.1577809751033783 0 0 255
0.39377596974372864 -0.25190985202789307 -0.1640649288892746 0 0 255
0.4166944622993469 -0.25396302342414856 -0.1546355038881302 0 0 255
0.4186415374279022 -0.28424790501594543 -0.15445223450660706 0 0 255
0.4052444100379944 -0.31523919105529785 -0.17005138099193573 0 0 255
0.39888474345207214 -0.3085249066352844 -0.17926666140556335 0 0 255
0.4091813266277313 -0.304406076669693 -0.1712239533662796 0 0 255
0.41798636317253113 -0.3099477291107178 -0.1906953901052475 0 0 255
0.41228631138801575 -0.3147979974746704 -0.21906454861164093 0 0 255
0.40039774775505066 -0.3182656466960907 -0.22648486495018005 0 0 255
0.37835603952407837 -0.3200671374797821 -0.23242425918579102 0 0 255
0.38546305894851685 -0.30116716027259827 -0.23022232949733734 0 0 255
0.40009868144989014 -0.2950907051563263 -0.2515607178211212 0 0 255
0.39187464118003845 -0.303436815738678 -0.22549548745155334 0 0 255
0.395387202501297 -0.31533515453338623 -0.22263255715370178 0 0 255
0.35796883702278137 -0.32715487480163574 -0.24485203623771667 0 0 255
0.3264387845993042 -0.3164348602294922 -0.24140895903110504 0 0 255
0.35800662636756897 -0.3085922300815582 -0.2342318594455719 0 0 255
0.36978328227996826 -0.30158531665802 -0.24189698696136475 0 0 255
0.33550137281417847 -0.35157591104507446 -0.2258198857307434 0 0 255
0.3379596471786499 -0.3116220533847809 -0.22562992572784424 0 0 255
0.3333626091480255 -0.33633190393447876 -0.2600680887699127 0 0 255
0.32863983511924744 -0.34258681535720825 -0.2542738616466522 0 0 255
0.3377782702445984 -0.34388068318367004 -0.23703719675540924 0 0 255
0.3423556089401245 -0.3348315954208374 -0.2800009250640869 0 0 255
0.32859930396080017 -0.3359892964363098 -0.2731311321258545 0 0 255
0.3236227035522461 -0.3007082939147949 -0.26568812131881714 0 0 255
0.3251456320285797 -0.2894934415817261 -0.27292823791503906 0 0 255
0.3190212845802307 -0.28671255707740784 -0.28370577096939087 0 0 255
0.31288349628448486 -0.2744107246398926 -0.28953105211257935 0 0 255
0.3006211221218109 -0.25527146458625793 -0.3060961961746216 0 0 255
0.29989948868751526 -0.2452760636806488 -0.2915920913219452 0 0 255
0.30214110016822815 -0.2347179651260376 -0.2914696931838989 0 0 255
0.30975106358528137 -0.22090131044387817 -0.2873944342136383 0 0 255
0.31384724378585815 -0.23593196272850037 -0.28993645310401917 0 0 255
0.3308087885379791 -0.26127099990844727 -0.29678472876548767 0 0 255
0.3644590675830841 -0.2557353079319 -0.29141947627067566 0 0 255
0.3815981149673462 -0.23825979232788086 -0.26801377534866333 0 0 255
0.3903350830078125 -0.2711496949195862 -0.23225539922714233 0 0 255
0.40023863315582275 -0.2708764374256134 -0.22688035666942596 0 0 255
0.3978949785232544 -0.2868790626525879 -0.22518862783908844 0 0 255
0.43036848306655884 -0.3056770861148834 -0.21228459477424622 0 0 255
0.41539260745048523 -0.3161838948726654 -0.21834489703178406 0 0 255
0.4055211544036865 -0.3122691214084625 -0.15929487347602844 0 0 255
0.42996761202812195 -0.286255806684494 -0.1462259292602539 0 0 255
0.41234734654426575 -0.2856314480304718 -0.15545207262039185 0 0 255
0.38431844115257263 -0.300491601228714 -0.13344040513038635 0 0 255
0.37984079122543335 -0.303123414516449 -0.13040195405483246 0 0 255
0.38962674140930176 -0.31332242488861084 -0.16017167270183563 0 0 255
0.34674301743507385 -0.3232501149177551 -0.20473700761795044 0 0 255
0.3339131772518158 -0.3170844614505768 -0.1991567462682724 0 0 255
0.3363197445869446 -0.31539568305015564 -0.2421741485595703 0 0 255
0.3810218870639801 -0.33593323826789856 -0.23943732678890228 0 0 255
0.37610575556755066 -0.3347011208534241 -0.2725146412849426 0 0 255
0.3250468075275421 -0.33458390831947327 -0.2784155011177063 0 0 255
0.3786780536174774 -0.33466091752052307 -0.2595004141330719 0 0 255
0.3815383017063141 -0.3448272943496704 -0.2437397539615631 0 0 255
0.38247236609458923 -0.3546740412712097 -0.22558946907520294 0 0 255
0.40553292632102966 -0.3465177118778229 -0.23244303464889526 0 0 255
0.4005725085735321 -0.34396037459373474 -0.25681132078170776 0 0 255
0.39101287722587585 -0.3512575626373291 -0.2511709928512573 0 0 255
0.3828493058681488 -0.34966930747032166 -0.2297929972410202 0 0 255
0.3936762809753418 -0.3416687250137329 -0.23728810250759125 0 0 255
0.3847429156303406 -0.33675265312194824 -0.24782325327396393 0 0 255
0.3756553828716278 -0.3355616331100464 -0.2501446604728699 0 0 255
0.3740171194076538 -0.343226820230484 -0.25020474195480347 0 0 255
0.3798125088214874 -0.34649592638015747 -0.24175429344177246 0 0 255
0.37724757194519043 -0.3426908850669861 -0.23790571093559265 0 0 255
0.37588930130004883 -0.33083444833755493 -0.24194815754890442 0 0 255
0.3644741177558899 -0.3420451283454895 -0.24629424512386322 0 0 255
0.36901333928108215 -0.3353153169155121 -0.24882063269615173 0 0 255
0.36902448534965515 -0.33504003286361694 -0.25124192237854004 0 0 255
0.3739235997200012 -0.3308166265487671 -0.2594520151615143 0 0 255
0.3679320216178894 -0.32951420545578003 -0.2672938108444214 0 0 255
0.35996460914611816 -0.3306455612182617 -0.26334983110427856 0 0 255
0.3570316433906555 -0.33055806159973145 -0.2590310871601105 0 0 255
0.3562685549259186 -0.32640644907951355 -0.2585909068584442 0 0 255
0.3619469106197357 -0.3230959475040436 -0.2517789304256439 0 0 255
0.3592820167541504 -0.3236672878265381 -0.25301432609558105 0 0 255
0.36216413974761963 -0.32239553332328796 -0.2552318274974823 0 0 255
0.36878758668899536 -0.3229657709598541 -0.24516725540161133 0 0 255
0.38140442967414856 -0.32350561022758484 -0.24094872176647186 0 0 255
0.38987013697624207 -0.3122035264968872 -0.2474236935377121 0 0 255
0.3717552721500397 -0.31239235401153564 -0.24598328769207 0 0 255
0.3708665370941162 -0.31013011932373047 -0.22036293148994446 0 0 255
0.35935062170028687 -0.3177715837955475 -0.2143074870109558 0 0 255
0.34511837363243103 -0.3577345907688141 -0.20910212397575378 0 0 255
0.4002068042755127 -0.35044777393341064 -0.18287180364131927 0 0 255
0.43432027101516724 -0.32583868503570557 -0.17917682230472565 0 0 255
0.3849499821662903 -0.32618239521980286 -0.2257702648639679 0 0 255
0.36672887206077576 -0.2483275830745697 -0.1981745958328247 0 0 255
0.41703030467033386 -0.32682004570961 -0.12458975613117218 0 0 255
0.40281423926353455 -0.33841708302497864 -0.19326408207416534 0 0 255
0.38322654366493225 -0.3251282274723053 -0.17508582770824432 0 0 255
0.35616734623908997 -0.3319184482097626 -0.15548023581504822 0 0 255
0.3693931996822357 -0.201203852891922 -0.09982841461896896 0 0 255
0.3411789536476135 -0.23858806490898132 -0.10608959943056107 0 0 255
0.3345303237438202 -0.2264980673789978 -0.08015147596597672 0 0 255
0.30595794320106506 -0.3246400058269501 -0.09841196238994598 0 0 255
0.3232754170894623 -0.2627372741699219 -0.06689834594726562 0 0 255
0.36001503467559814 -0.30334001779556274 -0.06196354702115059 0 0 255
0.37747663259506226 -0.2920180559158325 -0.07191413640975952 0 0 255
0.3956693112850189 -0.2687155604362488 -0.15089018642902374 0 0 255
0.36958742141723633 -0.27682390809059143 -0.15447397530078888 0 0 255
0.366170734167099 -0.3077819347381592 -0.14161528646945953 0 0 255
0.3734518587589264 -0.26869943737983704 -0.14218419790267944 0 0 255
0.36493465304374695 -0.23781374096870422 -0.1546250879764557 0 0 255
0.3465152084827423 -0.20615731179714203 -0.14098285138607025 0 0 255
0.32992732524871826 -0.21439436078071594 -0.1489049643278122 0 0 255
0.35800305008888245 -0.2235967367887497 -0.1708737015724182 0 0 255
0.35273557901382446 -0.22141243517398834 -0.16477954387664795 0 0 255
0.35202428698539734 -0.2196531891822815 -0.1732589304447174 0 0 255
0.35657286643981934 -0.22723641991615295 -0.164701446890831 0 0 255
0.3692193031311035 -0.21254117786884308 -0.1609881967306137 0 0 255
0.3575873374938965 -0.21784108877182007 -0.16444531083106995 0 0 255
0.3655999004840851 -0.21196727454662323 -0.1592615246772766 0 0 255
0.3542769253253937 -0.2439798265695572 -0.1684727519750595 0 0 255
0.35185524821281433 -0.25827428698539734 -0.17621202766895294 0 0 255
0.3641301095485687 -0.24895219504833221 -0.16998255252838135 0 0 255
0.37522944808006287 -0.25371822714805603 -0.1612013727426529 0 0 255
0.37781545519828796 -0.24413993954658508 -0.16141130030155182 0 0 255
0.3684648871421814 -0.22189760208129883 -0.15663309395313263 0 0 255
0.36934739351272583 -0.22897692024707794 -0.14915071427822113 0 0 255
0.3765234351158142 -0.25522980093955994 -0.14569418132305145 0 0 255
0.39676639437675476 -0.2546181082725525 -0.15340402722358704 0 0 255
0.3925371766090393 -0.2664678990840912 -0.16582675278186798 0 0 255
0.3902294933795929 -0.2778152525424957 -0.16868065297603607 0 0 255
0.3907279372215271 -0.2675882577896118 -0.16776059567928314 0 0 255
0.3884049654006958 -0.26143574714660645 -0.17226777970790863 0 0 255
0.395214706659317 -0.26175299286842346 -0.17977844178676605 0 0 255
0.39839959144592285 -0.2701140344142914 -0.17957456409931183 0 0 255
0.38735371828079224 -0.26765570044517517 -0.1925922930240631 0 0 255
0.4116121232509613 -0.2779248058795929 -0.17347127199172974 0 0 255
0.41839486360549927 -0.2951497435569763 -0.17126214504241943 0 0 255
0.41833630204200745 -0.31094732880592346 -0.17883911728858948 0 0 255
0.4163435697555542 -0.32275131344795227 -0.18362748622894287 0 0 255
0.40765687823295593 -0.3273177146911621 -0.2007591873407364 0 0 255
0.414386123418808 -0.3132113218307495 -0.2129766047000885 0 0 255
0.4001888334751129 -0.31454554200172424 -0.22020302712917328 0 0 255
0.3990127742290497 -0.32683414220809937 -0.20614272356033325 0 0 255
0.3911724388599396 -0.33913618326187134 -0.216108500957489 0 0 255
0.39035922288894653 -0.33938780426979065 -0.20926466584205627 0 0 255
0.3947087526321411 -0.347871869802475 -0.21864664554595947 0 0 255
0.39995089173316956 -0.3578537404537201 -0.22520968317985535 0 0 255
0.38954266905784607 -0.36687353253364563 -0.2394884079694748 0 0 255
0.3824566602706909 -0.35626766085624695 -0.2236114889383316 0 0 255
0.37968215346336365 -0.35579144954681396 -0.2224625051021576 0 0 255
0.39697733521461487 -0.3602391183376312 -0.21185807883739471 0 0 255
0.40810123085975647 -0.36379098892211914 -0.20564571022987366 0 0 255
0.410483717918396 -0.3484564423561096 -0.21437332034111023 0 0 255
0.40071696043014526 -0.35118532180786133 -0.22262638807296753 0 0 255
0.38547617197036743 -0.33951714634895325 -0.22669236361980438 0 0 255
0.3850869834423065 -0.3345266580581665 -0.22649984061717987 0 0 255
0.3881337344646454 -0.3382663428783417 -0.22000880539417267 0 0 255
0.3859408497810364 -0.3419182002544403 -0.22823049128055573 0 0 255
0.4018649458885193 -0.3352835774421692 -0.22088497877120972 0 0 255
0.40434178709983826 -0.33227378129959106 -0.22140419483184814 0 0 255
0.39276137948036194 -0.33180591464042664 -0.2293819636106491 0 0 255
0.39063698053359985 -0.3364987075328827 -0.22311289608478546 0 0 255
0.3946322798728943 -0.34182024002075195 -0.22436989843845367 0 0 255
0.3923373520374298 -0.34300288558006287 -0.22653110325336456 0 0 255
0.3902459740638733 -0.3446808159351349 -0.2271565943956375 0 0 255
0.3934880793094635 -0.3488880395889282 -0.22640112042427063 0 0 255
0.3838983178138733 -0.3494584560394287 -0.23447509109973907 0 0 255
0.38219496607780457 -0.343213826417923 -0.23179841041564941 0 0 255
0.38112181425094604 -0.3450239598751068 -0.2366672158241272 0 0 255
0.3703131079673767 -0.34698134660720825 -0.2440672069787979 0 0 255
0.3723228871822357 -0.3441874086856842 -0.24191001057624817 0 0 255
0.3704707622528076 -0.3453272581100464 -0.2439299374818802 0 0 255
0.3629570007324219 -0.3542620539665222 -0.24220383167266846 0 0 255
0.3593466579914093 -0.3490573763847351 -0.24788428843021393 0 0 255
0.36065828800201416 -0.33979514241218567 -0.2508346438407898 0 0 255
0.34503358602523804 -0.3413788676261902 -0.2558650076389313 0 0 255
0.3332419991493225 -0.3303077816963196 -0.2665725648403168 0 0 255
0.3307442367076874 -0.33590152859687805 -0.255752831697464 0 0 255
0.3362010717391968 -0.3411388397216797 -0.24180392920970917 0 0 255
0.3333963453769684 -0.3382929861545563 -0.2511494755744934 0 0 255
0.3213707506656647 -0.3365464210510254 -0.25388678908348083 0 0 255
0.3127870559692383 -0.3330260217189789 -0.2581905126571655 0 0 255
0.3165055513381958 -0.33561351895332336 -0.2459186613559723 0 0 255
0.3076687157154083 -0.3398125171661377 -0.25477859377861023 0 0 255
0.30687111616134644 -0.33093780279159546 -0.258038192987442 0 0 255
0.31766369938850403 -0.3308280408382416 -0.2619730532169342 0 0 255
0.32591041922569275 -0.3321756422519684 -0.2519579529762268 0 0 255
0.3185131251811981 -0.33768150210380554 -0.27605897188186646 0 0 255
0.29813411831855774 -0.31797873973846436 -0.270734041929245 0 0 255
0.2946850657463074 -0.3158135712146759 -0.2723598778247833 0 0 255
0.2966679632663727 -0.3142479956150055 -0.26872679591178894 0 0 255
0.27716079354286194 -0.31570884585380554 -0.2603815495967865 0 0 255
0.2636164128780365 -0.31654155254364014 -0.2573963701725006 0 0 255
0.26236802339553833 -0.3050878047943115 -0.26784443855285645 0 0 255
0.265307754278183 -0.31182026863098145 -0.25666776299476624 0 0 255
0.2690134048461914 -0.3242031931877136 -0.25811323523521423 0 0 255
0.2750444710254669 -0.30964696407318115 -0.2629430592060089 0 0 255
0.2854461371898651 -0.30865633487701416 -0.2630721926689148 0 0 255
0.2871304154396057 -0.30941420793533325 -0.2671549320220947 0 0 255
0.2948680818080902 -0.322896808385849 -0.261546790599823 0 0 255
0.30372074246406555 -0.33320361375808716 -0.2632981836795807 0 0 255
0.29197654128074646 -0.34021639823913574 -0.2572808861732483 0 0 255
0.2963374853134155 -0.33070316910743713 -0.25657519698143005 0 0 255
0.30115586519241333 -0.3267238438129425 -0.26690056920051575 0 0 255
0.2985331416130066 -0.32531753182411194 -0.2677958011627197 0 0 255
0.3018743693828583 -0.33257654309272766 -0.27321067452430725 0 0 255
0.29932478070259094 -0.3206155300140381 -0.2731087803840637 0 0 255
0.3047276437282562 -0.3240875005722046 -0.2632374167442322 0 0 255
0.3110794425010681 -0.3241782784461975 -0.2550402581691742 0 0 255
0.30852389335632324 -0.3330145478248596 -0.25675535202026367 0 0 255
0.3187154531478882 -0.3238699436187744 -0.26860710978507996 0 0 255
0.31233251094818115 -0.32828208804130554 -0.2759777307510376 0 0 255
0.3057610094547272 -0.32092419266700745 -0.2756747007369995 0 0 255
0.298771470785141 -0.3159445822238922 -0.2764500081539154 0 0 255
0.3109208047389984 -0.3292544484138489 -0.26799094676971436 0 0 255
0.3205530345439911 -0.3272897005081177 -0.26812756061553955 0 0 255
0.3212100863456726 -0.32170096039772034 -0.26756054162979126 0 0 255
0.3251746892929077 -0.32516855001449585 -0.266487717628479 0 0 255
0.3383113145828247 -0.3345034718513489 -0.2583307921886444 0 0 255
0.3563268780708313 -0.3299750089645386 -0.26173028349876404 0 0 255
0.3567095100879669 -0.33006924390792847 -0.2597583830356598 0 0 255
0.355709433555603 -0.3330310583114624 -0.2538474202156067 0 0 255
0.35627952218055725 -0.3299155533313751 -0.250141441822052 0 0 255
0.3602045774459839 -0.32919541001319885 -0.25383979082107544 0 0 255
0.361966073513031 -0.3276705741882324 -0.25419190526008606 0 0 255
0.3701668679714203 -0.3219597339630127 -0.2584158480167389 0 0 255
0.3705030083656311 -0.32190582156181335 -0.25622081756591797 0 0 255
0.37345680594444275 -0.33147552609443665 -0.2525498867034912 0 0 255
0.3681904673576355 -0.32771041989326477 -0.25157541036605835 0 0 255
0.364359974861145 -0.3259592652320862 -0.2453913390636444 0 0 255
0.3681279718875885 -0.32128408551216125 -0.24393735826015472 0 0 255
0.3703750967979431 -0.32011327147483826 -0.24549917876720428 0 0 255
0.37338510155677795 -0.31420230865478516 -0.24509423971176147 0 0 255
0.3802628219127655 -0.3211654722690582 -0.2374056577682495 0 0 255
0.382162481546402 -0.3167894184589386 -0.23861606419086456 0 0 255
0.38155514001846313 -0.2989189326763153 -0.23903295397758484 0 0 255
0.3746686279773712 -0.2961542010307312 -0.23591354489326477 0 0 255
0.37948480248451233 -0.2967689335346222 -0.23326292634010315 0 0 255
0.39220598340034485 -0.29711437225341797 -0.23371560871601105 0 0 255
0.39548036456108093 -0.29849839210510254 -0.23045673966407776 0 0 255
0.3984167277812958 -0.28752052783966064 -0.22399933636188507 0 0 255
0.4020020365715027 -0.28161194920539856 -0.22049930691719055 0 0 255
0.4001772999763489 -0.2795073986053467 -0.22738048434257507 0 0 255
0.39519593119621277 -0.28598493337631226 -0.22180232405662537 0 0 255
0.4027239680290222 -0.2867281436920166 -0.2182624191045761 0 0 255
0.41281968355178833 -0.29529908299446106 -0.21866129338741302 0 0 255
0.41498327255249023 -0.29081496596336365 -0.22034351527690887 0 0 255
0.40828028321266174 -0.28021809458732605 -0.21658506989479065 0 0 255
0.4013558030128479 -0.2808447480201721 -0.20628298819065094 0 0 255
0.40330255031585693 -0.27981311082839966 -0.206075981259346 0 0 255
0.40417009592056274 -0.261040061712265 -0.20886601507663727 0 0 255
0.38554972410202026 -0.24998466670513153 -0.20601561665534973 0 0 255
0.37906181812286377 -0.23877111077308655 -0.18930597603321075 0 0 255
0.3704833984375 -0.220515176653862 -0.1808934211730957 0 0 255
0.3564954400062561 -0.1921290010213852 -0.1730806678533554 0 0 255
0.3441118001937866 -0.18074078857898712 -0.16083784401416779 0 0 255
0.33160513639450073 -0.17513522505760193 -0.16156789660453796 0 0 255
0.33469000458717346 -0.16531607508659363 -0.15612860023975372 0 0 255
0.32438743114471436 -0.16232050955295563 -0.16063004732131958 0 0 255
0.31336161494255066 -0.12072654068470001 -0.14346687495708466 0 0 255
0.2942899167537689 -0.13081865012645721 -0.118011474609375 0 0 255
0.2876238524913788 -0.11131730675697327 -0.13531431555747986 0 0 255
0.2944926917552948 -0.09546421468257904 -0.1318911761045456 0 0 255
0.30473512411117554 -0.10969514399766922 -0.14151327311992645 0 0 255
0.30416011810302734 -0.1011560931801796 -0.13996800780296326 0 0 255
0.30332744121551514 -0.08889158815145493 -0.14522519707679749 0 0 255
0.2916001081466675 -0.07429452985525131 -0.13563218712806702 0 0 255
0.2730523645877838 -0.05861072614789009 -0.1081283688545227 0 0 255
0.2413531392812729 -0.06411685049533844 -0.08502694219350815 0 0 255
0.22934579849243164 -0.029178503900766373 -0.08289486914873123 0 0 255
0.20581547915935516 0.019218215718865395 -0.08316361159086227 0 0 255
0.138027161359787 0.04679137468338013 -0.03503381833434105 0 0 255
0.09399145841598511 0.07631148397922516 -0.02162153646349907 0 0 255
0.08755896240472794 0.08966727554798126 -0.01581716164946556 0 0 255
0.10028233379125595 0.06711423397064209 -0.011512824334204197 0 0 255
0.10593106597661972 0.07802309840917587 -0.04075179249048233 0 0 255
0.08698339760303497 0.06550159305334091 -0.018610680475831032 0 0 255
0.04909217730164528 0.10228221863508224 -0.01939970999956131 0 0 255
0.03356434032320976 0.12346899509429932 -0.008003185503184795 0 0 255
0.044780973345041275 0.13384585082530975 -0.008242792449891567 0 0 255
0.034254949539899826 0.1456434577703476 -0.023501785472035408 0 0 255
0.003008800558745861 0.1606661081314087 0.0004977522185072303 0 0 255
-0.010869821533560753 0.1430530995130539 0.005485439673066139 0 0 255
-0.0658947303891182 0.21369904279708862 0.04468068107962608 0 0 255
-0.14174219965934753 0.24339620769023895 0.08767729997634888 0 0 255
-0.17582781612873077 0.2890876829624176 0.07356970757246017 0 0 255
-0.24634626507759094 0.31818634271621704 0.07656951993703842 0 0 255
-0.29834750294685364 0.34504085779190063 0.09018616378307343 0 0 255
-0.3062683939933777 0.32829681038856506 0.09551151096820831 0 0 255
-0.2983770966529846 0.34232038259506226 0.08450611680746078 0 0 255
-0.30520862340927124 0.32653293013572693 0.05310322716832161 0 0 255
-0.23410658538341522 0.3278794586658478 -0.008354243822395802 0 0 255
-0.19285541772842407 0.28931117057800293 -0.017117461189627647 0 0 255
-0.1574062705039978 0.21075814962387085 -0.0016533631132915616 0 0 255
-0.11212688684463501 0.2189023345708847 -0.017487429082393646 0 0 255
-0.1438429206609726 0.19402804970741272 -0.0017683072946965694 0 0 255
-0.11710163205862045 0.19173626601696014 0.018855569884181023 0 0 255
-0.11968732625246048 0.1842842549085617 0.007029126863926649 0 0 255
-0.09843875467777252 0.2406340390443802 -0.030662845820188522 0 0 255
-0.07360229641199112 0.22034764289855957 0.019986078143119812 0 0 255
-0.053793661296367645 0.2304835319519043 0.03749321401119232 0 0 255
-0.03805297985672951 0.22863200306892395 0.040280409157276154 0 0 255
-0.07042121142148972 0.23895303905010223 0.08908408880233765 0 0 255
-0.18530727922916412 0.3163629472255707 0.11654449254274368 0 0 255
-0.40066853165626526 0.4055226147174835 0.10789928585290909 0 0 255
-0.4394974112510681 0.3048033118247986 0.11813120543956757 0 0 255
-0.3629600405693054 0.22248725593090057 0.10058004409074783 0 0 255
-0.28761056065559387 0.16380198299884796 0.06222251430153847 0 0 255
-0.23002377152442932 0.12689319252967834 0.024180298671126366 0 0 255
-0.22240833938121796 0.08396260440349579 0.013478171080350876 0 0 255
-0.21698081493377686 0.08926738053560257 0.020768150687217712 0 0 255
-0.20830382406711578 0.103923499584198 0.04297429695725441 0 0 255
-0.21749332547187805 0.0793299525976181 0.06900279223918915 0 0 255
-0.2273775339126587 0.026843857020139694 0.07666690647602081 0 0 255
