ply
format ascii 1.0
element vertex 712
property float x
property float y
property float z
property uchar red
property uchar green
property uchar blue
end_header
0.17026421427726746 0.29526567459106445 0.10509070008993149 0 0 255
0.1633908599615097 0.2902601957321167 0.10290353745222092 0 0 255
0.15881794691085815 0.294288694858551 0.10333869606256485 0 0 255
0.1550028920173645 0.2915765643119812 0.10291717946529388 0 0 255
0.16299469769001007 0.28580960631370544 0.10550715774297714 0 0 255
0.1638287603855133 0.2871445119380951 0.10463405400514603 0 0 255
0.15967600047588348 0.28712013363838196 0.09783253818750381 0 0 255
0.15658104419708252 0.29357022047042847 0.10250356048345566 0 0 255
0.16247522830963135 0.2832739055156708 0.0998736172914505 0 0 255
0.1631672978401184 0.2748701870441437 0.10371842235326767 0 0 255
0.16131925582885742 0.2733151614665985 0.10588782280683517 0 0 255
0.15890443325042725 0.27848729491233826 0.10262111574411392 0 0 255
0.1592540442943573 0.28360578417778015 0.10150095075368881 0 0 255
0.16052043437957764 0.286293089389801 0.09835493564605713 0 0 255
0.16225257515907288 0.28376033902168274 0.10217937082052231 0 0 255
0.1697453111410141 0.2811001241207123 0.11935030668973923 0 0 255
0.17090357840061188 0.2802537679672241 0.11829526722431183 0 0 255
0.16571441292762756 0.2858983278274536 0.1117943674325943 0 0 255
0.16124434769153595 0.28714099526405334 0.10413854569196701 0 0 255
0.1632421612739563 0.28976455330848694 0.1051950752735138 0 0 255
0.1647728681564331 0.2917002737522125 0.10963715612888336 0 0 255
0.16494864225387573 0.29690220952033997 0.10767475515604019 0 0 255
0.1643105447292328 0.29870590567588806 0.10428941249847412 0 0 255
0.16009549796581268 0.29236313700675964 0.10688263922929764 0 0 255
0.15717345476150513 0.2968173921108246 0.10719624906778336 0 0 255
0.15406252443790436 0.2939944267272949 0.10399794578552246 0 0 255
0.15779446065425873 0.2834063172340393 0.10509458929300308 0 0 255
0.15831869840621948 0.27821484208106995 0.10216428339481354 0 0 255
0.1592082381248474 0.2730397582054138 0.10445015132427216 0 0 255
0.16347183287143707 0.26815152168273926 0.11010365188121796 0 0 255
0.16695798933506012 0.2702014744281769 0.1137361153960228 0 0 255
0.1687009036540985 0.2764727473258972 0.11461042612791061 0 0 255
0.16910754144191742 0.2748664617538452 0.11452671140432358 0 0 255
0.17000673711299896 0.2768658995628357 0.12101041525602341 0 0 255
0.1672397404909134 0.28083327412605286 0.11938460171222687 0 0 255
0.1712145060300827 0.2775788903236389 0.12383882701396942 0 0 255
0.18145781755447388 0.28197333216667175 0.13026665151119232 0 0 255
0.1821066439151764 0.2794077396392822 0.1324063539505005 0 0 255
0.1818375438451767 0.2879795730113983 0.1355462521314621 0 0 255
0.18719899654388428 0.29660460352897644 0.14511685073375702 0 0 255
0.19260530173778534 0.30438700318336487 0.1499236822128296 0 0 255
0.1887434870004654 0.3171631395816803 0.14682318270206451 0 0 255
0.18793123960494995 0.3210296928882599 0.14503014087677002 0 0 255
0.18956615030765533 0.3290833532810211 0.15284249186515808 0 0 255
0.19032764434814453 0.3410745859146118 0.14853620529174805 0 0 255
0.18092332780361176 0.34775078296661377 0.13364183902740479 0 0 255
0.17829100787639618 0.3475464880466461 0.14029280841350555 0 0 255
0.1774163842201233 0.35274389386177063 0.12505722045898438 0 0 255
0.1629534512758255 0.3667862117290497 0.099491648375988 0 0 255
0.17698167264461517 0.341232031583786 0.10717891901731491 0 0 255
0.1784907728433609 0.3330501317977905 0.11355298012495041 0 0 255
0.16517001390457153 0.34603479504585266 0.09597256034612656 0 0 255
0.16795791685581207 0.34529101848602295 0.10940895974636078 0 0 255
0.17293834686279297 0.34371352195739746 0.10851884633302689 0 0 255
0.16992051899433136 0.3470349609851837 0.10286691039800644 0 0 255
0.17284643650054932 0.334710031747818 0.10409795492887497 0 0 255
0.1777077466249466 0.3267214596271515 0.11404146254062653 0 0 255
0.18124908208847046 0.32174357771873474 0.11550046503543854 0 0 255
0.18223638832569122 0.31356728076934814 0.10955657809972763 0 0 255
0.17212292551994324 0.30932244658470154 0.10876018553972244 0 0 255
0.1725321114063263 0.30359581112861633 0.09786525368690491 0 0 255
0.1795129030942917 0.2856304943561554 0.11487943679094315 0 0 255
0.18413926661014557 0.2968330979347229 0.10998781025409698 0 0 255
0.17653781175613403 0.28719034790992737 0.10904516279697418 0 0 255
0.17451754212379456 0.2826943099498749 0.11801548302173615 0 0 255
0.17270170152187347 0.2752218246459961 0.11384489387273788 0 0 255
0.1697523295879364 0.27276143431663513 0.11839867383241653 0 0 255
0.17988435924053192 0.2738093435764313 0.12262538075447083 0 0 255
0.19059054553508759 0.2645053565502167 0.12385565042495728 0 0 255
0.18263021111488342 0.271340012550354 0.13161435723304749 0 0 255
0.18019412457942963 0.2837808132171631 0.11701982468366623 0 0 255
0.17594759166240692 0.29306498169898987 0.122384212911129 0 0 255
0.17974960803985596 0.28599119186401367 0.11723047494888306 0 0 255
0.17149856686592102 0.2743989825248718 0.11668716371059418 0 0 255
0.17501983046531677 0.2625391483306885 0.11679237335920334 0 0 255
0.1651214361190796 0.2540416419506073 0.1129394993185997 0 0 255
0.1678469032049179 0.2446344941854477 0.11487747728824615 0 0 255
0.18162992596626282 0.23429541289806366 0.12605535984039307 0 0 255
0.1785920262336731 0.22977441549301147 0.1259383261203766 0 0 255
0.17722941935062408 0.22919230163097382 0.11630771309137344 0 0 255
0.17860767245292664 0.226774662733078 0.1227743998169899 0 0 255
0.18070602416992188 0.22866737842559814 0.11792147159576416 0 0 255
0.16411666572093964 0.22124765813350677 0.09079257398843765 0 0 255
0.16166312992572784 0.22557033598423004 0.09124669432640076 0 0 255
0.1726321280002594 0.22236353158950806 0.0941808745265007 0 0 255
0.15361082553863525 0.22837130725383759 0.08129817992448807 0 0 255
0.14749667048454285 0.214316725730896 0.08180015534162521 0 0 255
0.1456037014722824 0.20891523361206055 0.07541065663099289 0 0 255
0.138889342546463 0.2273256778717041 0.0734415203332901 0 0 255
0.14393937587738037 0.24081890285015106 0.074947789311409 0 0 255
0.1491735875606537 0.24005091190338135 0.08559975773096085 0 0 255
0.1426144540309906 0.24524639546871185 0.07525382936000824 0 0 255
0.14143157005310059 0.2635513246059418 0.05946391448378563 0 0 255
0.13347963988780975 0.26568350195884705 0.05726197361946106 0 0 255
0.12421391159296036 0.2619123160839081 0.05156579241156578 0 0 255
0.12993961572647095 0.24912628531455994 0.05649910867214203 0 0 255
0.1248706504702568 0.2353486269712448 0.05160749331116676 0 0 255
0.11260469257831573 0.22827236354351044 0.03541829437017441 0 0 255
0.11009805649518967 0.22576703131198883 0.03414717689156532 0 0 255
0.10849021375179291 0.22107085585594177 0.03746169060468674 0 0 255
0.12207291275262833 0.2039150595664978 0.05954800918698311 0 0 255
0.12064892053604126 0.2032715231180191 0.023466402664780617 0 0 255
0.09389317035675049 0.2223476767539978 0.0021353529300540686 0 0 255
0.08484560251235962 0.24648620188236237 0.007726335432380438 0 0 255
0.09834978729486465 0.23188728094100952 0.01633145473897457 0 0 255
0.10419697314500809 0.24545717239379883 0.03342248126864433 0 0 255
0.09750306606292725 0.25068792700767517 0.03949560970067978 0 0 255
0.1258344054222107 0.26898446679115295 0.043116047978401184 0 0 255
0.12969385087490082 0.2562917172908783 0.04069063067436218 0 0 255
0.1196453720331192 0.25057926774024963 0.04138079658150673 0 0 255
0.13089318573474884 0.2504477798938751 0.05464024841785431 0 0 255
0.138187438249588 0.25298818945884705 0.06260839104652405 0 0 255
0.12971490621566772 0.24093517661094666 0.062310997396707535 0 0 255
0.1313810795545578 0.2267013043165207 0.0740104466676712 0 0 255
0.14133746922016144 0.20450298488140106 0.08913586288690567 0 0 255
0.1447572261095047 0.19876059889793396 0.08639329671859741 0 0 255
0.1436435580253601 0.21332454681396484 0.07423750311136246 0 0 255
0.13832645118236542 0.22087928652763367 0.07568700611591339 0 0 255
0.14535853266716003 0.23380525410175323 0.06536301225423813 0 0 255
0.13351982831954956 0.24647167325019836 0.07354867458343506 0 0 255
0.13077619671821594 0.26840320229530334 0.04991265758872032 0 0 255
0.11332597583532333 0.28462785482406616 0.03469935432076454 0 0 255
0.12379835546016693 0.291020005941391 0.05437475070357323 0 0 255
0.14593881368637085 0.3125922977924347 0.050999488681554794 0 0 255
0.1302952915430069 0.3035522997379303 0.05974169820547104 0 0 255
0.1262412965297699 0.32697051763534546 0.04719257354736328 0 0 255
0.10990794748067856 0.33263298869132996 0.04675919935107231 0 0 255
0.12786278128623962 0.3402242660522461 0.0591002032160759 0 0 255
0.13245168328285217 0.32286450266838074 0.06076690927147865 0 0 255
0.13997142016887665 0.3080953359603882 0.06089241802692413 0 0 255
0.14789259433746338 0.2937111556529999 0.07870384305715561 0 0 255
0.14219442009925842 0.28339728713035583 0.08067771047353745 0 0 255
0.14853781461715698 0.28672802448272705 0.08760955184698105 0 0 255
0.14655931293964386 0.2790782153606415 0.08532223105430603 0 0 255
0.14125671982765198 0.28029265999794006 0.07554198801517487 0 0 255
0.14414100348949432 0.2724441587924957 0.07928317785263062 0 0 255
0.1482905000448227 0.26961299777030945 0.08857198059558868 0 0 255
0.16008619964122772 0.2626661956310272 0.09858939796686172 0 0 255
0.16192616522312164 0.2636587917804718 0.09972818940877914 0 0 255
0.15757916867733002 0.2569826543331146 0.09911767393350601 0 0 255
0.14577838778495789 0.25627732276916504 0.09524595737457275 0 0 255
0.14331422746181488 0.27141010761260986 0.0987025648355484 0 0 255
0.15123514831066132 0.27088966965675354 0.10446874052286148 0 0 255
0.14981384575366974 0.263227641582489 0.09214907139539719 0 0 255
0.15104031562805176 0.26615697145462036 0.0950898602604866 0 0 255
0.14637991786003113 0.27308204770088196 0.08097119629383087 0 0 255
0.1471361219882965 0.2763363718986511 0.06770145148038864 0 0 255
0.14797155559062958 0.277212917804718 0.0740569531917572 0 0 255
0.13532845675945282 0.29147234559059143 0.05582660436630249 0 0 255
0.13686907291412354 0.2941523492336273 0.07206489890813828 0 0 255
0.13332895934581757 0.2835388481616974 0.06498885899782181 0 0 255
0.12616942822933197 0.28661853075027466 0.06973326951265335 0 0 255
0.14127878844738007 0.28614190220832825 0.08248201012611389 0 0 255
0.1523439884185791 0.28499114513397217 0.09424126893281937 0 0 255
0.16959816217422485 0.28323474526405334 0.10098506510257721 0 0 255
0.1701681911945343 0.2965640723705292 0.10285267978906631 0 0 255
0.1643696427345276 0.2982434928417206 0.10070806741714478 0 0 255
0.1681579053401947 0.3011993169784546 0.11111080646514893 0 0 255
0.17449277639389038 0.3108508884906769 0.11712823808193207 0 0 255
0.16842301189899445 0.3274006247520447 0.11023149639368057 0 0 255
0.16968490183353424 0.34756892919540405 0.10114455968141556 0 0 255
0.16827403008937836 0.35359883308410645 0.10137011855840683 0 0 255
0.1636219173669815 0.3459364175796509 0.10295287519693375 0 0 255
0.16103680431842804 0.3369046747684479 0.10295584052801132 0 0 255
0.17113229632377625 0.3262192904949188 0.11525903642177582 0 0 255
0.17612816393375397 0.3227991461753845 0.10626424103975296 0 0 255
0.1724206954240799 0.320331871509552 0.11520439386367798 0 0 255
0.17439579963684082 0.3185863494873047 0.11014056950807571 0 0 255
0.17690357565879822 0.323504239320755 0.11609120666980743 0 0 255
0.18487586081027985 0.3282065689563751 0.12274756282567978 0 0 255
0.17619211971759796 0.33000287413597107 0.11297659575939178 0 0 255
0.175010547041893 0.3245853781700134 0.11243338137865067 0 0 255
0.18091651797294617 0.3226877450942993 0.1130601242184639 0 0 255
0.17983941733837128 0.33947277069091797 0.09583909809589386 0 0 255
0.18072064220905304 0.34477707743644714 0.09492620825767517 0 0 255
0.1863289475440979 0.3379884660243988 0.10183510184288025 0 0 255
0.196715846657753 0.3384980857372284 0.11374613642692566 0 0 255
0.19314506649971008 0.3395339250564575 0.10953674465417862 0 0 255
0.18689550459384918 0.334606796503067 0.10507072508335114 0 0 255
0.18565839529037476 0.31924113631248474 0.10787566006183624 0 0 255
0.17957140505313873 0.31887465715408325 0.10980774462223053 0 0 255
0.18406620621681213 0.32111865282058716 0.11345243453979492 0 0 255
0.1923331916332245 0.3009478747844696 0.13751956820487976 0 0 255
0.18979690968990326 0.2881774306297302 0.14382919669151306 0 0 255
0.18964959681034088 0.28404414653778076 0.13153155148029327 0 0 255
0.20234517753124237 0.2576642334461212 0.15812650322914124 0 0 255
0.2105928659439087 0.2513859272003174 0.14886149764060974 0 0 255
0.2057618349790573 0.2448693811893463 0.14722004532814026 0 0 255
0.20319484174251556 0.22891944646835327 0.1513240486383438 0 0 255
0.2066957652568817 0.23937207460403442 0.15479975938796997 0 0 255
0.209905207157135 0.24228009581565857 0.16570663452148438 0 0 255
0.20841927826404572 0.23757675290107727 0.16947387158870697 0 0 255
0.20358765125274658 0.23223470151424408 0.15889865159988403 0 0 255
0.19865870475769043 0.2372787743806839 0.1649736762046814 0 0 255
0.212647944688797 0.24873632192611694 0.19376243650913239 0 0 255
0.21664856374263763 0.2527925372123718 0.1947866529226303 0 0 255
0.21060635149478912 0.2652445435523987 0.1830068677663803 0 0 255
0.21946807205677032 0.2765364646911621 0.1824549287557602 0 0 255
0.21822528541088104 0.28584444522857666 0.18311409652233124 0 0 255
0.20879016816616058 0.289785236120224 0.17467063665390015 0 0 255
0.19625739753246307 0.28552955389022827 0.16308902204036713 0 0 255
0.18455861508846283 0.2771322727203369 0.1676257699728012 0 0 255
0.19339680671691895 0.28286516666412354 0.17259612679481506 0 0 255
0.20312048494815826 0.276425838470459 0.16072092950344086 0 0 255
0.20080873370170593 0.27637365460395813 0.15141518414020538 0 0 255
0.22014671564102173 0.2501230835914612 0.17857399582862854 0 0 255
0.21202486753463745 0.2542426586151123 0.16064485907554626 0 0 255
0.19549784064292908 0.25005096197128296 0.15608884394168854 0 0 255
0.19983534514904022 0.2429460734128952 0.16509874165058136 0 0 255
0.2081378847360611 0.2445881962776184 0.17214377224445343 0 0 255
0.19835303723812103 0.2501886188983917 0.15911728143692017 0 0 255
0.18950241804122925 0.24764683842658997 0.13879284262657166 0 0 255
0.1979638636112213 0.238801971077919 0.15142281353473663 0 0 255
0.21094422042369843 0.2120753973722458 0.1612253487110138 0 0 255
0.2142205387353897 0.19711969792842865 0.1732705533504486 0 0 255
0.21594609320163727 0.17982766032218933 0.18046681582927704 0 0 255
0.2153678983449936 0.17697535455226898 0.18625223636627197 0 0 255
0.23160086572170258 0.17517006397247314 0.20516790449619293 0 0 255
0.2104843258857727 0.1880626678466797 0.18865786492824554 0 0 255
0.1989658623933792 0.18658562004566193 0.18537037074565887 0 0 255
0.20177125930786133 0.18020233511924744 0.1763893961906433 0 0 255
0.18940891325473785 0.187001571059227 0.15708866715431213 0 0 255
0.19557590782642365 0.18312162160873413 0.15362560749053955 0 0 255
0.19516298174858093 0.1758873611688614 0.1532549411058426 0 0 255
0.1883510947227478 0.16296078264713287 0.15369129180908203 0 0 255
0.1711050271987915 0.14846616983413696 0.13407069444656372 0 0 255
0.1729985624551773 0.1393759399652481 0.13710662722587585 0 0 255
0.17670217156410217 0.11803720891475677 0.13522039353847504 0 0 255
0.18157339096069336 0.10476177930831909 0.1408076286315918 0 0 255
0.1698368340730667 0.09863652288913727 0.13547852635383606 0 0 255
0.15801867842674255 0.09864544123411179 0.1260080188512802 0 0 255
0.16956788301467896 0.08905365318059921 0.13935819268226624 0 0 255
0.18824519217014313 0.09401824325323105 0.15351642668247223 0 0 255
0.18350578844547272 0.11596640199422836 0.13738460838794708 0 0 255
0.16643613576889038 0.10580506175756454 0.13888247311115265 0 0 255
0.18451063334941864 0.10774627327919006 0.13808350265026093 0 0 255
0.17954204976558685 0.12933441996574402 0.1317710131406784 0 0 255
0.17949146032333374 0.14129646122455597 0.12169267237186432 0 0 255
0.18082012236118317 0.17149454355239868 0.10788559913635254 0 0 255
0.17962858080863953 0.18371593952178955 0.0940009206533432 0 0 255
0.18477804958820343 0.19191262125968933 0.10439398884773254 0 0 255
0.2104863077402115 0.16472497582435608 0.12751413881778717 0 0 255
0.20905104279518127 0.18808671832084656 0.12180276960134506 0 0 255
0.1998574435710907 0.1953176110982895 0.13613255321979523 0 0 255
0.19486375153064728 0.21244922280311584 0.11635416001081467 0 0 255
0.17796069383621216 0.20432427525520325 0.10715736448764801 0 0 255
0.18528017401695251 0.19586855173110962 0.1009579598903656 0 0 255
0.18725843727588654 0.19733723998069763 0.09314031153917313 0 0 255
0.18251155316829681 0.201166033744812 0.09874030947685242 0 0 255
0.18280525505542755 0.21135155856609344 0.1002907082438469 0 0 255
0.1926252245903015 0.19960364699363708 0.10711716115474701 0 0 255
0.19353364408016205 0.19655483961105347 0.10175582021474838 0 0 255
0.18156446516513824 0.19081346690654755 0.09279177337884903 0 0 255
0.18103767931461334 0.17709992825984955 0.10151518136262894 0 0 255
0.1903594434261322 0.15889286994934082 0.10387278348207474 0 0 255
0.1941036880016327 0.17424942553043365 0.1228790357708931 0 0 255
0.18491177260875702 0.15843577682971954 0.11392033845186234 0 0 255
0.167390838265419 0.1397523134946823 0.09651924669742584 0 0 255
0.17762331664562225 0.12651532888412476 0.12078838795423508 0 0 255
0.17621839046478271 0.13045163452625275 0.1053878590464592 0 0 255
0.17098990082740784 0.14608368277549744 0.08746031671762466 0 0 255
0.17377662658691406 0.1455685794353485 0.09699982404708862 0 0 255
0.17798984050750732 0.14840859174728394 0.10955420136451721 0 0 255
0.1652873456478119 0.15337008237838745 0.10181830078363419 0 0 255
0.16001924872398376 0.1478271484375 0.09897090494632721 0 0 255
0.15610438585281372 0.13869279623031616 0.08374723047018051 0 0 255
0.16198453307151794 0.13792377710342407 0.10250470787286758 0 0 255
0.16822972893714905 0.14913037419319153 0.08914273232221603 0 0 255
0.15724921226501465 0.15273231267929077 0.08151222765445709 0 0 255
0.15421712398529053 0.15174563229084015 0.08109234273433685 0 0 255
0.15077640116214752 0.14031313359737396 0.07622705399990082 0 0 255
0.1476089358329773 0.11620490998029709 0.08648081123828888 0 0 255
0.15559269487857819 0.11970587074756622 0.0875212699174881 0 0 255
0.1586488038301468 0.12604880332946777 0.10096821188926697 0 0 255
0.167608842253685 0.12861555814743042 0.10357123613357544 0 0 255
0.16395054757595062 0.12503524124622345 0.10248415172100067 0 0 255
0.1647549420595169 0.12278636544942856 0.10860762000083923 0 0 255
0.16295835375785828 0.12048904597759247 0.105758436024189 0 0 255
0.17037168145179749 0.12182335555553436 0.11590544879436493 0 0 255
0.17842720448970795 0.12047958374023438 0.11698301881551743 0 0 255
0.17470528185367584 0.13633882999420166 0.10402330756187439 0 0 255
0.1771080195903778 0.13240811228752136 0.11241878569126129 0 0 255
0.18333102762699127 0.15348219871520996 0.10088194906711578 0 0 255
0.16994300484657288 0.12110012024641037 0.09303178638219833 0 0 255
0.16662146151065826 0.11243743449449539 0.0941251665353775 0 0 255
0.16185793280601501 0.11148000508546829 0.09719423204660416 0 0 255
0.16097211837768555 0.1146818995475769 0.09634256362915039 0 0 255
0.1630730777978897 0.11366885900497437 0.08449195325374603 0 0 255
0.1693182736635208 0.12067696452140808 0.09620432555675507 0 0 255
0.1704902946949005 0.1143043115735054 0.11004846543073654 0 0 255
0.16080935299396515 0.1333586573600769 0.10316074639558792 0 0 255
0.16343753039836884 0.11585497111082077 0.10355864465236664 0 0 255
0.17254994809627533 0.1228550523519516 0.10113613307476044 0 0 255
0.16833190619945526 0.12925498187541962 0.09788309037685394 0 0 255
0.16642984747886658 0.13753601908683777 0.09932329505681992 0 0 255
0.17013028264045715 0.14193357527256012 0.0964689627289772 0 0 255
0.16676928102970123 0.12987463176250458 0.10090968757867813 0 0 255
0.17026756703853607 0.13453872501850128 0.11015282571315765 0 0 255
0.17844058573246002 0.13707497715950012 0.12260203808546066 0 0 255
0.1836155205965042 0.13901330530643463 0.12548822164535522 0 0 255
0.17976446449756622 0.15099206566810608 0.11340080201625824 0 0 255
0.17377081513404846 0.16310234367847443 0.10131289064884186 0 0 255
0.1750945895910263 0.1588866114616394 0.10520850867033005 0 0 255
0.17678901553153992 0.15203385055065155 0.1171969622373581 0 0 255
0.17944903671741486 0.14398591220378876 0.11163701117038727 0 0 255
0.17599789798259735 0.14173069596290588 0.11794456094503403 0 0 255
0.16635261476039886 0.14293618500232697 0.09701938927173615 0 0 255
0.16714143753051758 0.1394350677728653 0.09684382379055023 0 0 255
0.1748676747083664 0.14586463570594788 0.09952472150325775 0 0 255
0.1708863377571106 0.15049411356449127 0.09954797476530075 0 0 255
0.17087215185165405 0.1638334095478058 0.09224618226289749 0 0 255
0.1702057421207428 0.18441733717918396 0.10227810591459274 0 0 255
0.17173582315444946 0.17916926741600037 0.09628857672214508 0 0 255
0.16651491820812225 0.176469624042511 0.10418986529111862 0 0 255
0.1690666824579239 0.19957295060157776 0.09896967560052872 0 0 255
0.15815208852291107 0.21181191504001617 0.07814409583806992 0 0 255
0.15433061122894287 0.21249055862426758 0.07740910351276398 0 0 255
0.16004042327404022 0.2271469682455063 0.09067588299512863 0 0 255
0.16079400479793549 0.2376585602760315 0.09656079858541489 0 0 255
0.1537906676530838 0.24462953209877014 0.09252333641052246 0 0 255
0.15744628012180328 0.2503858506679535 0.07492173463106155 0 0 255
0.14680998027324677 0.24013063311576843 0.06964172422885895 0 0 255
0.1412099450826645 0.24107837677001953 0.05549829825758934 0 0 255
0.1420484483242035 0.22257857024669647 0.056016482412815094 0 0 255
0.1458256095647812 0.20962552726268768 0.05697443336248398 0 0 255
0.1433425098657608 0.21059550344944 0.06823673099279404 0 0 255
0.156464621424675 0.2010762244462967 0.07307562977075577 0 0 255
0.1577429622411728 0.1905830353498459 0.0831797793507576 0 0 255
0.15673084557056427 0.2050814926624298 0.08143007010221481 0 0 255
0.15094730257987976 0.22112710773944855 0.08688908070325851 0 0 255
0.16302649676799774 0.23815985023975372 0.09092097729444504 0 0 255
0.15803056955337524 0.2597249746322632 0.0830688551068306 0 0 255
0.14998909831047058 0.27886733412742615 0.04893758147954941 0 0 255
0.13248395919799805 0.25969403982162476 0.017254304140806198 0 0 255
0.127623051404953 0.25008130073547363 -0.0007130657322704792 0 0 255
0.12096256762742996 0.237881600856781 -0.0026060950476676226 0 0 255
0.12196242064237595 0.20923824608325958 0.021985720843076706 0 0 255
0.12357011437416077 0.23198387026786804 0.0417463593184948 0 0 255
0.13416698575019836 0.23264896869659424 0.02422836795449257 0 0 255
0.13393321633338928 0.2618319094181061 0.017532529309391975 0 0 255
0.11041685938835144 0.29538026452064514 -0.004820513539016247 0 0 255
0.09429582953453064 0.31549760699272156 -0.028629984706640244 0 0 255
0.11363616585731506 0.3315790593624115 -0.010541556403040886 0 0 255
0.13030800223350525 0.3187920153141022 0.018433699384331703 0 0 255
0.1430968940258026 0.2942294776439667 0.02959318272769451 0 0 255
0.13004332780838013 0.31677067279815674 0.03907890245318413 0 0 255
0.11693163961172104 0.3387797474861145 0.026012955233454704 0 0 255
0.12141062319278717 0.35953348875045776 0.019300024956464767 0 0 255
0.15013447403907776 0.3404584527015686 0.023941339924931526 0 0 255
0.15472522377967834 0.3244568109512329 0.03182341530919075 0 0 255
0.14423756301403046 0.3301662504673004 0.04262750968337059 0 0 255
0.1279860883951187 0.3450423777103424 0.02770397439599037 0 0 255
0.14395810663700104 0.3526136577129364 0.030665259808301926 0 0 255
0.13536818325519562 0.3410772681236267 0.027988992631435394 0 0 255
0.13966545462608337 0.3676217794418335 0.024881893768906593 0 0 255
0.1380443274974823 0.356667697429657 0.01943289302289486 0 0 255
0.14727263152599335 0.3405424952507019 0.03283824771642685 0 0 255
0.15872161090373993 0.3442690372467041 0.028975842520594597 0 0 255
0.15350495278835297 0.33431580662727356 0.04268389940261841 0 0 255
0.13819143176078796 0.33886289596557617 0.020396381616592407 0 0 255
0.15669211745262146 0.3306419253349304 0.05970851331949234 0 0 255
0.17597876489162445 0.35296300053596497 0.047085952013731 0 0 255
0.1533813178539276 0.3672216236591339 0.03971081227064133 0 0 255
0.15019595623016357 0.386136531829834 0.04601697996258736 0 0 255
0.17986920475959778 0.3467857837677002 0.06788647919893265 0 0 255
0.16487284004688263 0.31668829917907715 0.06308462470769882 0 0 255
0.1471012830734253 0.30492570996284485 0.03787532448768616 0 0 255
0.132189080119133 0.25160887837409973 0.04159768670797348 0 0 255
0.14037396013736725 0.19444112479686737 0.03980127349495888 0 0 255
0.1367844045162201 0.18309886753559113 0.05336206033825874 0 0 255
0.14037968218326569 0.2014344483613968 0.041516538709402084 0 0 255
0.14423921704292297 0.1864500790834427 0.045018769800662994 0 0 255
0.14187878370285034 0.16942602396011353 0.05500449240207672 0 0 255
0.13136489689350128 0.17829541862010956 0.04692832753062248 0 0 255
0.11764358729124069 0.19869334995746613 0.02699958346784115 0 0 255
0.10992606729269028 0.2017626166343689 0.014536659233272076 0 0 255
0.10821431875228882 0.19720953702926636 0.015815094113349915 0 0 255
0.11416557431221008 0.2042381316423416 0.022251896560192108 0 0 255
0.11892863363027573 0.1892327219247818 0.03735467419028282 0 0 255
0.11195223033428192 0.19834448397159576 0.018087008967995644 0 0 255
0.10696138441562653 0.17812979221343994 0.020158186554908752 0 0 255
0.10813815891742706 0.13866585493087769 0.040786903351545334 0 0 255
0.11498064547777176 0.1391833871603012 0.030641237273812294 0 0 255
0.11865566670894623 0.17011401057243347 0.04349804297089577 0 0 255
0.11545302718877792 0.19792354106903076 0.03196512535214424 0 0 255
0.1421169638633728 0.21868818998336792 0.07764323055744171 0 0 255
0.1730031818151474 0.1841588318347931 0.1281888484954834 0 0 255
0.16439314186573029 0.18835313618183136 0.11478094011545181 0 0 255
0.16625116765499115 0.2013760656118393 0.10221632570028305 0 0 255
0.1991080492734909 0.1959976851940155 0.1452464461326599 0 0 255
0.18392831087112427 0.21720895171165466 0.14806729555130005 0 0 255
0.17634986340999603 0.22574050724506378 0.1188870370388031 0 0 255
0.20063911378383636 0.1953059285879135 0.11097151041030884 0 0 255
0.20527754724025726 0.1666978895664215 0.11431047320365906 0 0 255
0.18745087087154388 0.1532408446073532 0.12170979380607605 0 0 255
0.19185207784175873 0.14952966570854187 0.12248684465885162 0 0 255
0.18958298861980438 0.1509920209646225 0.1259055733680725 0 0 255
0.17789393663406372 0.1673021763563156 0.11784423887729645 0 0 255
0.18513119220733643 0.17421603202819824 0.13296911120414734 0 0 255
0.21693888306617737 0.1486353725194931 0.15179014205932617 0 0 255
0.21133799850940704 0.13449539244174957 0.16156435012817383 0 0 255
0.19946615397930145 0.1326134204864502 0.15024372935295105 0 0 255
0.19054090976715088 0.14043204486370087 0.14803355932235718 0 0 255
0.19239018857479095 0.1466711163520813 0.14531970024108887 0 0 255
0.20057661831378937 0.1482734978199005 0.14932963252067566 0 0 255
0.1823069453239441 0.14286896586418152 0.14053350687026978 0 0 255
0.18010693788528442 0.18416708707809448 0.12786440551280975 0 0 255
0.1868121325969696 0.17921161651611328 0.12607914209365845 0 0 255
0.1855546236038208 0.17272302508354187 0.13126704096794128 0 0 255
0.18921370804309845 0.1728401631116867 0.13576234877109528 0 0 255
0.18479886651039124 0.17980517446994781 0.12980952858924866 0 0 255
0.185014545917511 0.1884530633687973 0.13313983380794525 0 0 255
0.19001103937625885 0.19583196938037872 0.1372983157634735 0 0 255
0.19223985075950623 0.1925116926431656 0.13685409724712372 0 0 255
0.19009767472743988 0.18032371997833252 0.13689729571342468 0 0 255
0.18608134984970093 0.17591439187526703 0.13719624280929565 0 0 255
0.1844252645969391 0.18359693884849548 0.1354723870754242 0 0 255
0.17885509133338928 0.19455072283744812 0.1306324005126953 0 0 255
0.1801294982433319 0.19146117568016052 0.13721279799938202 0 0 255
0.18536710739135742 0.18885479867458344 0.1404203623533249 0 0 255
0.18493707478046417 0.17707107961177826 0.1452559232711792 0 0 255
0.18118315935134888 0.177202969789505 0.1432197093963623 0 0 255
0.1779795140028 0.17836977541446686 0.13937926292419434 0 0 255
0.17884500324726105 0.18560169637203217 0.13994210958480835 0 0 255
0.18868388235569 0.18955457210540771 0.1493348777294159 0 0 255
0.192894846200943 0.2025326043367386 0.15456530451774597 0 0 255
0.20021699368953705 0.21198107302188873 0.15679357945919037 0 0 255
0.2061324417591095 0.21919019520282745 0.15748021006584167 0 0 255
0.2016095668077469 0.24054861068725586 0.15984071791172028 0 0 255
0.20407886803150177 0.2624436616897583 0.15622030198574066 0 0 255
0.20572863519191742 0.26101192831993103 0.1673678457736969 0 0 255
0.20532183349132538 0.2588011622428894 0.16586549580097198 0 0 255
0.20583117008209229 0.2418852597475052 0.1694323569536209 0 0 255
0.20607012510299683 0.23952968418598175 0.16630081832408905 0 0 255
0.2047785520553589 0.24325881898403168 0.16384080052375793 0 0 255
0.2010660320520401 0.24803881347179413 0.15892189741134644 0 0 255
0.19794471561908722 0.2562507688999176 0.15512193739414215 0 0 255
0.203514963388443 0.2546941936016083 0.1625518798828125 0 0 255
0.20286811888217926 0.24363192915916443 0.15824590623378754 0 0 255
0.18970277905464172 0.24683280289173126 0.152304008603096 0 0 255
0.19156575202941895 0.24729464948177338 0.1517428159713745 0 0 255
0.19064709544181824 0.23519213497638702 0.151898592710495 0 0 255
0.1881871074438095 0.24086570739746094 0.14342357218265533 0 0 255
0.2020709216594696 0.23645731806755066 0.1441875696182251 0 0 255
0.20261529088020325 0.2357569932937622 0.15439796447753906 0 0 255
0.20284394919872284 0.23646759986877441 0.1497723013162613 0 0 255
0.20250123739242554 0.2340632826089859 0.16674868762493134 0 0 255
0.21260909736156464 0.2314615100622177 0.1710112988948822 0 0 255
0.20932471752166748 0.22550827264785767 0.17171062529087067 0 0 255
0.19782891869544983 0.22761507332324982 0.16807986795902252 0 0 255
0.20458362996578217 0.2323133498430252 0.17711913585662842 0 0 255
0.21567879617214203 0.23497138917446136 0.19174429774284363 0 0 255
0.2174246609210968 0.22945536673069 0.18704335391521454 0 0 255
0.20370830595493317 0.23638159036636353 0.180977463722229 0 0 255
0.20596328377723694 0.23117059469223022 0.17275550961494446 0 0 255
0.20429041981697083 0.22599565982818604 0.1765470802783966 0 0 255
0.207399383187294 0.22144311666488647 0.17925132811069489 0 0 255
0.20838414132595062 0.218827024102211 0.1817341297864914 0 0 255
0.21082250773906708 0.22076837718486786 0.1890973150730133 0 0 255
0.2151278555393219 0.21470370888710022 0.19812428951263428 0 0 255
0.22068670392036438 0.2142040729522705 0.2041167914867401 0 0 255
0.2239905595779419 0.2171378880739212 0.20688459277153015 0 0 255
0.2233726531267166 0.2230251282453537 0.21169951558113098 0 0 255
0.22447164356708527 0.21067965030670166 0.21541593968868256 0 0 255
0.2255266159772873 0.20844602584838867 0.2257034331560135 0 0 255
0.2256741225719452 0.210159569978714 0.22630678117275238 0 0 255
0.23120060563087463 0.2123267948627472 0.23248660564422607 0 0 255
0.22735798358917236 0.21277670562267303 0.23386676609516144 0 0 255
0.21784541010856628 0.20879411697387695 0.2222270369529724 0 0 255
0.20064778625965118 0.20616646111011505 0.21347041428089142 0 0 255
0.21404419839382172 0.20188874006271362 0.226059228181839 0 0 255
0.23428694903850555 0.19858965277671814 0.2355290949344635 0 0 255
0.23327481746673584 0.19201521575450897 0.24335424602031708 0 0 255
0.22765015065670013 0.1878633350133896 0.2464018166065216 0 0 255
0.22032247483730316 0.1874198019504547 0.24946783483028412 0 0 255
0.21466028690338135 0.1937129646539688 0.24167707562446594 0 0 255
0.2129688411951065 0.19620271027088165 0.22815997898578644 0 0 255
0.21008896827697754 0.20896360278129578 0.22845731675624847 0 0 255
0.22020161151885986 0.2025294303894043 0.23487648367881775 0 0 255
0.22155939042568207 0.1991148442029953 0.23432637751102448 0 0 255
0.21793769299983978 0.20445266366004944 0.23705580830574036 0 0 255
0.2143814116716385 0.2078513652086258 0.23187680542469025 0 0 255
0.20966628193855286 0.21475839614868164 0.24817471206188202 0 0 255
0.22481724619865417 0.21552616357803345 0.2528209686279297 0 0 255
0.2188182920217514 0.19702355563640594 0.2514261305332184 0 0 255
0.2072416990995407 0.21404984593391418 0.23691123723983765 0 0 255
0.2031560093164444 0.2346033900976181 0.23462526500225067 0 0 255
0.20133420825004578 0.23689982295036316 0.22648131847381592 0 0 255
0.20427505671977997 0.23740774393081665 0.22530804574489594 0 0 255
0.2079365849494934 0.22962018847465515 0.2411864995956421 0 0 255
0.20597225427627563 0.230227991938591 0.24323108792304993 0 0 255
0.20505736768245697 0.24053190648555756 0.2298639565706253 0 0 255
0.21099981665611267 0.2528868317604065 0.22804750502109528 0 0 255
0.2034274786710739 0.2553219199180603 0.21618099510669708 0 0 255
0.19992996752262115 0.2562611997127533 0.22233816981315613 0 0 255
0.20671135187149048 0.26087507605552673 0.2361297458410263 0 0 255
0.2061496526002884 0.2709573209285736 0.22606433928012848 0 0 255
0.20314912497997284 0.25343555212020874 0.2102089375257492 0 0 255
0.19829343259334564 0.25093403458595276 0.21359094977378845 0 0 255
0.20083414018154144 0.25940054655075073 0.2101053148508072 0 0 255
0.19380271434783936 0.26154884696006775 0.21199163794517517 0 0 255
0.1954999417066574 0.2668342590332031 0.20956319570541382 0 0 255
0.2065260261297226 0.26326143741607666 0.2184234857559204 0 0 255
0.21050243079662323 0.2629091441631317 0.2111692577600479 0 0 255
0.21627165377140045 0.2702130377292633 0.21229800581932068 0 0 255
0.21987609565258026 0.26647910475730896 0.22516049444675446 0 0 255
0.22143574059009552 0.2675621509552002 0.2249712496995926 0 0 255
0.2106994092464447 0.28276336193084717 0.20936442911624908 0 0 255
0.19700518250465393 0.28728169202804565 0.2094852179288864 0 0 255
0.1943005919456482 0.2897847592830658 0.21068069338798523 0 0 255
0.2018139362335205 0.30372732877731323 0.2136540710926056 0 0 255
0.200153186917305 0.30068227648735046 0.20848335325717926 0 0 255
0.1950126439332962 0.2931685447692871 0.20643813908100128 0 0 255
0.1955426186323166 0.2890335023403168 0.2069222331047058 0 0 255
0.188674196600914 0.2877410650253296 0.19837723672389984 0 0 255
0.19122982025146484 0.2861095070838928 0.20995588600635529 0 0 255
0.2077115774154663 0.287545770406723 0.21771343052387238 0 0 255
0.2121533304452896 0.29250553250312805 0.20349235832691193 0 0 255
0.20309032499790192 0.2990497946739197 0.20507076382637024 0 0 255
0.19881179928779602 0.30043745040893555 0.1964038759469986 0 0 255
0.1937575787305832 0.2945656180381775 0.19636781513690948 0 0 255
0.19707638025283813 0.293766587972641 0.20263393223285675 0 0 255
0.20160599052906036 0.285116583108902 0.20648883283138275 0 0 255
0.20310883224010468 0.2727695107460022 0.22545984387397766 0 0 255
0.1932493895292282 0.27315589785575867 0.220716655254364 0 0 255
0.18730860948562622 0.28677934408187866 0.20762419700622559 0 0 255
0.18967069685459137 0.28361642360687256 0.20172283053398132 0 0 255
0.2039564996957779 0.27857473492622375 0.21356545388698578 0 0 255
0.21464723348617554 0.268900603055954 0.21870574355125427 0 0 255
0.20970137417316437 0.2623846232891083 0.22003313899040222 0 0 255
0.2085745483636856 0.25040870904922485 0.21712522208690643 0 0 255
0.202309712767601 0.2512677311897278 0.22814473509788513 0 0 255
0.2029726356267929 0.2749146521091461 0.21775881946086884 0 0 255
0.21068735420703888 0.27680468559265137 0.2154502272605896 0 0 255
0.20836953818798065 0.2542765438556671 0.21564975380897522 0 0 255
0.21033906936645508 0.25103795528411865 0.21787072718143463 0 0 255
0.20291484892368317 0.2536686360836029 0.21577931940555573 0 0 255
0.20280355215072632 0.25625258684158325 0.20770911872386932 0 0 255
0.1988285779953003 0.25911572575569153 0.19925647974014282 0 0 255
0.19825854897499084 0.26908981800079346 0.191765695810318 0 0 255
0.2081698626279831 0.2679966986179352 0.1969144642353058 0 0 255
0.20969052612781525 0.2527903914451599 0.18695087730884552 0 0 255
0.20023669302463531 0.24798622727394104 0.1863071769475937 0 0 255
0.19976811110973358 0.24541012942790985 0.18113863468170166 0 0 255
0.19987672567367554 0.24106793105602264 0.16658735275268555 0 0 255
0.19462580978870392 0.23723818361759186 0.16632434725761414 0 0 255
0.20044691860675812 0.23710717260837555 0.17422719299793243 0 0 255
0.20144830644130707 0.2303691953420639 0.16143473982810974 0 0 255
0.19549231231212616 0.22256113588809967 0.16299645602703094 0 0 255
0.20162934064865112 0.21632494032382965 0.15912818908691406 0 0 255
0.19795022904872894 0.2160210907459259 0.17038790881633759 0 0 255
0.19943022727966309 0.20751069486141205 0.16781072318553925 0 0 255
0.2039286196231842 0.1954626888036728 0.16883893311023712 0 0 255
0.2101195603609085 0.18745367228984833 0.1731998175382614 0 0 255
0.21541506052017212 0.187885120511055 0.18191319704055786 0 0 255
0.22809801995754242 0.1889616996049881 0.18996253609657288 0 0 255
0.23391228914260864 0.19377487897872925 0.20331484079360962 0 0 255
0.22928637266159058 0.194392129778862 0.2008788287639618 0 0 255
0.2209315150976181 0.20099395513534546 0.20306557416915894 0 0 255
0.22638234496116638 0.21610596776008606 0.20140992105007172 0 0 255
0.22071178257465363 0.22125408053398132 0.19652396440505981 0 0 255
0.21605928242206573 0.22852376103401184 0.20632147789001465 0 0 255
0.21142461895942688 0.23547381162643433 0.21120260655879974 0 0 255
0.21909388899803162 0.21991464495658875 0.21253237128257751 0 0 255
0.22088851034641266 0.2073575258255005 0.20902472734451294 0 0 255
0.2085801213979721 0.2011500746011734 0.19298484921455383 0 0 255
0.20190635323524475 0.21598421037197113 0.1902378648519516 0 0 255
0.20527540147304535 0.21619774401187897 0.17906776070594788 0 0 255
0.20632588863372803 0.20328783988952637 0.17633680999279022 0 0 255
0.20672711730003357 0.20276470482349396 0.1791917085647583 0 0 255
0.20533457398414612 0.2029346227645874 0.1716616302728653 0 0 255
0.2025069147348404 0.22198237478733063 0.17329616844654083 0 0 255
0.2158823162317276 0.20156070590019226 0.1868218630552292 0 0 255
0.22788655757904053 0.18869136273860931 0.18543246388435364 0 0 255
0.21688441932201385 0.1667504608631134 0.17896641790866852 0 0 255
0.20951667428016663 0.163887158036232 0.18406541645526886 0 0 255
0.20388033986091614 0.16015927493572235 0.1694726198911667 0 0 255
0.193985253572464 0.14435634016990662 0.15999162197113037 0 0 255
0.18778333067893982 0.14421509206295013 0.15858235955238342 0 0 255
0.19024492800235748 0.14189893007278442 0.16981051862239838 0 0 255
0.19220076501369476 0.15190109610557556 0.16738298535346985 0 0 255
0.1998412162065506 0.16358217597007751 0.16393311321735382 0 0 255
0.20638439059257507 0.1738351583480835 0.1639913022518158 0 0 255
0.21336428821086884 0.16607429087162018 0.16908524930477142 0 0 255
0.2123691290616989 0.15856404602527618 0.18018865585327148 0 0 255
0.20849156379699707 0.16208994388580322 0.18134160339832306 0 0 255
0.20969204604625702 0.18906071782112122 0.19591212272644043 0 0 255
0.22727906703948975 0.20448611676692963 0.19118750095367432 0 0 255
0.22467732429504395 0.21543726325035095 0.19088150560855865 0 0 255
0.2189997285604477 0.23201152682304382 0.18339794874191284 0 0 255
0.21731309592723846 0.22919778525829315 0.17629215121269226 0 0 255
0.21288526058197021 0.2234332263469696 0.16513268649578094 0 0 255
0.2192007154226303 0.2067355513572693 0.18551693856716156 0 0 255
0.2332279533147812 0.19013676047325134 0.17959089577198029 0 0 255
0.24699707329273224 0.17928263545036316 0.1885085552930832 0 0 255
0.23620028793811798 0.14230744540691376 0.22817069292068481 0 0 255
0.23752348124980927 0.13789662718772888 0.19770874083042145 0 0 255
0.21483616530895233 0.1353878676891327 0.18116770684719086 0 0 255
0.21569156646728516 0.08976644277572632 0.15532664954662323 0 0 255
0.18426646292209625 0.05822603777050972 0.14366833865642548 0 0 255
0.1786011904478073 0.07009139657020569 0.14652639627456665 0 0 255
0.19588498771190643 0.07990515232086182 0.15692588686943054 0 0 255
0.19959554076194763 0.07926595211029053 0.14130185544490814 0 0 255
0.1950909048318863 0.08096462488174438 0.15623444318771362 0 0 255
0.21077874302864075 0.06825771927833557 0.14174850285053253 0 0 255
0.18946313858032227 0.01639767549932003 0.12405895441770554 0 0 255
0.18149611353874207 -0.019259296357631683 0.1264197826385498 0 0 255
0.173971489071846 -0.04122711718082428 0.12014700472354889 0 0 255
0.15970288217067719 -0.06994973868131638 0.11612829566001892 0 0 255
0.15416541695594788 -0.0917639285326004 0.1253371685743332 0 0 255
0.14990969002246857 -0.11423961818218231 0.1108061745762825 0 0 255
0.13333944976329803 -0.11557704955339432 0.11617260426282883 0 0 255
0.13799500465393066 -0.09149845689535141 0.13550081849098206 0 0 255
0.14472198486328125 -0.03888695687055588 0.1461024135351181 0 0 255
0.15446892380714417 0.02428760938346386 0.13657616078853607 0 0 255
0.16012926399707794 0.054017212241888046 0.12670303881168365 0 0 255
0.15729573369026184 0.07556580007076263 0.11700055748224258 0 0 255
0.15598395466804504 0.0932445079088211 0.11005977541208267 0 0 255
0.15624265372753143 0.0955670103430748 0.10695269703865051 0 0 255
0.15655188262462616 0.083975650370121 0.11303479224443436 0 0 255
0.15647336840629578 0.0845530778169632 0.12047520279884338 0 0 255
0.154464453458786 0.09902454912662506 0.12397857755422592 0 0 255
0.1468351185321808 0.11166685074567795 0.11913029849529266 0 0 255
0.15098446607589722 0.11414925754070282 0.12909726798534393 0 0 255
0.15478789806365967 0.1300182044506073 0.128469318151474 0 0 255
0.15867841243743896 0.14195439219474792 0.12506355345249176 0 0 255
0.162666916847229 0.14793820679187775 0.1205480769276619 0 0 255
0.15802404284477234 0.1396045833826065 0.12212380766868591 0 0 255
0.16213974356651306 0.13238687813282013 0.1268794685602188 0 0 255
0.15870095789432526 0.12519925832748413 0.1233522891998291 0 0 255
0.15203988552093506 0.13116860389709473 0.12204859405755997 0 0 255
0.15885955095291138 0.1531899869441986 0.1404096931219101 0 0 255
0.17955590784549713 0.16858451068401337 0.15807737410068512 0 0 255
0.1956142783164978 0.1703357845544815 0.17421436309814453 0 0 255
0.1925857961177826 0.16660110652446747 0.15983286499977112 0 0 255
0.1880185306072235 0.1778024435043335 0.18386510014533997 0 0 255
0.19932936131954193 0.1713985800743103 0.19561679661273956 0 0 255
0.18349887430667877 0.17142987251281738 0.16879449784755707 0 0 255
0.1729951649904251 0.1872522234916687 0.15428662300109863 0 0 255
0.17721962928771973 0.19783790409564972 0.1524927020072937 0 0 255
0.18153531849384308 0.20018291473388672 0.17656247317790985 0 0 255
0.18358854949474335 0.22627931833267212 0.17756377160549164 0 0 255
0.1617451310157776 0.2425764799118042 0.14448747038841248 0 0 255
0.150162473320961 0.24840113520622253 0.14083649218082428 0 0 255
0.16664209961891174 0.24693384766578674 0.15485571324825287 0 0 255
0.16989877820014954 0.2434236705303192 0.14533674716949463 0 0 255
0.16959090530872345 0.24689534306526184 0.13930538296699524 0 0 255
0.17980359494686127 0.22607262432575226 0.14675360918045044 0 0 255
0.18717357516288757 0.20145317912101746 0.14278283715248108 0 0 255
0.18880093097686768 0.15270620584487915 0.13528645038604736 0 0 255
0.18468303978443146 0.10261209309101105 0.14199496805667877 0 0 255
0.18614982068538666 0.0237591490149498 0.13228461146354675 0 0 255
0.14741963148117065 -0.04040290787816048 0.1429852545261383 0 0 255
0.14050106704235077 -0.02956457808613777 0.136769637465477 0 0 255
0.1344783902168274 -0.006855316925793886 0.12448811531066895 0 0 255
0.15817198157310486 -0.013001929968595505 0.12245805561542511 0 0 255
0.1599629521369934 0.002811974147334695 0.11540258675813675 0 0 255
0.15765786170959473 -0.031413670629262924 0.10617367178201675 0 0 255
0.14680592715740204 -0.07573754340410233 0.1290515661239624 0 0 255
0.13529027998447418 -0.0745423436164856 0.10180583596229553 0 0 255
0.12990392744541168 -0.06748224794864655 0.09910719841718674 0 0 255
0.14886753261089325 -0.06457097828388214 0.11338081955909729 0 0 255
0.1403326541185379 -0.07478011399507523 0.0929710790514946 0 0 255
0.13093845546245575 -0.08424299955368042 0.09012280404567719 0 0 255
0.11028407514095306 -0.09776290506124496 0.09003385156393051 0 0 255
0.09464728832244873 -0.01533127948641777 0.08684130758047104 0 0 255
0.10500384867191315 0.04087322950363159 0.06672558933496475 0 0 255
0.14524072408676147 0.033242907375097275 0.11613340675830841 0 0 255
0.16473224759101868 -0.009357020258903503 0.10420399904251099 0 0 255
0.14052104949951172 -0.03671101853251457 0.10531967133283615 0 0 255
0.14744344353675842 -0.07501840591430664 0.11989623308181763 0 0 255
0.15548169612884521 -0.10110197216272354 0.1330052614212036 0 0 255
0.16121116280555725 -0.12443054467439651 0.1288261115550995 0 0 255
0.15039125084877014 -0.12008282542228699 0.1368894875049591 0 0 255
0.14564186334609985 -0.11088614910840988 0.13501694798469543 0 0 255
0.15598076581954956 -0.10191888362169266 0.15549984574317932 0 0 255
0.16441141068935394 -0.10772951692342758 0.15209263563156128 0 0 255
0.1738433539867401 -0.12673045694828033 0.15828819572925568 0 0 255
0.19450822472572327 -0.15010380744934082 0.17856432497501373 0 0 255
0.19425779581069946 -0.158941388130188 0.1622290015220642 0 0 255
0.17955215275287628 -0.14998535811901093 0.17373892664909363 0 0 255
0.1702125370502472 -0.1156947910785675 0.1520756483078003 0 0 255
0.16059568524360657 -0.10692919790744781 0.161203533411026 0 0 255
0.15042644739151 -0.11550651490688324 0.15664364397525787 0 0 255
0.1409578025341034 -0.10229256749153137 0.11819339543581009 0 0 255
0.11329418420791626 -0.08961835503578186 0.0734720379114151 0 0 255
0.11843863129615784 -0.0668736919760704 0.07725583016872406 0 0 255
0.13640344142913818 -0.04615679383277893 0.09830544888973236 0 0 255
0.14571383595466614 -0.01553912553936243 0.08944399654865265 0 0 255
0.1468285769224167 0.011486774310469627 0.09682057052850723 0 0 255
0.1630742847919464 0.008964643813669682 0.12625834345817566 0 0 255
0.17799364030361176 0.015649588778614998 0.14535477757453918 0 0 255
0.17284592986106873 0.03114367462694645 0.13028211891651154 0 0 255
0.16013173758983612 0.04462972655892372 0.11208665370941162 0 0 255
0.13205815851688385 0.060673706233501434 0.0917237177491188 0 0 255
0.13729454576969147 0.07559801638126373 0.1115553081035614 0 0 255
0.15333983302116394 0.09362536668777466 0.12553279101848602 0 0 255
0.15458394587039948 0.11114389449357986 0.11722490191459656 0 0 255
0.16950781643390656 0.13551554083824158 0.1172184869647026 0 0 255
0.166730135679245 0.11704278737306595 0.12015984952449799 0 0 255
0.1687307208776474 0.10071743279695511 0.1174880787730217 0 0 255
0.159865140914917 0.0930689126253128 0.12080221623182297 0 0 255
0.15624366700649261 0.09577230364084244 0.11465348303318024 0 0 255
0.1556369960308075 0.11293056607246399 0.11212960630655289 0 0 255
0.16184371709823608 0.12064088135957718 0.10779554396867752 0 0 255
0.16795465350151062 0.11237666010856628 0.10674388706684113 0 0 255
0.16407136619091034 0.0960223525762558 0.11128568649291992 0 0 255
0.16587091982364655 0.08984634280204773 0.12435421347618103 0 0 255
0.15810172259807587 0.09159120917320251 0.11462324857711792 0 0 255
0.1549091786146164 0.10755515098571777 0.11321572959423065 0 0 255
0.15846416354179382 0.12772561609745026 0.1242903620004654 0 0 255
0.17750702798366547 0.14491024613380432 0.14050014317035675 0 0 255
