ply
format ascii 1.0
element vertex 706
property float x
property float y
property float z
property uchar red
property uchar green
property uchar blue
end_header
0.30105745792388916 0.9442098736763 -0.13353689014911652 0 0 255
0.05616651475429535 0.9833405613899231 -0.17287760972976685 0 0 255
-0.08858831226825714 0.9591883420944214 -0.26853278279304504 0 0 255
0.741090714931488 0.6133679747581482 0.2730644941329956 0 0 255
0.7421910166740417 0.5477185249328613 0.3862084150314331 0 0 255
0.41485559940338135 0.7980419993400574 0.43706268072128296 0 0 255
0.3311566710472107 0.8243820071220398 0.4590529501438141 0 0 255
0.026892591267824173 0.9971985220909119 -0.06979856640100479 0 0 255
-0.24496038258075714 0.6713404059410095 -0.6994972825050354 0 0 255
-0.38070061802864075 0.6402304172515869 -0.6672121286392212 0 0 255
-0.5892775654792786 0.5095945000648499 -0.6269492506980896 0 0 255
-0.6608309745788574 0.020854763686656952 -0.7502449154853821 0 0 255
-0.6603367328643799 0.14405380189418793 -0.7370237112045288 0 0 255
-0.30180680751800537 0.17507968842983246 -0.9371551275253296 0 0 255
-0.28160470724105835 0.22648659348487854 -0.9324175715446472 0 0 255
-0.264500230550766 0.1287413388490677 -0.9557538032531738 0 0 255
-0.4576815366744995 -0.235404834151268 -0.8573868870735168 0 0 255
-0.3827705681324005 -0.30930668115615845 -0.8705263137817383 0 0 255
0.002643375191837549 -0.29179325699806213 -0.9564777612686157 0 0 255
0.6639647483825684 -0.21966232359409332 -0.7147722244262695 0 0 255
0.9157388210296631 0.40124815702438354 0.020548636093735695 0 0 255
0.8410595655441284 0.49295586347579956 0.2227405160665512 0 0 255
0.7371364831924438 0.5638013482093811 0.37250223755836487 0 0 255
0.6850414872169495 0.622859001159668 0.37784233689308167 0 0 255
0.672015368938446 0.6381602883338928 0.37569499015808105 0 0 255
0.763665497303009 0.5220338702201843 0.3798627257347107 0 0 255
0.8066503405570984 0.4677925705909729 0.36122751235961914 0 0 255
0.8051273822784424 0.49450013041496277 0.3274743854999542 0 0 255
0.8102961778640747 0.5171995162963867 0.2755444049835205 0 0 255
0.7921172380447388 0.5169932246208191 0.32445091009140015 0 0 255
0.8155577182769775 0.49353542923927307 0.302139550447464 0 0 255
0.8628734350204468 0.3571489751338959 0.357622891664505 0 0 255
0.8923693299293518 0.20106133818626404 0.40404364466667175 0 0 255
0.9000383019447327 0.0062812198884785175 0.4357655644416809 0 0 255
0.9130306243896484 -0.06909020245075226 0.4019969701766968 0 0 255
0.9163572192192078 -0.15222084522247314 0.3702947497367859 0 0 255
0.906603217124939 -0.2649356722831726 0.32845041155815125 0 0 255
0.9144595265388489 -0.3358827531337738 0.22571349143981934 0 0 255
0.9026299118995667 -0.3629865050315857 0.23130053281784058 0 0 255
0.8928186893463135 -0.3823646306991577 0.23805898427963257 0 0 255
0.8874770402908325 -0.37978747487068176 0.26104772090911865 0 0 255
0.8865562677383423 -0.3904550075531006 0.24811875820159912 0 0 255
0.9178826808929443 -0.2561517059803009 0.30311349034309387 0 0 255
0.9319810271263123 -0.21177609264850616 0.29421451687812805 0 0 255
0.9440495371818542 -0.05209069699048996 0.32566404342651367 0 0 255
0.9367193579673767 -0.06411357969045639 0.34416016936302185 0 0 255
0.9393861889839172 -0.003334739012643695 0.34284472465515137 0 0 255
0.948083758354187 0.05974338576197624 0.3123587965965271 0 0 255
0.9220665097236633 0.18049219250679016 0.34236812591552734 0 0 255
0.9067119359970093 0.1917736530303955 0.3756277859210968 0 0 255
0.89970463514328 0.2425730973482132 0.36289089918136597 0 0 255
0.895248293876648 0.29862338304519653 0.33068782091140747 0 0 255
0.8393291234970093 0.31719762086868286 0.44148874282836914 0 0 255
0.8433142900466919 0.38611331582069397 0.37381479144096375 0 0 255
0.8193554878234863 0.5022175312042236 0.2764671742916107 0 0 255
0.7249895334243774 0.641436755657196 0.25089651346206665 0 0 255
0.6181798577308655 0.7669017910957336 0.17238105833530426 0 0 255
0.36184799671173096 0.9310359358787537 0.04730831831693649 0 0 255
0.049679215997457504 0.9916625022888184 -0.11890099197626114 0 0 255
-0.2064848691225052 0.9522135257720947 -0.22506313025951385 0 0 255
-0.25372982025146484 0.9406076669692993 -0.22556252777576447 0 0 255
-0.011356201954185963 0.9939059019088745 0.1096448004245758 0 0 255
0.1637742519378662 0.9677718281745911 0.1913001835346222 0 0 255
0.17271021008491516 0.9225952625274658 0.3449481427669525 0 0 255
0.08650199323892593 0.9272869229316711 0.3642202317714691 0 0 255
0.07835257053375244 0.8950527310371399 0.43902337551116943 0 0 255
0.4081031084060669 0.5793086290359497 0.7055872678756714 0 0 255
0.7259578108787537 -0.040617018938064575 0.686538815498352 0 0 255
0.5622690916061401 -0.31997552514076233 0.7625412940979004 0 0 255
0.5539186596870422 -0.2965736389160156 0.7779576778411865 0 0 255
0.2738347053527832 -0.5602080821990967 0.7817809581756592 0 0 255
0.3195418119430542 -0.3066679537296295 0.8965756297111511 0 0 255
0.7084530591964722 0.21829554438591003 0.6711493134498596 0 0 255
-0.21113695204257965 0.9447247385978699 -0.2508311867713928 0 0 255
-0.005670361686497927 0.3992117941379547 -0.9168411493301392 0 0 255
-0.46700426936149597 -0.10459822416305542 -0.8780468702316284 0 0 255
-0.5334746241569519 0.16836613416671753 -0.8288894891738892 0 0 255
-0.7077507376670837 0.008287972770631313 -0.7064136266708374 0 0 255
-0.3214583992958069 0.4604116380214691 -0.8274573683738708 0 0 255
-0.30458900332450867 0.5904134511947632 -0.7474205493927002 0 0 255
0.1747407615184784 0.5883912444114685 -0.7894690036773682 0 0 255
0.4652893543243408 0.2611349821090698 -0.8457626104354858 0 0 255
0.09529052674770355 -0.11286583542823792 -0.9890303015708923 0 0 255
-0.19949086010456085 -0.44342130422592163 -0.8738312125205994 0 0 255
-0.36973005533218384 -0.5672945380210876 -0.7358509302139282 0 0 255
-0.385170042514801 -0.5843060612678528 -0.7143041491508484 0 0 255
-0.2981066405773163 -0.7333841919898987 -0.6109665632247925 0 0 255
-0.2825675308704376 -0.7844570279121399 -0.5520712733268738 0 0 255
-0.3431171476840973 -0.7075978517532349 -0.6177182793617249 0 0 255
-0.31220394372940063 -0.717089831829071 -0.6231459975242615 0 0 255
-0.2627074122428894 -0.7597972750663757 -0.5947207808494568 0 0 255
-0.2771669626235962 -0.7212933897972107 -0.6347553730010986 0 0 255
-0.4097290635108948 -0.7078271508216858 -0.5754153728485107 0 0 255
-0.4413519501686096 -0.579006552696228 -0.6855362057685852 0 0 255
-0.25512975454330444 -0.7555428147315979 -0.6033770442008972 0 0 255
-0.09583593159914017 -0.8516339659690857 -0.515300989151001 0 0 255
0.0439082570374012 -0.9045522212982178 -0.42409583926200867 0 0 255
-0.12427384406328201 -0.9210324883460999 -0.3691276013851166 0 0 255
-0.12846924364566803 -0.8737094402313232 -0.4691775143146515 0 0 255
-0.19227562844753265 -0.9045678973197937 -0.38050878047943115 0 0 255
-0.06291423738002777 -0.9468880891799927 -0.31534868478775024 0 0 255
-0.11736742407083511 -0.9345079064369202 -0.33603566884994507 0 0 255
-0.12443841248750687 -0.9181972742080688 -0.37607043981552124 0 0 255
-0.14163736999034882 -0.8989689350128174 -0.41447997093200684 0 0 255
-0.11033075302839279 -0.9183050990104675 -0.38018813729286194 0 0 255
0.006335712969303131 -0.9999526143074036 0.007385920733213425 0 0 255
0.2356925904750824 -0.9462737441062927 0.2213934063911438 0 0 255
0.2335420399904251 -0.9520192742347717 0.1977812498807907 0 0 255
-0.013883477076888084 -0.9975408911705017 0.06869819760322571 0 0 255
-0.09711194783449173 -0.9946575164794922 0.035008884966373444 0 0 255
-0.13025549054145813 -0.9369242787361145 -0.32435542345046997 0 0 255
-0.1607295423746109 -0.9230780005455017 -0.34941819310188293 0 0 255
-0.3919278681278229 -0.8410419225692749 -0.3728821575641632 0 0 255
-0.2821206748485565 -0.8648295402526855 -0.41530439257621765 0 0 255
-0.4236781597137451 -0.6729707717895508 -0.6063061356544495 0 0 255
-0.5221094489097595 -0.4375690221786499 -0.7320758104324341 0 0 255
-0.654186487197876 -0.35254499316215515 -0.6691427230834961 0 0 255
-0.7318962812423706 -0.40467599034309387 -0.548238217830658 0 0 255
-0.7348631620407104 -0.34248974919319153 -0.5853860974311829 0 0 255
-0.7798025608062744 -0.23594990372657776 -0.5798583030700684 0 0 255
-0.7447506785392761 -0.21824155747890472 -0.6306481957435608 0 0 255
-0.73907071352005 -0.26389268040657043 -0.6197863817214966 0 0 255
-0.6598917245864868 -0.36990028619766235 -0.654000461101532 0 0 255
-0.6369942426681519 -0.38146719336509705 -0.6698665022850037 0 0 255
-0.5464513301849365 -0.4754185378551483 -0.6894693970680237 0 0 255
-0.41825783252716064 -0.6274755001068115 -0.6567609310150146 0 0 255
-0.28573185205459595 -0.7459311485290527 -0.6016178131103516 0 0 255
-0.2963908612728119 -0.8196157813072205 -0.4902881979942322 0 0 255
-0.40145814418792725 -0.7292796969413757 -0.5540599822998047 0 0 255
-0.45671287178993225 -0.6312763094902039 -0.6268201470375061 0 0 255
-0.21400251984596252 -0.7783373594284058 -0.5902490615844727 0 0 255
-0.09661129862070084 -0.676443874835968 -0.7301300764083862 0 0 255
0.021680358797311783 -0.49841442704200745 -0.8666678071022034 0 0 255
0.06569646298885345 -0.3473263680934906 -0.935440182685852 0 0 255
-0.03183349221944809 -0.28454771637916565 -0.9581331610679626 0 0 255
0.029875105246901512 -0.2247004508972168 -0.9739698171615601 0 0 255
-0.1904580295085907 -0.20226429402828217 -0.9606325626373291 0 0 255
-0.13565729558467865 -0.4610213339328766 -0.8769586682319641 0 0 255
-0.08642172813415527 -0.35121819376945496 -0.9322966933250427 0 0 255
-0.371164470911026 -0.2579376995563507 -0.8920230269432068 0 0 255
-0.44722530245780945 -0.1692570447921753 -0.8782605528831482 0 0 255
-0.3736811578273773 -0.18946270644664764 -0.9080012440681458 0 0 255
-0.4973682165145874 -0.2901145815849304 -0.817592978477478 0 0 255
-0.5755458474159241 -0.31992626190185547 -0.752591609954834 0 0 255
-0.5670919418334961 -0.3487183153629303 -0.7461917996406555 0 0 255
-0.4808109700679779 -0.4504244327545166 -0.7522889971733093 0 0 255
-0.5289952754974365 -0.41394954919815063 -0.7408169507980347 0 0 255
-0.5179452300071716 -0.3791956305503845 -0.7667747139930725 0 0 255
-0.7613234519958496 -0.3267997205257416 -0.5599897503852844 0 0 255
-0.8120318055152893 -0.2936069965362549 -0.5043802261352539 0 0 255
-0.8087841868400574 -0.2218882441520691 -0.5446409583091736 0 0 255
-0.7421637773513794 -0.31483176350593567 -0.5916704535484314 0 0 255
-0.5816887021064758 -0.5685285925865173 -0.5817331671714783 0 0 255
-0.4722907543182373 -0.31178516149520874 -0.8244582414627075 0 0 255
-0.5482426285743713 -0.49522677063941956 -0.6739291548728943 0 0 255
-0.32151320576667786 -0.6576791405677795 -0.6812395453453064 0 0 255
-0.549152672290802 -0.5969242453575134 -0.5849040150642395 0 0 255
-0.5300329327583313 -0.5281157493591309 -0.6634446978569031 0 0 255
-0.4952133297920227 -0.6361945867538452 -0.5916251540184021 0 0 255
-0.4099180996417999 -0.7243102788925171 -0.554384171962738 0 0 255
-0.36371609568595886 -0.710034966468811 -0.6029601097106934 0 0 255
-0.34400489926338196 -0.7118120193481445 -0.6123595833778381 0 0 255
-0.28879088163375854 -0.8129444718360901 -0.5056887865066528 0 0 255
-0.2816280126571655 -0.8199433088302612 -0.49837595224380493 0 0 255
-0.262177437543869 -0.8951666355133057 -0.3604713976383209 0 0 255
-0.1654384285211563 -0.9425670504570007 -0.29016807675361633 0 0 255
-0.15081505477428436 -0.9505772590637207 -0.27139967679977417 0 0 255
-0.21466492116451263 -0.9424782991409302 -0.25622954964637756 0 0 255
-0.21608605980873108 -0.9558694362640381 -0.19904892146587372 0 0 255
-0.1871352344751358 -0.9564645886421204 -0.2239551544189453 0 0 255
-0.14403313398361206 -0.9734774231910706 -0.1777532547712326 0 0 255
-0.15069381892681122 -0.966478705406189 -0.2078709900379181 0 0 255
-0.18743383884429932 -0.963129460811615 -0.19300323724746704 0 0 255
-0.15870916843414307 -0.9714048504829407 -0.1765899360179901 0 0 255
-0.21191543340682983 -0.9589951634407043 -0.18820221722126007 0 0 255
-0.24535462260246277 -0.937885046005249 -0.24530133605003357 0 0 255
-0.348520427942276 -0.9151265621185303 -0.20267438888549805 0 0 255
-0.3555348217487335 -0.9047003984451294 -0.2347598373889923 0 0 255
-0.42906633019447327 -0.8622321486473083 -0.269180029630661 0 0 255
-0.4621717631816864 -0.8487982153892517 -0.25678542256355286 0 0 255
-0.32958218455314636 -0.9083589315414429 -0.2574094235897064 0 0 255
-0.30209583044052124 -0.9191382527351379 -0.25283005833625793 0 0 255
-0.3496701717376709 -0.8406441807746887 -0.413579523563385 0 0 255
-0.43031173944473267 -0.7985583543777466 -0.42087557911872864 0 0 255
-0.33285096287727356 -0.8856022357940674 -0.3239119052886963 0 0 255
-0.2968999147415161 -0.9272750616073608 -0.22806024551391602 0 0 255
-0.14359119534492493 -0.9282562136650085 -0.34310632944107056 0 0 255
-0.2925182282924652 -0.817940890789032 -0.49538445472717285 0 0 255
-0.24366003274917603 -0.8632590770721436 -0.4420560300350189 0 0 255
-0.3091071546077728 -0.8500815033912659 -0.42639681696891785 0 0 255
-0.3868585526943207 -0.7012396454811096 -0.5988349318504333 0 0 255
-0.569251298904419 -0.5267979502677917 -0.6312184929847717 0 0 255
-0.6102762222290039 -0.3430643677711487 -0.7140516042709351 0 0 255
-0.6244167685508728 -0.4162853956222534 -0.6609161496162415 0 0 255
-0.44857433438301086 -0.5054078102111816 -0.7371187210083008 0 0 255
-0.4067692756652832 -0.560546338558197 -0.7213366627693176 0 0 255
-0.117286317050457 -0.6287369132041931 -0.7687221765518188 0 0 255
0.025414593517780304 -0.659111499786377 -0.7516157031059265 0 0 255
0.19253110885620117 -0.5169503688812256 -0.8340827822685242 0 0 255
-0.0187475997954607 -0.6891502737998962 -0.7243759036064148 0 0 255
0.022316452115774155 -0.7023154497146606 -0.7115159630775452 0 0 255
-0.2557932734489441 -0.6837729215621948 -0.6833918690681458 0 0 255
-0.46198177337646484 -0.514793872833252 -0.7221912145614624 0 0 255
-0.5551043748855591 -0.5308715105056763 -0.6403394341468811 0 0 255
-0.6601741909980774 -0.4677513539791107 -0.587689220905304 0 0 255
-0.8048800230026245 -0.322569876909256 -0.49811315536499023 0 0 255
-0.8395995497703552 -0.3072703778743744 -0.4479481279850006 0 0 255
-0.844386100769043 -0.31010645627975464 -0.4368593990802765 0 0 255
-0.8828888535499573 -0.3638993203639984 -0.296790212392807 0 0 255
-0.857051432132721 -0.45535480976104736 -0.24107030034065247 0 0 255
-0.7293158173561096 -0.6760561466217041 -0.10510192811489105 0 0 255
-0.7071175575256348 -0.6998116374015808 0.10123425722122192 0 0 255
-0.5975295901298523 -0.7915281653404236 0.1282241940498352 0 0 255
-0.5250240564346313 -0.8456690311431885 0.09588345885276794 0 0 255
-0.47809022665023804 -0.8781638145446777 -0.01606127619743347 0 0 255
-0.7414793968200684 -0.6609521508216858 -0.11554443836212158 0 0 255
-0.7342204451560974 -0.6622585654258728 -0.14944563806056976 0 0 255
-0.7553126215934753 -0.6128873825073242 -0.23210330307483673 0 0 255
-0.7376046776771545 -0.6685540080070496 -0.09473618119955063 0 0 255
-0.7793254852294922 -0.5905522704124451 -0.20952272415161133 0 0 255
-0.856925368309021 -0.3998895287513733 -0.32521873712539673 0 0 255
-0.8911958932876587 -0.3355714678764343 -0.3052239716053009 0 0 255
-0.7631170153617859 -0.2970946431159973 -0.5739227533340454 0 0 255
-0.8172438740730286 -0.236684188246727 -0.5254455208778381 0 0 255
-0.7617247700691223 -0.19862471520900726 -0.6167038679122925 0 0 255
-0.6919740438461304 -0.17762050032615662 -0.699730634689331 0 0 255
-0.6428511738777161 -0.3997637629508972 -0.6533998847007751 0 0 255
-0.5599324107170105 -0.5793619155883789 -0.592296838760376 0 0 255
-0.5519094467163086 -0.6715260148048401 -0.49441763758659363 0 0 255
-0.33588963747024536 -0.865986704826355 -0.37046632170677185 0 0 255
-0.2943132817745209 -0.9448699355125427 -0.143528550863266 0 0 255
-0.42085060477256775 -0.8983832001686096 -0.12566794455051422 0 0 255
-0.5854458212852478 -0.7932616472244263 -0.1672993153333664 0 0 255
-0.6661232113838196 -0.7420745491981506 -0.07486750930547714 0 0 255
-0.7193331718444824 -0.6828702092170715 -0.12746775150299072 0 0 255
-0.7536039352416992 -0.6370258927345276 -0.16210830211639404 0 0 255
-0.7488716840744019 -0.6133660078048706 -0.2509448528289795 0 0 255
-0.7421050667762756 -0.5778390169143677 -0.3396793603897095 0 0 255
-0.6993622183799744 -0.576198399066925 -0.422951340675354 0 0 255
-0.7277761101722717 -0.45324188470840454 -0.5146977305412292 0 0 255
-0.7262454032897949 -0.3582609295845032 -0.5866998434066772 0 0 255
-0.7558987736701965 -0.24856480956077576 -0.6056670546531677 0 0 255
-0.7557554841041565 -0.27821797132492065 -0.5928139090538025 0 0 255
-0.7024718523025513 -0.22261102497577667 -0.6760011315345764 0 0 255
-0.7717819809913635 -0.22444579005241394 -0.5949593186378479 0 0 255
-0.7055947780609131 -0.23463158309459686 -0.6686434745788574 0 0 255
-0.5248070955276489 -0.6145988702774048 -0.5889362096786499 0 0 255
-0.6166840195655823 -0.6666578054428101 -0.4186505079269409 0 0 255
-0.613261878490448 -0.7457830905914307 -0.26022568345069885 0 0 255
-0.7816725969314575 -0.6111831665039062 -0.1242699921131134 0 0 255
-0.8066650629043579 -0.5773829817771912 -0.12617596983909607 0 0 255
-0.7525396943092346 -0.6256312727928162 -0.20559564232826233 0 0 255
-0.7180933952331543 -0.6531246304512024 -0.2403540164232254 0 0 255
-0.6190979480743408 -0.785233736038208 0.01121178176254034 0 0 255
-0.780064046382904 -0.624984622001648 -0.029905473813414574 0 0 255
-0.8477270603179932 -0.5189866423606873 -0.10959799587726593 0 0 255
-0.8451035022735596 -0.475308895111084 -0.2447068840265274 0 0 255
-0.8440419435501099 -0.4022718071937561 -0.3546414375305176 0 0 255
-0.8309925198554993 -0.3735085427761078 -0.41224128007888794 0 0 255
-0.7486357688903809 -0.4573236405849457 -0.4799995422363281 0 0 255
-0.6460877656936646 -0.5210784077644348 -0.5577166676521301 0 0 255
-0.6781468987464905 -0.5623783469200134 -0.4731251001358032 0 0 255
-0.7398830056190491 -0.2853812277317047 -0.6092049479484558 0 0 255
-0.7985047698020935 -0.4239528179168701 -0.4273805320262909 0 0 255
-0.7193413376808167 -0.5344390273094177 -0.44376009702682495 0 0 255
-0.8652987480163574 -0.42941078543663025 -0.25858134031295776 0 0 255
-0.8953747749328613 -0.3976430892944336 -0.20045948028564453 0 0 255
-0.952660322189331 -0.2837590277194977 -0.10917437076568604 0 0 255
-0.9539809823036194 -0.2547109127044678 -0.1582489162683487 0 0 255
-0.9065483808517456 -0.41658133268356323 0.0680442750453949 0 0 255
-0.9410561323165894 -0.11943697184324265 0.31646209955215454 0 0 255
-0.7265151143074036 -0.6099123954772949 0.3165165185928345 0 0 255
-0.8882741332054138 -0.4074467122554779 -0.21202906966209412 0 0 255
-0.9728299975395203 -0.15443576872348785 -0.17248572409152985 0 0 255
-0.990313708782196 0.005421504378318787 -0.1387420892715454 0 0 255
-0.9957461953163147 -0.049379777163267136 -0.07778973877429962 0 0 255
-0.9944101572036743 -0.10072799026966095 -0.03165992349386215 0 0 255
-0.9137526154518127 -0.32821571826934814 -0.23943805694580078 0 0 255
-0.9422673583030701 -0.21196343004703522 -0.25923675298690796 0 0 255
-0.9723514318466187 0.21640004217624664 -0.08777018636465073 0 0 255
-0.7199628949165344 0.6745007038116455 0.16340777277946472 0 0 255
-0.8814696669578552 0.4629521071910858 0.09320088475942612 0 0 255
-0.8881787657737732 0.44696852564811707 0.10657158493995667 0 0 255
-0.6823058128356934 0.7198126912117004 -0.1277826428413391 0 0 255
-0.5594332218170166 0.8258198499679565 0.0711049810051918 0 0 255
-0.7065688967704773 0.6834613084793091 -0.183415487408638 0 0 255
-0.05839337408542633 0.9982802271842957 -0.005169473588466644 0 0 255
-0.09439554065465927 0.9143853187561035 -0.39368635416030884 0 0 255
0.39693623781204224 0.8196219801902771 -0.41311177611351013 0 0 255
0.41368958353996277 0.8293752670288086 -0.37549641728401184 0 0 255
0.4594639837741852 0.8128706216812134 -0.3579583764076233 0 0 255
0.25830188393592834 0.9289569854736328 -0.2651771903038025 0 0 255
-0.048185497522354126 0.8811555504798889 -0.4703647792339325 0 0 255
-0.2294883131980896 0.8326315879821777 -0.5040434002876282 0 0 255
-0.35385656356811523 0.8098750710487366 -0.46785449981689453 0 0 255
-0.4566196799278259 0.7929922342300415 -0.4033135175704956 0 0 255
-0.5589355826377869 0.7253373265266418 -0.40184175968170166 0 0 255
-0.6064408421516418 0.7007418274879456 -0.375753253698349 0 0 255
-0.6017858982086182 0.6772708296775818 -0.42327046394348145 0 0 255
-0.6877764463424683 0.6171330809593201 -0.38224372267723083 0 0 255
-0.7564671039581299 0.5794283747673035 -0.3033486306667328 0 0 255
-0.7814452648162842 0.5456814765930176 -0.3026135265827179 0 0 255
-0.822178304195404 0.5011377334594727 -0.26997020840644836 0 0 255
-0.8495232462882996 0.4247526228427887 -0.31288230419158936 0 0 255
-0.8807190656661987 0.3361808657646179 -0.33364102244377136 0 0 255
-0.8875322937965393 0.2926231324672699 -0.3558906018733978 0 0 255
-0.8029807806015015 0.5183876752853394 -0.294102281332016 0 0 255
-0.8177418112754822 0.4975239634513855 -0.2894275486469269 0 0 255
-0.8558640480041504 0.3562057912349701 -0.37498557567596436 0 0 255
-0.8814950585365295 0.18665120005607605 -0.4337370693683624 0 0 255
-0.8933554887771606 -0.0851646289229393 -0.4412061870098114 0 0 255
-0.9126377701759338 -0.11805345118045807 -0.3913511037826538 0 0 255
-0.8887237310409546 -0.13137124478816986 -0.4392170011997223 0 0 255
-0.9258930087089539 -0.07929235696792603 -0.36937081813812256 0 0 255
-0.8870226740837097 -0.25288525223731995 -0.38631558418273926 0 0 255
-0.8923097252845764 -0.2896871268749237 -0.3462149202823639 0 0 255
-0.8633589744567871 -0.3734837770462036 -0.3392951488494873 0 0 255
-0.889670193195343 -0.35526424646377563 -0.2868350148200989 0 0 255
-0.8833658695220947 -0.3485736548900604 -0.3133067190647125 0 0 255
-0.8600007891654968 -0.36888235807418823 -0.3525966703891754 0 0 255
-0.8057097792625427 -0.4409763514995575 -0.3954383134841919 0 0 255
-0.7853962779045105 -0.4749433696269989 -0.3969652056694031 0 0 255
-0.8096967339515686 -0.39599013328552246 -0.43310871720314026 0 0 255
-0.8599581122398376 -0.3310769200325012 -0.3884071707725525 0 0 255
-0.8306436538696289 -0.37750139832496643 -0.40929681062698364 0 0 255
-0.8236585855484009 -0.35220298171043396 -0.44445428252220154 0 0 255
-0.8014054298400879 -0.3307558596134186 -0.49834728240966797 0 0 255
-0.8196974992752075 -0.32687318325042725 -0.47037211060523987 0 0 255
-0.8265594244003296 -0.22555381059646606 -0.5156790614128113 0 0 255
-0.8263915777206421 -0.1586465686559677 -0.5402854084968567 0 0 255
-0.8215116262435913 -0.046362344175577164 -0.5683037042617798 0 0 255
-0.8566710352897644 -0.05489733815193176 -0.5129337310791016 0 0 255
-0.8150864243507385 0.04566820710897446 -0.5775365829467773 0 0 255
-0.8601972460746765 0.12986963987350464 -0.49314770102500916 0 0 255
-0.7696537971496582 0.39376014471054077 -0.5025793313980103 0 0 255
-0.848689079284668 0.44036024808883667 -0.29293274879455566 0 0 255
-0.745435893535614 0.6663276553153992 0.01824500970542431 0 0 255
-0.7080650329589844 0.6578261852264404 -0.25672653317451477 0 0 255
-0.8243545293807983 0.4651825428009033 -0.3225599527359009 0 0 255
-0.7979595065116882 0.3350469172000885 -0.5010032057762146 0 0 255
-0.8323534727096558 0.21241383254528046 -0.5119257569313049 0 0 255
-0.8167436122894287 0.19148804247379303 -0.5442996621131897 0 0 255
-0.7926738262176514 0.1353781819343567 -0.5944249033927917 0 0 255
-0.8193218111991882 0.1203993409872055 -0.5605496168136597 0 0 255
-0.8616338968276978 0.08033661544322968 -0.5011316537857056 0 0 255
-0.8537171483039856 0.07105574756860733 -0.5158664584159851 0 0 255
-0.8770866394042969 0.012006593868136406 -0.4801821708679199 0 0 255
-0.881505012512207 -0.03247940540313721 -0.47105616331100464 0 0 255
-0.8900507092475891 -0.062328554689884186 -0.4515804350376129 0 0 255
-0.8955543041229248 -0.09252095967531204 -0.4352268576622009 0 0 255
-0.8918848037719727 -0.10136301070451736 -0.44075727462768555 0 0 255
-0.895159125328064 -0.12312942743301392 -0.4284031093120575 0 0 255
-0.8902296423912048 -0.13755081593990326 -0.4342476725578308 0 0 255
-0.8970595598220825 -0.13006709516048431 -0.4223348796367645 0 0 255
-0.9061055779457092 -0.15133455395698547 -0.3950575292110443 0 0 255
-0.8956018686294556 -0.19705727696418762 -0.3988305926322937 0 0 255
-0.8928743004798889 -0.23294907808303833 -0.3853701651096344 0 0 255
-0.8998873233795166 -0.19534103572368622 -0.3899291157722473 0 0 255
-0.9155073761940002 -0.1374971717596054 -0.3780750632286072 0 0 255
-0.9166845679283142 -0.09221193194389343 -0.3888269364833832 0 0 255
-0.8943995833396912 -0.11250513046979904 -0.43288806080818176 0 0 255
-0.9194728136062622 -0.15589097142219543 -0.3609263300895691 0 0 255
-0.923792839050293 -0.07571782171726227 -0.37533149123191833 0 0 255
-0.9150813221931458 -0.01889960654079914 -0.40282613039016724 0 0 255
-0.90395587682724 0.10845859348773956 -0.4136430025100708 0 0 255
-0.7431524991989136 0.4599297344684601 -0.4859926998615265 0 0 255
-0.6626306772232056 0.5959267020225525 -0.45364290475845337 0 0 255
-0.5447876453399658 0.741224467754364 -0.39216408133506775 0 0 255
-0.600251317024231 0.7195305228233337 -0.3492479920387268 0 0 255
-0.7575381398200989 0.5434194207191467 -0.361706018447876 0 0 255
-0.9438406825065613 0.2721276581287384 -0.1873803287744522 0 0 255
-0.9783816337585449 0.07726497948169708 -0.19183188676834106 0 0 255
-0.9935976266860962 -0.06967704743146896 -0.08893183618783951 0 0 255
-0.9858767986297607 -0.12880352139472961 -0.10703564435243607 0 0 255
-0.9825243353843689 -0.12566794455051422 -0.13730815052986145 0 0 255
-0.982096791267395 -0.08849482983350754 -0.16629628837108612 0 0 255
-0.9825246930122375 -0.077243372797966 -0.169347882270813 0 0 255
-0.9778335690498352 -0.0597546212375164 -0.20067603886127472 0 0 255
-0.9714999794960022 -0.10572109371423721 -0.21215742826461792 0 0 255
-0.9630139470100403 -0.14877785742282867 -0.22465352714061737 0 0 255
-0.9592231512069702 -0.16365951299667358 -0.23044846951961517 0 0 255
-0.9478540420532227 -0.19605359435081482 -0.2512679696083069 0 0 255
-0.92368084192276 -0.24591130018234253 -0.2938390374183655 0 0 255
-0.9245419502258301 -0.24009639024734497 -0.29593199491500854 0 0 255
-0.9131655693054199 -0.25736767053604126 -0.31605443358421326 0 0 255
-0.9290726184844971 -0.18783314526081085 -0.31865766644477844 0 0 255
-0.9151581525802612 -0.21386156976222992 -0.3416852056980133 0 0 255
-0.9217885732650757 -0.22837094962596893 -0.313292920589447 0 0 255
-0.9253851175308228 -0.1924448311328888 -0.32653865218162537 0 0 255
-0.9255784749984741 -0.20305144786834717 -0.3194909393787384 0 0 255
-0.9281498193740845 -0.2683018445968628 -0.2579766511917114 0 0 255
-0.9284977316856384 -0.24558238685131073 -0.2785341143608093 0 0 255
-0.9509370923042297 -0.22453266382217407 -0.21284696459770203 0 0 255
-0.9496869444847107 -0.24787913262844086 -0.1914435774087906 0 0 255
-0.9314782023429871 -0.3132413923740387 -0.18500861525535583 0 0 255
-0.9226255416870117 -0.3322751820087433 -0.19584517180919647 0 0 255
-0.9428851008415222 -0.27115270495414734 -0.19350416958332062 0 0 255
-0.9589595198631287 -0.16836261749267578 -0.22814610600471497 0 0 255
-0.9530242681503296 -0.16214609146118164 -0.2558384835720062 0 0 255
-0.9354469776153564 -0.16703830659389496 -0.3115074932575226 0 0 255
-0.9347677230834961 -0.2115146666765213 -0.2854309380054474 0 0 255
-0.9532483816146851 -0.14248374104499817 -0.26648783683776855 0 0 255
-0.9356894493103027 -0.16136272251605988 -0.31376299262046814 0 0 255
-0.9648346304893494 -0.12423645704984665 -0.23164521157741547 0 0 255
-0.9881591796875 -0.0745079293847084 -0.13412733376026154 0 0 255
-0.9914512038230896 0.12157819420099258 -0.04736171290278435 0 0 255
-0.9762938618659973 0.03267095237970352 -0.213969424366951 0 0 255
-0.9858139753341675 0.1303214132785797 -0.10576943308115005 0 0 255
-0.8991804122924805 0.4036334156990051 -0.1689814031124115 0 0 255
-0.9176772832870483 0.3609553575515747 -0.1660711020231247 0 0 255
-0.9089509844779968 -0.3337321877479553 -0.24986185133457184 0 0 255
-0.8690024614334106 -0.3569953739643097 -0.34262070059776306 0 0 255
-0.9098646640777588 0.06161921098828316 -0.41030389070510864 0 0 255
-0.9359521269798279 -0.06297428905963898 -0.3464505970478058 0 0 255
-0.8855790495872498 -0.27771636843681335 -0.37232154607772827 0 0 255
-0.8584456443786621 0.03207273781299591 -0.5119008421897888 0 0 255
-0.9141363501548767 0.033214882016181946 -0.4040440022945404 0 0 255
-0.9279651045799255 0.0721527636051178 -0.36561569571495056 0 0 255
-0.8779270052909851 0.09193218499422073 -0.4698857069015503 0 0 255
-0.8567133545875549 0.05740739405155182 -0.5125882625579834 0 0 255
-0.8035407662391663 0.08775795996189117 -0.5887450575828552 0 0 255
-0.7800494432449341 0.11397267132997513 -0.6152504682540894 0 0 255
-0.7896424531936646 0.11605118215084076 -0.6024922728538513 0 0 255
-0.7921809554100037 0.11365853995084763 -0.5996091365814209 0 0 255
-0.7680392861366272 0.16187892854213715 -0.6196054220199585 0 0 255
-0.7842583060264587 0.11848906427621841 -0.6090149283409119 0 0 255
-0.7159115672111511 0.2201494425535202 -0.662574291229248 0 0 255
-0.6489476561546326 0.2565937340259552 -0.7162587642669678 0 0 255
-0.5661619305610657 0.33198681473731995 -0.7544835209846497 0 0 255
-0.32704317569732666 0.5761533975601196 -0.7490594983100891 0 0 255
-0.2812899351119995 0.7751938700675964 -0.5656415820121765 0 0 255
-0.25209346413612366 0.8761343955993652 -0.41089823842048645 0 0 255
-0.2331697642803192 0.8691408634185791 -0.43614912033081055 0 0 255
-0.5209494233131409 0.7166234254837036 -0.46374833583831787 0 0 255
-0.5823526978492737 0.6598976254463196 -0.47476354241371155 0 0 255
-0.7057051658630371 0.5301112532615662 -0.47006627917289734 0 0 255
-0.7839184403419495 0.5196919441223145 -0.3396941125392914 0 0 255
-0.7825603485107422 0.5331481695175171 -0.3214844763278961 0 0 255
-0.91796875 0.33236756920814514 -0.21648362278938293 0 0 255
-0.842142641544342 0.4761897027492523 -0.25305959582328796 0 0 255
-0.6876688003540039 0.5754507184028625 -0.4426828622817993 0 0 255
-0.303229957818985 0.9495261311531067 -0.08032283931970596 0 0 255
0.1785513162612915 0.9744205474853516 0.13646985590457916 0 0 255
0.0072504011914134026 0.998744010925293 0.04957635700702667 0 0 255
-0.029365718364715576 0.9995519518852234 0.005790708586573601 0 0 255
-0.14921864867210388 0.9687173366546631 -0.19829416275024414 0 0 255
-0.02812916971743107 0.8549754619598389 -0.5179049968719482 0 0 255
-0.34621283411979675 0.7455151081085205 -0.5695118308067322 0 0 255
-0.43538591265678406 0.7925036549568176 -0.42705631256103516 0 0 255
-0.36775487661361694 0.8157735466957092 -0.4463965594768524 0 0 255
-0.327821284532547 0.8518340587615967 -0.408548504114151 0 0 255
-0.2054135948419571 0.9184636473655701 -0.33797869086265564 0 0 255
-0.4463473856449127 0.8226231336593628 -0.3522287607192993 0 0 255
-0.7631152868270874 0.629988968372345 -0.14411412179470062 0 0 255
-0.9144929647445679 0.389565110206604 -0.10927736759185791 0 0 255
-0.90310138463974 0.3838846981525421 -0.19245879352092743 0 0 255
-0.8365804553031921 0.42114537954330444 -0.35038504004478455 0 0 255
-0.7570831179618835 0.5512000918388367 -0.35071879625320435 0 0 255
-0.7558395862579346 0.5775390267372131 -0.3084724247455597 0 0 255
-0.7681319713592529 0.5799511671066284 -0.27134835720062256 0 0 255
-0.7838563919067383 0.6097225546836853 -0.1175060048699379 0 0 255
-0.587608814239502 0.6834750175476074 -0.4331025183200836 0 0 255
-0.7013214826583862 0.6828623414039612 -0.204566091299057 0 0 255
-0.9345058798789978 0.3511265814304352 -0.058385372161865234 0 0 255
-0.7226870059967041 0.6753808259963989 0.14691582322120667 0 0 255
-0.6000426411628723 0.7834750413894653 0.16160281002521515 0 0 255
-0.7048225998878479 0.6944983601570129 -0.14455851912498474 0 0 255
-0.7949239015579224 0.6041352152824402 -0.05582612752914429 0 0 255
-0.5467019081115723 0.5977480411529541 -0.5863569378852844 0 0 255
-0.7435649633407593 0.6483443379402161 0.16358743607997894 0 0 255
-0.8723715543746948 0.48449113965034485 -0.06508681923151016 0 0 255
-0.25603753328323364 0.966256856918335 -0.028150055557489395 0 0 255
-0.03467093035578728 0.9937857389450073 0.10577237606048584 0 0 255
0.005348208826035261 0.93135666847229 0.36406874656677246 0 0 255
-0.10061293095350266 0.8604851961135864 0.49944183230400085 0 0 255
0.34816497564315796 0.6830066442489624 0.642092764377594 0 0 255
0.38389989733695984 0.4795754849910736 0.7890679836273193 0 0 255
0.13922688364982605 0.810899019241333 0.5683825016021729 0 0 255
-0.37471845746040344 0.5481149554252625 0.747767448425293 0 0 255
-0.5984948873519897 0.5248819589614868 0.6052295565605164 0 0 255
-0.7522133588790894 0.5894777178764343 0.2944334149360657 0 0 255
-0.7321100234985352 0.6481823325157166 0.20946267247200012 0 0 255
-0.5154950022697449 0.8113791346549988 -0.2755517363548279 0 0 255
-0.7999334931373596 0.5092220902442932 0.3174891173839569 0 0 255
-0.4517512619495392 0.22613030672073364 0.8630096912384033 0 0 255
-0.10733594000339508 -0.7251439094543457 0.6801803708076477 0 0 255
0.17953458428382874 -0.6833136677742004 0.707707405090332 0 0 255
0.7919094562530518 -0.14571338891983032 0.5929983258247375 0 0 255
0.8773614764213562 0.2468285709619522 0.4114759862422943 0 0 255
0.8100569844245911 0.383784681558609 0.44330233335494995 0 0 255
0.79184889793396 0.5856974720954895 0.17301325500011444 0 0 255
0.7294915318489075 0.6825865507125854 0.04379076510667801 0 0 255
0.705365777015686 0.7088222503662109 -0.005496784579008818 0 0 255
0.6957180500030518 0.718138575553894 -0.01591609977185726 0 0 255
0.6738751530647278 0.7388452291488647 0.0003306796425022185 0 0 255
0.6780988574028015 0.7349449396133423 -0.006164931692183018 0 0 255
0.6791180968284607 0.733673095703125 -0.022854730486869812 0 0 255
0.6970166563987732 0.7170537710189819 0.0012771034380421042 0 0 255
0.6983464956283569 0.7101631164550781 -0.08933326601982117 0 0 255
0.6168943047523499 0.7493042349815369 -0.2407996505498886 0 0 255
0.541516900062561 0.7830007076263428 -0.3060545027256012 0 0 255
0.5315754413604736 0.7933281660079956 -0.2967454195022583 0 0 255
0.5161996483802795 0.8137345314025879 -0.2671593427658081 0 0 255
0.4650020897388458 0.8546022176742554 -0.2311450093984604 0 0 255
0.3114837110042572 0.9100141525268555 -0.2735912501811981 0 0 255
0.13818880915641785 0.8633622527122498 -0.48529312014579773 0 0 255
-0.0578707680106163 0.7555798888206482 -0.652495265007019 0 0 255
-0.18735042214393616 0.5832074284553528 -0.7904232740402222 0 0 255
-0.40177440643310547 0.4200090765953064 -0.8137381672859192 0 0 255
-0.5609484314918518 0.3214947581291199 -0.7628747820854187 0 0 255
-0.6491466760635376 0.25210806727409363 -0.7176699042320251 0 0 255
-0.6654700636863708 0.19795289635658264 -0.7196973562240601 0 0 255
-0.5200422406196594 0.3153682351112366 -0.7937877178192139 0 0 255
-0.5176886916160583 0.4421680271625519 -0.7324519753456116 0 0 255
-0.3000473976135254 0.6018184423446655 -0.7401257157325745 0 0 255
-0.20441266894340515 0.6098923683166504 -0.7656675577163696 0 0 255
0.06015535816550255 0.6239556670188904 -0.7791409492492676 0 0 255
0.21893508732318878 0.7370897531509399 -0.6393482089042664 0 0 255
0.19220127165317535 0.7905048727989197 -0.5815159678459167 0 0 255
-0.08568102866411209 0.7256330251693726 -0.6827264428138733 0 0 255
-0.41601836681365967 0.6676768660545349 -0.6173624992370605 0 0 255
-0.45681774616241455 0.49171945452690125 -0.7413026094436646 0 0 255
-0.6561790108680725 0.4200587868690491 -0.6268808841705322 0 0 255
-0.4712468087673187 0.6754616498947144 -0.5671666860580444 0 0 255
0.000977737712673843 0.7370630502700806 -0.6758232712745667 0 0 255
-0.11252549290657043 0.6396498084068298 -0.7603855133056641 0 0 255
-0.4258083403110504 0.7689349055290222 -0.4768924117088318 0 0 255
-0.6812654137611389 0.580146312713623 -0.44643884897232056 0 0 255
-0.729132354259491 0.5295606851577759 -0.43351078033447266 0 0 255
-0.6890703439712524 0.29326826333999634 -0.6627033948898315 0 0 255
-0.7712898850440979 0.21951718628406525 -0.5974312424659729 0 0 255
-0.6342300772666931 0.3355283737182617 -0.6965436339378357 0 0 255
-0.6188560128211975 0.4165356457233429 -0.6659694314002991 0 0 255
-0.64322429895401 0.3400014042854309 -0.6860477328300476 0 0 255
-0.760154128074646 0.3468319773674011 -0.5494299530982971 0 0 255
-0.8428424596786499 0.38332995772361755 -0.3777230978012085 0 0 255
-0.752741813659668 0.2912279963493347 -0.5903948545455933 0 0 255
-0.7804526686668396 0.18394526839256287 -0.5975431799888611 0 0 255
-0.557677149772644 0.29305803775787354 -0.7766036987304688 0 0 255
-0.5061635971069336 0.3439701795578003 -0.7908747792243958 0 0 255
-0.4876476228237152 0.29950135946273804 -0.8200601935386658 0 0 255
-0.47560739517211914 0.5178110599517822 -0.7111043334007263 0 0 255
-0.3040041923522949 0.7147818803787231 -0.6298160552978516 0 0 255
-0.3126993179321289 0.6932390928268433 -0.6493371725082397 0 0 255
-0.3640923798084259 0.7234416007995605 -0.5865738987922668 0 0 255
-0.34189891815185547 0.7394687533378601 -0.5799060463905334 0 0 255
-0.17443086206912994 0.8029313087463379 -0.5699781775474548 0 0 255
-0.04779244586825371 0.834735631942749 -0.5485728979110718 0 0 255
-0.0852508544921875 0.8127614259719849 -0.5763255953788757 0 0 255
-0.10369664430618286 0.8849222660064697 -0.45404794812202454 0 0 255
-0.10695400834083557 0.8716624975204468 -0.47829413414001465 0 0 255
-0.08810744434595108 0.80988609790802 -0.5799323320388794 0 0 255
-0.1125146895647049 0.8023677468299866 -0.586128294467926 0 0 255
-0.13519437611103058 0.8050971031188965 -0.5775302052497864 0 0 255
-0.28117117285728455 0.7588738203048706 -0.5874123573303223 0 0 255
-0.2512856721878052 0.7565877437591553 -0.6036807298660278 0 0 255
-0.03246228024363518 0.7286766171455383 -0.6840881109237671 0 0 255
-0.14038854837417603 0.6937469840049744 -0.7064036726951599 0 0 255
-0.30677932500839233 0.5528407096862793 -0.7747602462768555 0 0 255
-0.34228628873825073 0.5425979495048523 -0.7670903205871582 0 0 255
-0.34474003314971924 0.5408647060394287 -0.7672156095504761 0 0 255
-0.39162787795066833 0.5095084309577942 -0.7661780714988708 0 0 255
-0.3829830586910248 0.5124297738075256 -0.7685959339141846 0 0 255
-0.3248295485973358 0.5912646055221558 -0.738167941570282 0 0 255
-0.2178710550069809 0.6166576147079468 -0.7564824223518372 0 0 255
0.04792516678571701 0.5829067826271057 -0.8111245632171631 0 0 255
0.1828460842370987 0.6499146819114685 -0.7376844882965088 0 0 255
0.24740390479564667 0.6678875088691711 -0.7019385099411011 0 0 255
0.12763744592666626 0.8230541348457336 -0.5534352660179138 0 0 255
0.22334353625774384 0.8241854906082153 -0.5204190611839294 0 0 255
0.22570650279521942 0.7624526023864746 -0.6064014434814453 0 0 255
0.1796656996011734 0.6585575938224792 -0.7307682037353516 0 0 255
0.19475817680358887 0.7546126246452332 -0.6266011595726013 0 0 255
0.08716905862092972 0.8558692336082458 -0.5097935795783997 0 0 255
-0.15587368607521057 0.8279141187667847 -0.5387593507766724 0 0 255
0.18177717924118042 0.7468603849411011 -0.6396536231040955 0 0 255
0.32205331325531006 0.8220456838607788 -0.46959832310676575 0 0 255
0.5173366069793701 0.8278502821922302 -0.21685640513896942 0 0 255
0.5977146029472351 0.7975969910621643 -0.08109395205974579 0 0 255
0.29197436571121216 0.924538791179657 -0.24490617215633392 0 0 255
0.2590118646621704 0.8016574382781982 -0.5387561917304993 0 0 255
0.07671323418617249 0.7647013068199158 -0.6398022770881653 0 0 255
-0.016845814883708954 0.6098433136940002 -0.7923429608345032 0 0 255
0.14340662956237793 0.6370574831962585 -0.7573588490486145 0 0 255
-0.15228648483753204 0.48854899406433105 -0.8591442108154297 0 0 255
-0.2838074862957001 0.48536017537117004 -0.8269696235656738 0 0 255
-0.31017962098121643 0.5531619787216187 -0.7731755971908569 0 0 255
-0.5306571125984192 0.43605750799179077 -0.7268128395080566 0 0 255
-0.5883688926696777 0.44072723388671875 -0.677924394607544 0 0 255
-0.677440881729126 0.5845742225646973 -0.44648271799087524 0 0 255
-0.5521588325500488 0.7017642855644226 -0.4501638412475586 0 0 255
-0.22483819723129272 0.847079873085022 -0.4815635085105896 0 0 255
-0.3298850357532501 0.8386520147323608 -0.43340355157852173 0 0 255
-0.1468779742717743 0.9082989692687988 -0.39168834686279297 0 0 255
-0.13716475665569305 0.8076068162918091 -0.5735478401184082 0 0 255
-0.09884623438119888 0.7620335221290588 -0.6399487257003784 0 0 255
-0.29701656103134155 0.6812258362770081 -0.6691131591796875 0 0 255
-0.34889984130859375 0.6727780699729919 -0.6524097323417664 0 0 255
-0.34211012721061707 0.7622741460800171 -0.5494531393051147 0 0 255
-0.24011556804180145 0.8107094168663025 -0.533942699432373 0 0 255
-0.28528183698654175 0.7711464166641235 -0.5691639184951782 0 0 255
-0.2922610342502594 0.7191304564476013 -0.630424439907074 0 0 255
-0.24667474627494812 0.7124646902084351 -0.65692138671875 0 0 255
-0.34453511238098145 0.6581920385360718 -0.6693869233131409 0 0 255
-0.37001219391822815 0.6470122933387756 -0.6666828989982605 0 0 255
-0.2996233105659485 0.6586844325065613 -0.6901888847351074 0 0 255
-0.2735294699668884 0.6342124938964844 -0.7231571078300476 0 0 255
-0.2452792078256607 0.6640475988388062 -0.7063136100769043 0 0 255
-0.2665388584136963 0.7138563394546509 -0.6475849151611328 0 0 255
-0.18110719323158264 0.7901318669319153 -0.5855696797370911 0 0 255
-0.15438684821128845 0.7956054210662842 -0.5858129262924194 0 0 255
0.02762586995959282 0.8468349575996399 -0.5311377644538879 0 0 255
0.1853027492761612 0.8312898278236389 -0.5240421295166016 0 0 255
-0.059745676815509796 0.9741829633712769 -0.21771083772182465 0 0 255
0.3132917881011963 0.776027262210846 0.54738450050354 0 0 255
0.7385156750679016 0.4114900827407837 0.5341072678565979 0 0 255
0.9296295046806335 0.16427971422672272 0.32985028624534607 0 0 255
0.9815004467964172 -0.1296643167734146 -0.14086830615997314 0 0 255
0.8796939849853516 -0.38807007670402527 -0.2748456597328186 0 0 255
0.8342329859733582 -0.5431947112083435 0.09484134614467621 0 0 255
0.8460281491279602 -0.5302072763442993 0.05582666024565697 0 0 255
0.8355191946029663 -0.5445199012756348 0.07352329790592194 0 0 255
0.8053930997848511 -0.5794611573219299 0.12476663291454315 0 0 255
0.7548993229866028 -0.6396093964576721 0.14500626921653748 0 0 255
0.7656357288360596 -0.6204491853713989 0.16983748972415924 0 0 255
0.7902355790138245 -0.5762940049171448 0.2083578258752823 0 0 255
0.8319772481918335 -0.51559978723526 0.20486727356910706 0 0 255
0.8432249426841736 -0.475811630487442 0.2501499652862549 0 0 255
0.8729340434074402 -0.3977135717868805 0.2825066149234772 0 0 255
0.883090078830719 -0.3525623381137848 0.309599369764328 0 0 255
0.8615292310714722 -0.29943668842315674 0.41000616550445557 0 0 255
0.8739219307899475 -0.28729522228240967 0.3920736610889435 0 0 255
0.8549886345863342 -0.30851882696151733 0.4169059991836548 0 0 255
0.8115106821060181 -0.35310688614845276 0.4655812680721283 0 0 255
0.8045411109924316 -0.3518032431602478 0.47848522663116455 0 0 255
0.7527971267700195 -0.3670899271965027 0.5463894605636597 0 0 255
0.7443052530288696 -0.39994120597839355 0.5348426699638367 0 0 255
0.7230693697929382 -0.42707642912864685 0.5429331660270691 0 0 255
0.7316159009933472 -0.4639885425567627 0.49945250153541565 0 0 255
0.763746976852417 -0.4767988622188568 0.43514755368232727 0 0 255
0.7504734992980957 -0.476318895816803 0.4581591784954071 0 0 255
0.7267189025878906 -0.46522992849349976 0.5054113864898682 0 0 255
0.7223616242408752 -0.45210424065589905 0.5232545137405396 0 0 255
0.6972907781600952 -0.42736726999282837 0.5754501223564148 0 0 255
0.6809921860694885 -0.41908472776412964 0.6005144715309143 0 0 255
0.6794044375419617 -0.40944093465805054 0.6089070439338684 0 0 255
0.6315582394599915 -0.4282243847846985 0.6463420987129211 0 0 255
0.6485229134559631 -0.4575574994087219 0.6083248853683472 0 0 255
0.5899296402931213 -0.46974074840545654 0.6567546725273132 0 0 255
0.5766958594322205 -0.44435060024261475 0.6855467557907104 0 0 255
0.5649057030677795 -0.42899417877197266 0.704872727394104 0 0 255
0.5485780835151672 -0.4286312460899353 0.7178699970245361 0 0 255
0.5778528451919556 -0.4511808454990387 0.6800897717475891 0 0 255
0.570663332939148 -0.47254085540771484 0.6716014742851257 0 0 255
0.5631863474845886 -0.4560498595237732 0.6890860795974731 0 0 255
0.6082898378372192 -0.4462718069553375 0.6563724875450134 0 0 255
0.6495934128761292 -0.437997430562973 0.6214391589164734 0 0 255
0.6652525067329407 -0.4327739477157593 0.6083961129188538 0 0 255
0.6364778280258179 -0.41611409187316895 0.6494189500808716 0 0 255
0.6569260358810425 -0.4430353343486786 0.6100556254386902 0 0 255
0.6461375951766968 -0.47969120740890503 0.5936349630355835 0 0 255
0.6874851584434509 -0.4653366208076477 0.5575178265571594 0 0 255
0.6798238158226013 -0.43424612283706665 0.5909906625747681 0 0 255
0.6799345016479492 -0.45346492528915405 0.5762453675270081 0 0 255
0.7165578603744507 -0.47232604026794434 0.5132766962051392 0 0 255
0.6930288076400757 -0.47573524713516235 0.5416520833969116 0 0 255
0.7095310688018799 -0.45562028884887695 0.5375648140907288 0 0 255
0.7066681385040283 -0.47662049531936646 0.5229273438453674 0 0 255
0.7177249789237976 -0.4429711401462555 0.5372591018676758 0 0 255
0.6997676491737366 -0.3873605728149414 0.600230872631073 0 0 255
0.7044560313224792 -0.3563215732574463 0.6138213276863098 0 0 255
0.6804801821708679 -0.364014208316803 0.6359562873840332 0 0 255
0.6930964589118958 -0.3606068193912506 0.6241633296012878 0 0 255
0.57157301902771 -0.3582201302051544 0.7382294535636902 0 0 255
0.5182837247848511 -0.4658091068267822 0.7172195911407471 0 0 255
0.451994389295578 -0.5819776058197021 0.6760200262069702 0 0 255
0.45141303539276123 -0.6301488280296326 0.6317742466926575 0 0 255
0.4041614234447479 -0.6803192496299744 0.6114076375961304 0 0 255
0.3951554298400879 -0.6918885111808777 0.6042701601982117 0 0 255
0.36783647537231445 -0.7141283750534058 0.5955811738967896 0 0 255
0.3446628153324127 -0.7080103754997253 0.6163836121559143 0 0 255
0.335986852645874 -0.7036519646644592 0.6260885000228882 0 0 255
0.2689383327960968 -0.6783621311187744 0.6837373971939087 0 0 255
0.2829417586326599 -0.6904181241989136 0.6657828688621521 0 0 255
0.3389517068862915 -0.6393962502479553 0.6901333928108215 0 0 255
0.3829333484172821 -0.6091238856315613 0.6944999098777771 0 0 255
0.4251563847064972 -0.5381678938865662 0.7277481555938721 0 0 255
0.4739004075527191 -0.5135858058929443 0.7152957320213318 0 0 255
0.46703147888183594 -0.45363950729370117 0.7590077519416809 0 0 255
0.46356844902038574 -0.3498535752296448 0.8140680193901062 0 0 255
0.4583950340747833 -0.3707576096057892 0.8077207803726196 0 0 255
0.4998268783092499 -0.36624202132225037 0.784882128238678 0 0 255
0.5543432235717773 -0.22426927089691162 0.8015028834342957 0 0 255
0.6040037274360657 -0.21707525849342346 0.7668492794036865 0 0 255
0.5331826210021973 -0.12830573320388794 0.836214005947113 0 0 255
0.3769593834877014 -0.15957112610340118 0.9123807549476624 0 0 255
0.29862838983535767 -0.2504991292953491 0.9209078550338745 0 0 255
0.38639575242996216 -0.22088156640529633 0.8954941034317017 0 0 255
0.40257251262664795 -0.09772226214408875 0.9101570248603821 0 0 255
0.32269513607025146 -0.14636029303073883 0.9351184964179993 0 0 255
0.4219585359096527 -0.259772926568985 0.8686017394065857 0 0 255
0.44910913705825806 -0.2237774282693863 0.8649997711181641 0 0 255
0.46625134348869324 -0.13297876715660095 0.8746007084846497 0 0 255
0.463788241147995 -0.09749552607536316 0.8805652260780334 0 0 255
0.5685195326805115 -0.08867938071489334 0.8178762197494507 0 0 255
0.6259027719497681 -0.04473871365189552 0.7786168456077576 0 0 255
