ply
format ascii 1.0
element vertex 679
property float x
property float y
property float z
property uchar red
property uchar green
property uchar blue
end_header
-0.3554851710796356 -0.36455580592155457 -0.015425502322614193 252 203 37
-0.35997673869132996 -0.29010459780693054 0.0464121475815773 251 208 36
-0.4030635356903076 -0.3735917806625366 0.10300488770008087 252 206 37
-0.3536129295825958 -0.3555160462856293 -0.06006598845124245 252 204 37
-0.4004504382610321 -0.28399568796157837 -0.10145094245672226 252 203 37
-0.39405882358551025 -0.29980334639549255 -0.02550460398197174 252 201 38
-0.34491226077079773 -0.33210039138793945 -0.00012371325283311307 252 203 37
-0.28274932503700256 -0.41135507822036743 0.0859714075922966 252 203 37
-0.2780250906944275 -0.4312089681625366 0.1025533601641655 252 204 37
-0.25482821464538574 -0.4484328627586365 0.06156747415661812 252 206 37
-0.2375984638929367 -0.4017714858055115 0.062167562544345856 251 208 36
-0.2756303548812866 -0.41077518463134766 0.04304803907871246 251 209 36
-0.3212710916996002 -0.35816431045532227 -0.013290179893374443 251 208 36
-0.3043694496154785 -0.32871466875076294 -0.10654577612876892 252 206 37
-0.2517651915550232 -0.2792247235774994 -0.08348816633224487 252 204 37
-0.2389107495546341 -0.26969292759895325 -0.10312497615814209 251 209 36
-0.29358187317848206 -0.3396211266517639 -0.14317403733730316 252 201 38
-0.27623575925827026 -0.3514852523803711 -0.16107849776744843 253 192 41
-0.39714428782463074 -0.3339802622795105 0.15454767644405365 252 173 49
-0.25859692692756653 -0.5358681082725525 0.22730985283851624 253 175 49
-0.2158164083957672 -0.47138530015945435 0.265948086977005 253 178 47
-0.16902445256710052 -0.4418673515319824 0.3133477568626404 253 178 47
-0.19424688816070557 -0.4083074629306793 0.22925174236297607 253 176 48
-0.21388360857963562 -0.26706117391586304 0.16714031994342804 253 175 49
-0.26955437660217285 -0.21916116774082184 0.11428681015968323 253 175 49
-0.32063886523246765 -0.1850866824388504 0.046308569610118866 252 172 50
-0.3248904049396515 -0.1949089616537094 0.0006012778612785041 250 160 57
-0.31924745440483093 -0.1541333645582199 -0.030382951721549034 250 156 59
-0.3089681565761566 -0.21393534541130066 -0.05348627269268036 249 154 60
-0.33780214190483093 -0.25791385769844055 -0.058218054473400116 249 154 60
-0.37683260440826416 -0.25835511088371277 0.027855822816491127 250 157 58
-0.4078747630119324 -0.2988397777080536 -0.07327061146497726 250 157 58
-0.37891125679016113 -0.30352890491485596 -0.07727736979722977 250 159 58
-0.3440278172492981 -0.3138948678970337 -0.10832367092370987 248 152 62
-0.3199000060558319 -0.31817424297332764 -0.07995935529470444 247 146 65
-0.25768163800239563 -0.344946950674057 -0.021025069057941437 242 132 75
-0.2570750415325165 -0.3717402219772339 0.008225600235164165 234 116 85
-0.2481158971786499 -0.43539372086524963 0.09876347333192825 234 116 85
-0.19523188471794128 -0.5515808463096619 0.17124134302139282 234 115 86
-0.18317708373069763 -0.5844417214393616 0.2384742647409439 233 114 87
-0.1552397757768631 -0.593379557132721 0.30608564615249634 233 114 87
-0.10831374675035477 -0.6555922031402588 0.3334372341632843 231 110 90
-0.0792536810040474 -0.6477221846580505 0.38847386837005615 228 106 93
-0.0600624717772007 -0.6681047677993774 0.4037955403327942 227 104 94
-0.016381746158003807 -0.6757186651229858 0.3964306116104126 226 102 96
0.005606505554169416 -0.6688033938407898 0.4244125783443451 224 100 97
0.019185779616236687 -0.6976853013038635 0.41752952337265015 221 95 101
0.0589725598692894 -0.6661417484283447 0.4507148563861847 217 89 105
0.03002442792057991 -0.6686024069786072 0.4579237401485443 214 85 109
0.022952523082494736 -0.6530316472053528 0.45223018527030945 213 83 109
0.03749077767133713 -0.6590589880943298 0.46560877561569214 211 81 111
0.03479627147316933 -0.6539219617843628 0.43789777159690857 208 77 115
0.030556634068489075 -0.6791632771492004 0.44453954696655273 206 74 117
-0.016486873850226402 -0.6806961894035339 0.44620856642723083 200 68 122
-0.0017280426109209657 -0.6380465626716614 0.4672887921333313 195 62 127
-0.002248454373329878 -0.6423463225364685 0.4750550389289856 185 51 136
0.009575752541422844 -0.6546919345855713 0.46573659777641296 170 36 148
-0.0008555682725273073 -0.6606473922729492 0.4705379009246826 157 24 157
0.04712775722146034 -0.6397454738616943 0.47362378239631653 149 17 161
0.08656266331672668 -0.62042635679245 0.5088061094284058 134 7 166
0.10219039767980576 -0.6191176772117615 0.498876690864563 121 1 168
0.13285113871097565 -0.6272550821304321 0.4895017743110657 108 0 168
0.1323886662721634 -0.5539610385894775 0.49959418177604675 98 0 166
0.18316029012203217 -0.5262960195541382 0.47982317209243774 95 0 166
0.16703590750694275 -0.5014573335647583 0.4888451397418976 87 1 164
0.22992265224456787 -0.3980359733104706 0.5323769450187683 89 1 164
0.2290831357240677 -0.35678109526634216 0.4640389680862427 90 0 165
0.2276044338941574 -0.26983681321144104 0.43275097012519836 90 0 165
0.24440468847751617 -0.3090726137161255 0.40849292278289795 86 1 163
0.334954172372818 -0.2623484432697296 0.38335686922073364 81 1 162
0.39119160175323486 -0.1630757749080658 0.3499818444252014 76 2 161
0.4319160580635071 -0.17504550516605377 0.3018956482410431 71 2 159
0.4377689063549042 -0.1538061946630478 0.30092960596084595 63 3 156
0.47463521361351013 -0.13478296995162964 0.32446593046188354 52 4 152
0.4375168979167938 -0.17598956823349 0.3568774163722992 51 4 151
0.47731447219848633 -0.19810184836387634 0.3477462828159332 61 3 155
0.4342471957206726 -0.20535454154014587 0.34434738755226135 71 2 159
0.4207858145236969 -0.24849148094654083 0.39177051186561584 81 1 162
0.41403520107269287 -0.3594968914985657 0.4012487828731537 90 0 165
0.4653090238571167 -0.3416392505168915 0.3970213532447815 103 0 167
0.4368405342102051 -0.3105463683605194 0.4144727885723114 117 0 168
0.4964706003665924 -0.39699000120162964 0.4120388627052307 124 2 167
0.5358622670173645 -0.31685054302215576 0.46423742175102234 143 13 163
0.5481809973716736 -0.2808666527271271 0.43179455399513245 157 24 157
0.5323344469070435 -0.3534359037876129 0.43462881445884705 167 33 151
0.5347900390625 -0.3799038827419281 0.4590403437614441 169 35 149
0.533168375492096 -0.43544626235961914 0.4647853672504425 174 39 145
0.5275089144706726 -0.49024683237075806 0.4870421588420868 181 46 140
0.4787513315677643 -0.535211443901062 0.503017008304596 183 48 138
0.5074192881584167 -0.5434492826461792 0.5219374895095825 186 52 135
0.4214719235897064 -0.592060387134552 0.5399562120437622 187 53 134
0.4039316177368164 -0.5837605595588684 0.5688104033470154 189 55 132
0.38936755061149597 -0.6170854568481445 0.5169446468353271 185 51 136
0.3873180150985718 -0.5781640410423279 0.539150595664978 184 50 137
0.37923645973205566 -0.5586090087890625 0.5616994500160217 182 47 139
0.38272228837013245 -0.5326142907142639 0.5223758220672607 180 45 141
0.3917528986930847 -0.5800860524177551 0.49603885412216187 175 40 144
0.3919510841369629 -0.552827775478363 0.5393621325492859 176 42 143
0.3627097010612488 -0.5491088032722473 0.525261402130127 180 45 141
0.39723870158195496 -0.5753351449966431 0.5053443908691406 177 43 143
0.37485015392303467 -0.5400303602218628 0.511867344379425 175 40 144
0.3883289396762848 -0.5197587013244629 0.52850741147995 176 42 143
0.34184005856513977 -0.4954935610294342 0.5202450156211853 182 47 139
0.3636043667793274 -0.4999368190765381 0.5117959976196289 186 52 135
0.4039911925792694 -0.45799028873443604 0.4837858974933624 187 53 134
0.4516613483428955 -0.4553876221179962 0.47155705094337463 184 50 137
0.44915053248405457 -0.4134410321712494 0.484088659286499 180 45 141
0.44020169973373413 -0.37733036279678345 0.49319884181022644 178 44 142
0.403382807970047 -0.37368154525756836 0.4297304153442383 170 36 148
0.4351588785648346 -0.3802301287651062 0.39265286922454834 163 29 153
0.4310074746608734 -0.3438044488430023 0.39265912771224976 160 27 155
0.47234123945236206 -0.34945547580718994 0.3945114016532898 162 28 154
0.5105380415916443 -0.33858731389045715 0.38655659556388855 165 31 151
0.521660327911377 -0.3178827464580536 0.3819904625415802 167 33 151
0.5393814444541931 -0.33907243609428406 0.4222170412540436 175 40 144
0.5658602118492126 -0.35334691405296326 0.44279685616493225 181 46 140
0.5909894108772278 -0.3890605866909027 0.4239620864391327 188 54 133
0.5617263913154602 -0.453672856092453 0.4354613125324249 192 59 129
0.621058464050293 -0.43148067593574524 0.3935844898223877 201 69 121
0.5894359946250916 -0.43957751989364624 0.4075147807598114 204 72 118
0.580786406993866 -0.4699243903160095 0.35502737760543823 209 79 113
0.5748868584632874 -0.5127636790275574 0.35170358419418335 208 77 115
0.5945467352867126 -0.5644301176071167 0.29046082496643066 209 79 113
0.5885932445526123 -0.5213947296142578 0.36309805512428284 207 75 116
0.5737249255180359 -0.46000292897224426 0.3589140474796295 205 73 117
0.5844428539276123 -0.4602283239364624 0.3210339844226837 205 73 117
0.6313427090644836 -0.33969277143478394 0.3693556785583496 202 70 120
0.6222760081291199 -0.22125501930713654 0.3307691216468811 202 70 120
0.6217767000198364 -0.3164472281932831 0.33441653847694397 203 71 119
0.7564376592636108 -0.2585274875164032 0.2174025923013687 204 72 118
0.6458247303962708 -0.41541603207588196 0.39992856979370117 202 70 120
0.5832899808883667 -0.36014366149902344 0.13197028636932373 200 68 122
0.6241657733917236 -0.10059648007154465 0.28306111693382263 201 69 121
0.7068965435028076 -0.0564909391105175 0.24898648262023926 198 65 124
0.7084782719612122 0.0727836936712265 0.2138662487268448 192 59 129
0.5973430275917053 0.1127803772687912 0.09906943887472153 187 53 134
0.5172100067138672 0.12801872193813324 0.012407337315380573 177 43 143
0.4583134353160858 0.1744851917028427 -0.08341560512781143 176 42 143
0.3739576041698456 0.2075890600681305 -0.24313081800937653 167 33 151
0.29732343554496765 0.17258121073246002 -0.3458244800567627 158 25 156
0.2309923768043518 0.20870208740234375 -0.3718366324901581 157 24 157
0.1690109223127365 0.3441823124885559 -0.3819984495639801 167 33 151
0.11486076563596725 0.4181502163410187 -0.4506407678127289 172 37 147
0.16013550758361816 0.36729952692985535 -0.5098240375518799 174 39 145
0.13656599819660187 0.3938369154930115 -0.5150318145751953 175 40 144
0.08089527487754822 0.4390398859977722 -0.561355710029602 177 43 143
0.04846138879656792 0.4774775207042694 -0.5525825023651123 175 40 144
0.022381899878382683 0.4964095652103424 -0.599183976650238 181 46 140
0.0063540018163621426 0.5043076872825623 -0.6762375235557556 183 48 138
-0.02976430021226406 0.6077337861061096 -0.5972079038619995 186 52 135
-0.020850569009780884 0.5659986138343811 -0.6307448744773865 192 59 129
-0.02528219483792782 0.69174724817276 -0.5461029410362244 201 69 121
-0.03005252219736576 0.6462630033493042 -0.5806025862693787 206 74 117
-0.030372194945812225 0.658510148525238 -0.5937151312828064 208 77 115
0.021806679666042328 0.6390189528465271 -0.5578433871269226 215 87 107
-0.03811442479491234 0.6987902522087097 -0.5436747074127197 222 96 100
-0.02824518270790577 0.7252333164215088 -0.5132746696472168 227 103 95
-0.018975960090756416 0.6853126883506775 -0.549785315990448 229 108 91
-0.007413172163069248 0.6709942817687988 -0.5585015416145325 234 115 86
0.00362317799590528 0.6795076727867126 -0.5781041383743286 239 125 79
-0.011765091679990292 0.706829309463501 -0.5499697923660278 240 128 77
-0.041689202189445496 0.6892290711402893 -0.577789843082428 241 130 76
-0.07666970789432526 0.6652350425720215 -0.5866851210594177 240 129 77
-0.1123763769865036 0.6709844470024109 -0.5881935358047485 240 128 77
-0.15803177654743195 0.7003160715103149 -0.5652705430984497 235 118 84
-0.2336951196193695 0.6823885440826416 -0.5937252044677734 223 98 98
-0.2441430389881134 0.6443083882331848 -0.6017448306083679 216 88 106
-0.24611739814281464 0.629594087600708 -0.6023534536361694 208 77 115
-0.27721795439720154 0.6139084696769714 -0.5999876260757446 207 75 116
-0.25079455971717834 0.6037178039550781 -0.5997825860977173 206 74 117
-0.29541894793510437 0.5983710885047913 -0.6134433150291443 210 80 112
-0.2666824758052826 0.5919027924537659 -0.6028642058372498 212 82 110
-0.2809174656867981 0.5746922492980957 -0.6061981916427612 217 89 105
-0.2539713680744171 0.5836777687072754 -0.5789391994476318 218 90 104
-0.23738110065460205 0.5960841774940491 -0.5801589488983154 220 93 102
-0.25127696990966797 0.5625180006027222 -0.6201760768890381 227 103 95
-0.23068836331367493 0.5544854998588562 -0.6169723272323608 235 118 84
-0.19749945402145386 0.5389687418937683 -0.6608763337135315 236 120 83
-0.23730449378490448 0.5332630276679993 -0.6544395089149475 227 104 94
-0.2985192835330963 0.5784441232681274 -0.6112520098686218 229 108 91
-0.2420785278081894 0.5570001006126404 -0.6442733407020569 227 104 94
-0.21962611377239227 0.5870943665504456 -0.619368314743042 222 96 100
-0.235164076089859 0.5939204692840576 -0.6128641366958618 239 125 79
-0.22926926612854004 0.6570717096328735 -0.583516001701355 239 125 79
-0.2212141752243042 0.6328835487365723 -0.5940204858779907 234 116 85
-0.20388847589492798 0.6222395896911621 -0.6074150204658508 234 115 86
-0.1895757019519806 0.6123400330543518 -0.5934630036354065 233 114 87
-0.16806799173355103 0.6130964756011963 -0.5897088646888733 235 118 84
-0.191921204328537 0.573760449886322 -0.6411561369895935 235 118 84
-0.21964000165462494 0.5655233263969421 -0.6123038530349731 240 128 77
-0.21802681684494019 0.5454986095428467 -0.6461219787597656 242 132 75
-0.26099637150764465 0.549400269985199 -0.6315031051635742 242 133 74
-0.2650482654571533 0.5170997381210327 -0.6272467374801636 244 137 71
-0.314206600189209 0.5216147899627686 -0.6172147393226624 244 138 71
-0.29893502593040466 0.49876880645751953 -0.6130869388580322 245 139 70
-0.3335016965866089 0.5068181753158569 -0.6065784692764282 245 141 69
-0.36197158694267273 0.5142136812210083 -0.5744922757148743 243 134 73
-0.3719560503959656 0.5054287314414978 -0.5631226897239685 243 134 73
-0.3942583501338959 0.4820760488510132 -0.5720709562301636 242 132 75
-0.40088585019111633 0.4450657367706299 -0.5824123024940491 242 133 74
-0.3819577693939209 0.46421581506729126 -0.5624189376831055 243 134 73
-0.3969857692718506 0.5075676441192627 -0.558124303817749 243 135 72
-0.4003566801548004 0.504499077796936 -0.5545748472213745 243 134 73
-0.3771055340766907 0.511189877986908 -0.5828137993812561 242 133 74
-0.350200891494751 0.5174556374549866 -0.5725435614585876 242 133 74
-0.31518420577049255 0.5332545638084412 -0.5757706165313721 245 141 69
-0.33232754468917847 0.5309283137321472 -0.5856675505638123 245 139 70
-0.3213319480419159 0.4989743232727051 -0.5934896469116211 245 141 69
-0.341255784034729 0.4527134895324707 -0.5673137903213501 245 141 69
-0.360616534948349 0.42861220240592957 -0.5895761251449585 246 142 68
-0.35819584131240845 0.442165732383728 -0.5719299912452698 247 146 65
-0.33037909865379333 0.44449490308761597 -0.5920110940933228 247 146 65
-0.3224974274635315 0.46940645575523376 -0.597551703453064 248 150 63
-0.3494966924190521 0.4633772373199463 -0.602159857749939 248 152 62
-0.3799327313899994 0.4321743845939636 -0.5636672973632812 245 141 69
-0.4078846275806427 0.31211477518081665 -0.5168688297271729 243 134 73
-0.44368329644203186 0.1934930831193924 -0.37055519223213196 241 130 76
-0.481829971075058 0.046525660902261734 -0.2948507070541382 240 128 77
-0.4214191138744354 -0.12650655210018158 -0.16247275471687317 242 133 74
-0.44454634189605713 -0.2462562918663025 -0.13378611207008362 242 133 74
-0.4303811490535736 -0.3484342396259308 -0.0892576351761818 243 134 73
-0.40407106280326843 -0.3699021637439728 -0.030465343967080116 239 126 78
-0.4267203211784363 -0.4495720863342285 0.03694742172956467 237 123 81
-0.4421505033969879 -0.43990588188171387 0.049792807549238205 239 125 79
-0.44270333647727966 -0.4629508852958679 0.07589630037546158 240 128 77
-0.4562857449054718 -0.4407961964607239 0.12438154965639114 242 133 74
-0.46398043632507324 -0.4464949369430542 0.1405782401561737 243 135 72
-0.47492143511772156 -0.4381067752838135 0.15259377658367157 246 142 68
-0.4924962818622589 -0.40437376499176025 0.12435916811227798 248 149 64
-0.4842579960823059 -0.4604863226413727 0.1295509785413742 251 164 54
-0.4747135639190674 -0.4420170187950134 0.1343144178390503 253 181 45
-0.523063600063324 -0.4201773703098297 0.08135197311639786 253 188 42
-0.5103347301483154 -0.42291513085365295 0.06060771271586418 253 190 41
-0.5370197296142578 -0.34230759739875793 0.05190239101648331 253 190 41
-0.5527843236923218 -0.3834151327610016 0.03234516829252243 253 188 42
-0.5454636216163635 -0.2967953681945801 0.0020071491599082947 253 182 45
-0.5803736448287964 -0.185184046626091 -0.08503736555576324 253 179 46
-0.5402092337608337 -0.2561247646808624 -0.0727771520614624 253 175 49
-0.45803654193878174 -0.14983926713466644 -0.10520324110984802 252 172 50
-0.43135595321655273 -0.15154416859149933 -0.21650828421115875 253 175 49
-0.36614105105400085 -0.0742047131061554 -0.26646336913108826 253 181 45
-0.3807050287723541 -0.040696967393159866 -0.2842899560928345 253 184 44
-0.3219999074935913 -0.045376382768154144 -0.2784256935119629 253 185 43
-0.3416689932346344 -0.08154281228780746 -0.25691866874694824 253 185 43
-0.2953417897224426 -0.201370969414711 -0.1606878936290741 253 187 43
-0.30487483739852905 -0.28125476837158203 -0.12082409858703613 253 182 45
-0.2863011658191681 -0.3896753787994385 -0.023438118398189545 251 162 56
-0.3044707477092743 -0.42325469851493835 0.03787393495440483 249 154 60
-0.32841092348098755 -0.44709083437919617 0.07934972643852234 248 152 62
-0.32644107937812805 -0.45438334345817566 0.05897792428731918 248 152 62
-0.32371723651885986 -0.44953998923301697 -0.005726309958845377 249 154 60
-0.3101341426372528 -0.41476088762283325 0.0010182856349274516 250 156 59
-0.3366038501262665 -0.34466660022735596 -0.033407989889383316 249 153 61
-0.34157705307006836 -0.35183751583099365 -0.005445769522339106 247 147 65
-0.3179917633533478 -0.35176655650138855 -0.004120389930903912 245 139 70
-0.3226817548274994 -0.3866797983646393 -0.01296912133693695 242 132 75
-0.3080344796180725 -0.3717670440673828 0.07909318059682846 239 125 79
-0.35125458240509033 -0.4017568528652191 0.10462715476751328 236 119 84
-0.3701496422290802 -0.4139363169670105 0.10825083404779434 234 115 86
-0.40641605854034424 -0.394000381231308 0.05786154046654701 233 114 87
-0.3961928188800812 -0.4156283438205719 0.034944117069244385 234 116 85
-0.3981713354587555 -0.3643389940261841 0.011405020952224731 237 123 81
-0.4131897985935211 -0.2894127070903778 -0.02624257281422615 238 124 80
-0.43123161792755127 -0.22470101714134216 -0.09152474999427795 240 128 77
-0.422778844833374 -0.1942490190267563 -0.08679605275392532 239 125 79
-0.43616390228271484 -0.13276870548725128 -0.11561133712530136 238 124 80
-0.44103705883026123 -0.1493227630853653 -0.1996021419763565 237 121 82
-0.3969273567199707 -0.1315697431564331 -0.20504522323608398 236 120 83
-0.38906556367874146 -0.031158261001110077 -0.26760217547416687 234 116 85
-0.4023706316947937 -0.026218324899673462 -0.3340258300304413 236 119 84
-0.35009387135505676 0.09121858328580856 -0.3408946990966797 234 116 85
-0.3491640090942383 0.07558026164770126 -0.37156614661216736 237 121 82
-0.3130076229572296 0.07263976335525513 -0.3431950807571411 242 133 74
-0.3297567367553711 0.11426710337400436 -0.3220175802707672 247 146 65
-0.3207828104496002 0.0768662840127945 -0.2885616421699524 248 150 63
-0.3316231966018677 0.05639895796775818 -0.30347082018852234 245 139 70
-0.3187897801399231 0.010445521213114262 -0.2975809872150421 247 147 65
-0.34045010805130005 0.04686227813363075 -0.30266979336738586 248 150 63
-0.3559083640575409 0.07278073579072952 -0.30092522501945496 248 150 63
-0.33267149329185486 0.08193884789943695 -0.3253186345100403 247 146 65
-0.3228423595428467 0.09211765229701996 -0.33266139030456543 244 138 71
-0.33070942759513855 0.10575476288795471 -0.32114607095718384 244 137 71
-0.3071921765804291 0.1392703354358673 -0.34687572717666626 245 139 70
-0.3187814950942993 0.13576357066631317 -0.34561240673065186 246 143 67
-0.30894792079925537 0.14088371396064758 -0.3384663760662079 247 146 65
-0.2988588809967041 0.15462373197078705 -0.33478453755378723 249 153 61
-0.29856735467910767 0.16182345151901245 -0.34115496277809143 248 152 62
-0.27960285544395447 0.13929373025894165 -0.32696133852005005 247 147 65
-0.26110583543777466 0.14224475622177124 -0.31032130122184753 246 145 66
-0.26121941208839417 0.1075214222073555 -0.2895495295524597 246 142 68
-0.25841543078422546 0.09996270388364792 -0.2580936551094055 245 139 70
-0.32949602603912354 0.10649744421243668 -0.26590052247047424 245 141 69
-0.35172539949417114 0.04421749711036682 -0.20815330743789673 245 141 69
-0.3236307203769684 -0.006536563858389854 -0.22742442786693573 246 142 68
-0.31055647134780884 0.05164943262934685 -0.2760978937149048 245 141 69
-0.279198557138443 0.10758364200592041 -0.2964392900466919 245 141 69
-0.25686341524124146 0.21271976828575134 -0.31083765625953674 243 134 73
-0.22884036600589752 0.2843332290649414 -0.33522650599479675 237 121 82
-0.22398696839809418 0.3073822557926178 -0.3153766095638275 233 114 87
-0.2295990139245987 0.3430883288383484 -0.3509916663169861 229 108 91
-0.2362576127052307 0.32187047600746155 -0.31917986273765564 232 112 89
-0.2611713409423828 0.300454318523407 -0.31414520740509033 231 110 90
-0.2653752863407135 0.3001013994216919 -0.27774903178215027 229 107 92
-0.25793734192848206 0.31086376309394836 -0.2839713394641876 223 98 98
-0.2377636879682541 0.35083141922950745 -0.33829060196876526 219 91 103
-0.24455700814723969 0.394967257976532 -0.3452792465686798 218 90 104
-0.28199028968811035 0.4265945553779602 -0.37920448184013367 221 95 101
-0.27353063225746155 0.42637407779693604 -0.3686436712741852 222 96 100
-0.27430394291877747 0.39648085832595825 -0.39296597242355347 223 97 99
-0.23338939249515533 0.3518451154232025 -0.4000340700149536 223 97 99
-0.19679108262062073 0.3047937750816345 -0.41229113936424255 224 100 97
-0.19164809584617615 0.31334996223449707 -0.3843107521533966 224 100 97
-0.17543593049049377 0.35274437069892883 -0.3637576401233673 224 100 97
-0.14610698819160461 0.4186243712902069 -0.33073779940605164 225 101 96
-0.06841441988945007 0.45259231328964233 -0.3803481161594391 226 102 96
-0.07314775884151459 0.48057636618614197 -0.3854466676712036 226 102 96
-0.08459155261516571 0.49870771169662476 -0.4013901948928833 226 102 96
-0.08682108670473099 0.514594316482544 -0.38021525740623474 226 102 96
-0.08841951936483383 0.5413649082183838 -0.3943699598312378 226 102 96
-0.09188423305749893 0.5424772500991821 -0.4026673138141632 227 103 95
-0.09452410787343979 0.5633946061134338 -0.4062846004962921 227 104 94
-0.12678521871566772 0.579908013343811 -0.4191979765892029 227 103 95
-0.17062552273273468 0.5732079744338989 -0.41793063282966614 227 103 95
-0.1838291436433792 0.5591481924057007 -0.4224262833595276 227 103 95
-0.17414787411689758 0.5275894403457642 -0.42744678258895874 227 103 95
-0.19974318146705627 0.5035723447799683 -0.42743176221847534 227 104 94
-0.2136475294828415 0.49313557147979736 -0.4134475588798523 227 104 94
-0.2684941291809082 0.47643154859542847 -0.4192824363708496 227 104 94
-0.2523447275161743 0.43731576204299927 -0.43007609248161316 227 104 94
-0.2636045515537262 0.4158112108707428 -0.4027964770793915 227 103 95
-0.2637631297111511 0.39536285400390625 -0.3833036422729492 223 98 98
-0.27959081530570984 0.377806156873703 -0.40132981538772583 223 97 99
-0.29588446021080017 0.33043602108955383 -0.3976636826992035 221 95 101
-0.29307302832603455 0.2655242383480072 -0.3729226291179657 221 95 101
-0.2879653573036194 0.23131854832172394 -0.37045302987098694 220 94 102
-0.33375534415245056 0.21980810165405273 -0.3348865807056427 220 94 102
-0.31780683994293213 0.20276948809623718 -0.32920822501182556 221 95 101
-0.28789952397346497 0.16556164622306824 -0.3316563367843628 222 96 100
-0.318574458360672 0.16770943999290466 -0.351087749004364 223 97 99
-0.33204102516174316 0.16768857836723328 -0.34448695182800293 223 98 98
-0.32333147525787354 0.13606701791286469 -0.37101781368255615 224 100 97
-0.300316721200943 0.16893738508224487 -0.3829231262207031 225 101 96
-0.30820244550704956 0.12072714418172836 -0.3947291076183319 226 102 96
-0.2889418303966522 0.23115511238574982 -0.3725332021713257 227 103 95
-0.30091410875320435 0.3136986494064331 -0.4228399097919464 227 104 94
-0.32931020855903625 0.30724090337753296 -0.49977198243141174 227 104 94
-0.2805003821849823 0.2874947190284729 -0.4670058488845825 228 106 93
-0.2838432788848877 0.3544045686721802 -0.49620458483695984 228 106 93
-0.2821677029132843 0.37003612518310547 -0.47673410177230835 228 106 93
-0.2701960504055023 0.46135419607162476 -0.5170943737030029 228 106 93
-0.22647342085838318 0.46553951501846313 -0.5360756516456604 228 106 93
-0.27468034625053406 0.4677237868309021 -0.5484578609466553 228 106 93
-0.2537945508956909 0.4741668999195099 -0.5392147302627563 229 107 92
-0.23433275520801544 0.46794232726097107 -0.53776615858078 229 107 92
-0.22805197536945343 0.44737452268600464 -0.5438944101333618 229 107 92
-0.23057526350021362 0.4108508825302124 -0.5275707244873047 229 107 92
-0.19970189034938812 0.4141932427883148 -0.5151568651199341 229 107 92
-0.15954484045505524 0.44846272468566895 -0.5222392082214355 229 108 91
-0.17471742630004883 0.46043646335601807 -0.5131456851959229 229 108 91
-0.12810847163200378 0.46045032143592834 -0.4877380132675171 229 108 91
-0.07343626767396927 0.47998046875 -0.5311282873153687 229 108 91
-0.048782724887132645 0.452217698097229 -0.5103123784065247 229 108 91
-0.03596296161413193 0.4515637159347534 -0.5142355561256409 229 108 91
-0.0045743295922875404 0.4714216887950897 -0.49757999181747437 229 108 91
0.003601697040721774 0.4417976140975952 -0.5110864043235779 229 108 91
0.012003070674836636 0.4537629783153534 -0.48865029215812683 229 108 91
0.06166659668087959 0.4193879961967468 -0.43222278356552124 230 109 90
0.09825452417135239 0.4682748317718506 -0.446431040763855 230 109 90
0.17428547143936157 0.44943949580192566 -0.41586363315582275 230 109 90
0.2622104287147522 0.4774009883403778 -0.4251231551170349 228 106 93
0.35230374336242676 0.4560542106628418 -0.394927978515625 223 98 98
0.37606576085090637 0.4501224160194397 -0.3664388060569763 222 96 100
0.428241491317749 0.42863842844963074 -0.31585392355918884 222 96 100
0.5015966296195984 0.3515731692314148 -0.23152780532836914 218 90 104
0.5498504638671875 0.309638649225235 -0.15198419988155365 214 85 109
0.5947461128234863 0.2371366322040558 -0.09429170191287994 212 82 110
0.6088126301765442 0.17722366750240326 -0.017825307324528694 210 80 112
0.6069395542144775 0.12260330468416214 0.029555365443229675 208 77 115
0.6185731291770935 0.0925624892115593 0.08326265215873718 205 73 117
0.6103780269622803 0.10408370941877365 0.07535198330879211 201 69 121
0.5933166146278381 0.0642266646027565 0.0767880231142044 200 68 122
0.5985773205757141 0.03879491612315178 0.07184979319572449 198 65 124
0.6058005094528198 -0.02241898514330387 0.12962649762630463 195 62 127
0.5782365202903748 -0.031035052612423897 0.16311047971248627 200 68 122
0.5837945938110352 -0.04125385358929634 0.15950742363929749 205 73 117
0.5504831075668335 -0.067380890250206 0.19408275187015533 209 78 114
0.5544477701187134 -0.0290725976228714 0.18161408603191376 210 80 112
0.5522454977035522 -0.025109602138400078 0.17947059869766235 212 82 110
0.5423300266265869 -0.014437292702496052 0.19669537246227264 215 86 108
0.5429350137710571 0.025247909128665924 0.19864989817142487 217 89 105
0.5501912832260132 0.007166653871536255 0.19184185564517975 220 93 102
0.54075688123703 -0.013430352322757244 0.20306022465229034 220 94 102
0.5239623785018921 -0.032130297273397446 0.22900086641311646 222 96 100
0.5209488868713379 -0.046409208327531815 0.2628999948501587 221 95 101
0.5053794384002686 -0.04054173082113266 0.26437678933143616 221 95 101
0.5215128660202026 -0.01819777674973011 0.25190287828445435 220 93 102
0.5197031497955322 -0.06129036471247673 0.24912060797214508 221 95 101
0.545181930065155 -0.0219451654702425 0.2582273781299591 221 95 101
0.5314342379570007 0.02061135321855545 0.25606873631477356 221 95 101
0.5092979073524475 0.07365748286247253 0.23785275220870972 218 90 104
0.5393752455711365 0.09822556376457214 0.2166278064250946 210 80 112
0.529289186000824 0.15173526108264923 0.18054597079753876 203 71 119
0.5334802269935608 0.16363844275474548 0.19769421219825745 194 61 128
0.5408710241317749 0.14782336354255676 0.18007159233093262 190 56 131
0.5323145389556885 0.22667236626148224 0.14607180655002594 187 53 134
0.5398483276367188 0.19060301780700684 0.13545747101306915 183 48 138
0.5495008230209351 0.2110668271780014 0.11960653960704803 180 45 141
0.5379158854484558 0.2078837901353836 0.11997572332620621 174 39 145
0.5394497513771057 0.19683687388896942 0.09727218002080917 172 37 147
0.5429462790489197 0.24680441617965698 0.07542364299297333 172 37 147
0.5149881839752197 0.242131769657135 0.03696808964014053 169 35 149
0.5268861651420593 0.21719752252101898 0.04496701806783676 168 34 150
0.5510430932044983 0.18165570497512817 0.043902285397052765 163 29 153
0.5709705948829651 0.09871381521224976 0.11844440549612045 160 27 155
0.5533388257026672 0.033197253942489624 0.19177232682704926 158 25 156
0.5172260403633118 -0.02099638618528843 0.24754667282104492 155 23 158
0.5203676819801331 -0.09709642827510834 0.29229700565338135 155 23 158
0.5108461380004883 -0.11282145977020264 0.32512590289115906 150 18 160
0.4872783422470093 -0.17626652121543884 0.3593124747276306 143 13 163
0.47280943393707275 -0.2058129906654358 0.3900929391384125 144 14 163
0.44288381934165955 -0.26747459173202515 0.4152890145778656 143 13 163
0.44451746344566345 -0.2881661057472229 0.42333388328552246 143 13 163
0.42506280541419983 -0.31078070402145386 0.4489590525627136 140 10 164
0.4162576496601105 -0.2952047884464264 0.44523167610168457 142 12 164
0.4143162965774536 -0.3088892996311188 0.4472008943557739 139 9 164
0.41566720604896545 -0.30618607997894287 0.4270724654197693 137 8 165
0.3939497172832489 -0.31741926074028015 0.42795759439468384 143 13 163
0.40587088465690613 -0.3089543581008911 0.4255831837654114 155 23 158
0.41128021478652954 -0.2925146520137787 0.42807939648628235 159 26 155
0.4190211296081543 -0.3130604922771454 0.40357136726379395 159 26 155
0.4167681932449341 -0.2855987548828125 0.4211139678955078 159 26 155
0.41449737548828125 -0.27215486764907837 0.4272957742214203 159 26 155
0.412871778011322 -0.2677610516548157 0.44118985533714294 159 26 155
0.4411233961582184 -0.2587079107761383 0.4154731035232544 155 23 158
0.4185419976711273 -0.2763758599758148 0.41299381852149963 155 23 158
0.42315977811813354 -0.260670930147171 0.3970060348510742 155 23 158
0.4192012548446655 -0.27696138620376587 0.39732491970062256 157 24 157
0.43636205792427063 -0.2605695426464081 0.41529417037963867 158 25 156
0.44090214371681213 -0.2688204050064087 0.4135511517524719 160 27 155
0.4517771601676941 -0.2757328450679779 0.42519330978393555 163 29 153
0.4546985626220703 -0.2975854277610779 0.4238072633743286 163 29 153
0.4323309063911438 -0.3248676359653473 0.4378792941570282 162 28 154
0.40910816192626953 -0.3365810215473175 0.4608362317085266 160 27 155
0.42469286918640137 -0.33755889534950256 0.44430315494537354 160 27 155
0.4374300241470337 -0.3372364938259125 0.44466632604599 160 27 155
0.43104979395866394 -0.3213561177253723 0.43148767948150635 158 25 156
0.4486430585384369 -0.3396492600440979 0.42402520775794983 157 24 157
0.4587235748767853 -0.33042970299720764 0.4424951672554016 155 23 158
0.44891491532325745 -0.33791112899780273 0.43441811203956604 158 25 156
0.45825889706611633 -0.3202912211418152 0.42915990948677063 160 27 155
0.4694850444793701 -0.3458937108516693 0.4338710904121399 160 27 155
0.4565981328487396 -0.33995822072029114 0.4072166979312897 163 29 153
0.4614908695220947 -0.375680536031723 0.4304584562778473 164 30 152
0.4790779948234558 -0.35566455125808716 0.43833962082862854 164 30 152
0.4706391990184784 -0.3849024772644043 0.4397958219051361 164 30 152
0.4547364115715027 -0.38925594091415405 0.44164541363716125 163 29 153
0.4574940502643585 -0.41709384322166443 0.45465925335884094 162 28 154
0.4521973431110382 -0.4254821538925171 0.46730107069015503 160 27 155
0.427387535572052 -0.435516357421875 0.4768129289150238 160 27 155
0.4274623692035675 -0.4414215087890625 0.4814828038215637 160 27 155
0.4136962890625 -0.43708470463752747 0.4916599690914154 160 27 155
0.40025123953819275 -0.4405842423439026 0.4887455403804779 160 27 155
0.3936587870121002 -0.43496760725975037 0.49517834186553955 160 27 155
0.3867028057575226 -0.43145477771759033 0.49855101108551025 162 28 154
0.37483125925064087 -0.4272983968257904 0.5006979703903198 164 30 152
0.37122341990470886 -0.43103861808776855 0.5016050338745117 163 29 153
0.36093658208847046 -0.4301864802837372 0.5096378326416016 163 29 153
0.3600465953350067 -0.4280594289302826 0.5096046924591064 163 29 153
0.34993332624435425 -0.4253000020980835 0.5077902674674988 160 27 155
0.3415288031101227 -0.4226813018321991 0.5123445391654968 160 27 155
0.3392517566680908 -0.41945141553878784 0.513005256652832 160 27 155
0.3393724262714386 -0.4181217551231384 0.5108670592308044 160 27 155
0.3358311355113983 -0.41887786984443665 0.5135946869850159 160 27 155
0.33518415689468384 -0.414659708738327 0.5157911777496338 162 28 154
0.3353443741798401 -0.4184812307357788 0.5094850063323975 162 28 154
0.34166383743286133 -0.4107576012611389 0.5067794919013977 163 29 153
0.34130120277404785 -0.4116177558898926 0.5038940906524658 164 30 152
0.3520202934741974 -0.41384053230285645 0.498216837644577 165 31 151
0.3535134196281433 -0.4245692789554596 0.5032011270523071 165 31 151
0.3490709662437439 -0.42118120193481445 0.5058754682540894 165 31 151
0.33636265993118286 -0.42009735107421875 0.5054935812950134 164 30 152
0.3492843210697174 -0.4005293846130371 0.5094422698020935 164 30 152
0.3412027359008789 -0.4180695712566376 0.5084315538406372 164 30 152
0.33738023042678833 -0.4196318984031677 0.5088517069816589 163 29 153
0.34018123149871826 -0.421957790851593 0.50907963514328 162 28 154
0.3359370231628418 -0.4202057123184204 0.5025920867919922 160 27 155
0.3470071852207184 -0.4132779538631439 0.5063891410827637 160 27 155
0.33875319361686707 -0.41437822580337524 0.5067774057388306 160 27 155
0.33850741386413574 -0.4066650867462158 0.5082628130912781 160 27 155
0.3402291238307953 -0.41394150257110596 0.5025997757911682 162 28 154
0.3439860939979553 -0.40894386172294617 0.5062360167503357 163 29 153
0.3401930034160614 -0.41416656970977783 0.5051197409629822 164 30 152
0.3418157398700714 -0.41225746273994446 0.5004571676254272 164 30 152
0.3447907269001007 -0.4095589816570282 0.5046125650405884 162 28 154
0.35126426815986633 -0.41940104961395264 0.5025415420532227 162 28 154
0.3525114357471466 -0.4143345057964325 0.5047093033790588 162 28 154
0.34643295407295227 -0.41040003299713135 0.504212498664856 162 28 154
0.34857630729675293 -0.4186229407787323 0.49830812215805054 162 28 154
0.36131468415260315 -0.4243147075176239 0.5041324496269226 163 29 153
0.35901492834091187 -0.4325897991657257 0.5115363001823425 163 29 153
0.3542996048927307 -0.43179744482040405 0.5178730487823486 163 29 153
0.35044369101524353 -0.4343932271003723 0.5185191631317139 163 29 153
0.34752267599105835 -0.43164992332458496 0.5204915404319763 163 29 153
0.34072989225387573 -0.43202170729637146 0.523981511592865 164 30 152
0.33652058243751526 -0.42993950843811035 0.5261927843093872 165 31 151
0.33730900287628174 -0.43431782722473145 0.5272323489189148 164 30 152
0.33730074763298035 -0.43447887897491455 0.5324578881263733 163 29 153
0.3386019170284271 -0.42620328068733215 0.5312095880508423 163 29 153
0.330240935087204 -0.4303049147129059 0.5300025939941406 164 30 152
0.33210909366607666 -0.41999340057373047 0.5316405296325684 164 30 152
0.3300483822822571 -0.41278645396232605 0.5276334285736084 164 30 152
0.32763534784317017 -0.41299137473106384 0.5275861620903015 164 30 152
0.33022812008857727 -0.4130926728248596 0.525282084941864 163 29 153
0.34400826692581177 -0.4159318804740906 0.5244886875152588 163 29 153
0.3370583951473236 -0.4182502031326294 0.5281830430030823 163 29 153
0.33678656816482544 -0.4124050736427307 0.52739018201828 164 30 152
0.3394486904144287 -0.40793436765670776 0.5259054899215698 165 31 151
0.3381977677345276 -0.4090847373008728 0.5214957594871521 165 31 151
0.3423958718776703 -0.4017106592655182 0.519400954246521 164 30 152
0.34760144352912903 -0.407307505607605 0.5188453793525696 165 31 151
0.35745999217033386 -0.41030246019363403 0.5198471546173096 167 33 151
0.3534563481807709 -0.4179270565509796 0.5178871750831604 165 31 151
0.35360559821128845 -0.41628316044807434 0.5177875757217407 165 31 151
0.35980024933815 -0.41886571049690247 0.512877345085144 164 30 152
0.367738276720047 -0.4184955358505249 0.5181801319122314 164 30 152
0.3729512691497803 -0.41713547706604004 0.5105554461479187 164 30 152
0.3690299093723297 -0.42294609546661377 0.5115304589271545 163 29 153
0.37325066328048706 -0.4184017479419708 0.5139667391777039 163 29 153
0.37502989172935486 -0.4114859402179718 0.5088455080986023 163 29 153
0.37417346239089966 -0.4124917984008789 0.5062554478645325 163 29 153
0.37841686606407166 -0.41181308031082153 0.5039143562316895 163 29 153
0.38741058111190796 -0.4122731387615204 0.4986884891986847 163 29 153
0.3864631950855255 -0.41816678643226624 0.5057485103607178 163 29 153
0.3874224126338959 -0.4174789488315582 0.506461501121521 163 29 153
0.3847848176956177 -0.41456836462020874 0.5012478232383728 163 29 153
0.3847224712371826 -0.4116564989089966 0.5041709542274475 163 29 153
0.39091312885284424 -0.4078744649887085 0.4998134970664978 162 28 154
0.3956091105937958 -0.4056679606437683 0.4975801110267639 160 27 155
0.39791038632392883 -0.40529319643974304 0.4952890872955322 163 29 153
0.39835047721862793 -0.39983466267585754 0.49955514073371887 165 31 151
0.38926956057548523 -0.40290898084640503 0.4926677346229553 167 33 151
0.39332297444343567 -0.390882283449173 0.4913201630115509 167 33 151
0.39669787883758545 -0.3934550881385803 0.4945249557495117 167 33 151
0.40222907066345215 -0.3921661972999573 0.4959542155265808 163 29 153
0.4013199806213379 -0.38938647508621216 0.4964908957481384 163 29 153
0.38688838481903076 -0.3953859806060791 0.49095338582992554 163 29 153
0.3977964222431183 -0.38689321279525757 0.5024009943008423 160 27 155
0.39057138562202454 -0.39726367592811584 0.49374592304229736 160 27 155
0.3899528682231903 -0.392104834318161 0.49428290128707886 157 24 157
0.38877302408218384 -0.3975350856781006 0.5014269948005676 154 21 158
0.3872397243976593 -0.40082693099975586 0.49115249514579773 158 25 156
0.3923184275627136 -0.3959132134914398 0.49690815806388855 159 26 155
0.3836687505245209 -0.40152713656425476 0.4961349070072174 158 25 156
0.3846135437488556 -0.3961845636367798 0.4977702498435974 159 26 155
0.38705357909202576 -0.39365154504776 0.49207189679145813 159 26 155
0.3885252773761749 -0.3859129250049591 0.4971810281276703 155 23 158
0.38540375232696533 -0.3738117516040802 0.4896095395088196 149 17 161
0.3880060911178589 -0.3721236288547516 0.47407612204551697 140 10 164
0.4073392152786255 -0.35633009672164917 0.4817500412464142 134 7 166
0.3964434266090393 -0.3570577800273895 0.4745197296142578 129 4 167
0.3889680802822113 -0.34679368138313293 0.4750089645385742 120 1 168
0.39864033460617065 -0.33591893315315247 0.4644443392753601 111 0 168
0.3949519693851471 -0.33821791410446167 0.4626331627368927 108 0 168
0.41177496314048767 -0.3302718698978424 0.4624772369861603 103 0 167
0.4039038419723511 -0.32441943883895874 0.466955304145813 101 0 167
0.39542248845100403 -0.31026679277420044 0.4554799795150757 92 0 165
0.39378514885902405 -0.2970890998840332 0.44861680269241333 84 1 163
0.4068053960800171 -0.2915160357952118 0.45348718762397766 76 2 161
0.4084433317184448 -0.2919176518917084 0.4473355710506439 69 3 158
0.4041924476623535 -0.27895066142082214 0.44202107191085815 64 3 156
0.4213361442089081 -0.2739429175853729 0.4260733723640442 59 3 154
0.43442609906196594 -0.286032110452652 0.4243351221084595 56 4 153
0.4480322599411011 -0.2656550109386444 0.4236152172088623 52 4 152
0.4364301860332489 -0.2690821588039398 0.4308803081512451 56 4 153
0.4202336072921753 -0.2516050636768341 0.4326266944408417 56 4 153
0.4266399145126343 -0.25954678654670715 0.421797513961792 63 3 156
0.43324947357177734 -0.2577481269836426 0.426143616437912 59 3 154
0.4366396367549896 -0.25816237926483154 0.4145999252796173 56 4 153
0.441178560256958 -0.2395399957895279 0.4140918254852295 54 4 152
0.43273457884788513 -0.22453747689723969 0.4024684727191925 63 3 156
0.4256816506385803 -0.18757638335227966 0.3825478255748749 73 2 159
0.426289439201355 -0.1371362954378128 0.3589089810848236 78 2 161
0.44446998834609985 -0.10855969041585922 0.3092750310897827 78 2 161
0.4804500639438629 -0.10825087875127792 0.29422527551651 82 1 163
0.5126913785934448 -0.1379607766866684 0.3047770857810974 98 0 166
0.5094786286354065 -0.1365938037633896 0.33743035793304443 103 0 167
0.47912129759788513 -0.16087676584720612 0.3581947982311249 104 0 167
0.44137874245643616 -0.16679008305072784 0.363614559173584 111 0 168
0.4516870677471161 -0.16309884190559387 0.35315436124801636 112 0 168
0.47328442335128784 -0.1711229681968689 0.3450941741466522 124 2 167
0.4780137538909912 -0.1631132960319519 0.33690953254699707 136 7 165
0.4798702895641327 -0.14777466654777527 0.3233695924282074 154 21 158
0.4869251549243927 -0.13483476638793945 0.3201703429222107 168 34 150
0.4848141670227051 -0.11192493885755539 0.3011058270931244 177 43 143
0.5001967549324036 -0.11150068789720535 0.3071810007095337 187 53 134
0.49519380927085876 -0.09235251694917679 0.31516793370246887 189 55 132
0.46443161368370056 -0.1389475017786026 0.3019540309906006 195 62 127
0.4691498875617981 -0.197946697473526 0.3413274884223938 199 66 123
0.4393777847290039 -0.23110109567642212 0.4121818542480469 195 62 127
0.40775126218795776 -0.26898112893104553 0.4433453381061554 196 63 126
0.40406981110572815 -0.26210176944732666 0.449388712644577 187 53 134
0.40317070484161377 -0.25339266657829285 0.4378727972507477 184 50 137
0.3998090922832489 -0.2639109492301941 0.41410037875175476 187 53 134
0.4182758331298828 -0.24804376065731049 0.42546623945236206 188 54 133
0.4025118052959442 -0.21634459495544434 0.40293392539024353 187 53 134
0.3723570704460144 -0.23667989671230316 0.4017152786254883 182 47 139
0.3904559016227722 -0.2398676723241806 0.41403210163116455 169 35 149
0.3961838185787201 -0.23507775366306305 0.43654265999794006 162 28 154
0.4249844551086426 -0.26480841636657715 0.42758822441101074 155 23 158
0.47876185178756714 -0.23772142827510834 0.4644007682800293 151 19 160
0.4508003294467926 -0.28518691658973694 0.450684517621994 153 20 159
0.40792158246040344 -0.26591649651527405 0.4611189365386963 154 21 158
0.4023849368095398 -0.30181246995925903 0.44440537691116333 153 20 159
0.434745192527771 -0.29747793078422546 0.4525385797023773 143 13 163
0.42391863465309143 -0.29878756403923035 0.4405284523963928 143 13 163
0.41604310274124146 -0.27690187096595764 0.43094509840011597 139 9 164
0.4247414469718933 -0.26464220881462097 0.4003300368785858 137 8 165
0.4479314982891083 -0.2920125424861908 0.37859252095222473 143 13 163
0.45935142040252686 -0.2892323136329651 0.4032599925994873 150 18 160
0.4519411027431488 -0.2875595688819885 0.4216950237751007 150 18 160
0.4231370687484741 -0.3230477273464203 0.4458867907524109 143 13 163
0.4139976501464844 -0.3319503664970398 0.43654605746269226 140 10 164
0.4119056165218353 -0.3192543387413025 0.4613288938999176 144 14 163
0.3954443037509918 -0.3483494520187378 0.4566221237182617 142 12 164
0.40365493297576904 -0.33425652980804443 0.45994266867637634 146 15 162
0.4116840064525604 -0.31210365891456604 0.4493560492992401 144 14 163
0.3845805823802948 -0.3225601613521576 0.4454038739204407 143 13 163
0.40385305881500244 -0.30990538001060486 0.4346458315849304 142 12 164
0.397113561630249 -0.2876797318458557 0.43619751930236816 143 13 163
0.4120921194553375 -0.2706155776977539 0.415598064661026 144 14 163
0.41792061924934387 -0.2859591841697693 0.42749616503715515 146 15 162
0.4298937916755676 -0.2638517916202545 0.419038861989975 144 14 163
0.4138462543487549 -0.27092424035072327 0.41183120012283325 146 15 162
0.41572248935699463 -0.27562081813812256 0.40743184089660645 146 15 162
0.41140997409820557 -0.2774564027786255 0.4211297631263733 144 14 163
0.4059251546859741 -0.24558429419994354 0.43409743905067444 146 15 162
0.378984659910202 -0.24672338366508484 0.4166872203350067 154 21 158
0.3746558725833893 -0.24687092006206512 0.40286943316459656 147 16 161
0.3772861957550049 -0.235942542552948 0.4080568552017212 151 19 160
0.36257368326187134 -0.21778613328933716 0.40605083107948303 158 25 156
0.3991319239139557 -0.2272946834564209 0.39042413234710693 159 26 155
0.36774516105651855 -0.22473831474781036 0.4059683680534363 157 24 157
0.35609710216522217 -0.24070195853710175 0.3980310559272766 160 27 155
0.3519378900527954 -0.2274795025587082 0.3955076038837433 164 30 152
0.3504023253917694 -0.21832598745822906 0.3970188796520233 165 31 151
0.3217657506465912 -0.21937978267669678 0.3853738307952881 164 30 152
0.3553241193294525 -0.2091069221496582 0.38065439462661743 170 36 148
0.34291157126426697 -0.19355082511901855 0.3890336751937866 172 37 147
0.3177534341812134 -0.16896913945674896 0.3552778363227844 175 40 144
0.31697383522987366 -0.12744036316871643 0.2866196632385254 173 38 146
0.32100123167037964 -0.07471310347318649 0.2842162251472473 168 34 150
0.27691322565078735 -0.023420186713337898 0.26095274090766907 165 31 151
0.2660024166107178 -0.05657884478569031 0.19778649508953094 159 26 155
0.25438302755355835 -0.034653712064027786 0.20112667977809906 158 25 156
0.2591181993484497 -0.0009648475679568946 0.1995261162519455 164 30 152
0.29582443833351135 0.006369417998939753 0.1784900724887848 167 33 151
0.27367910742759705 -0.019235465675592422 0.17794553935527802 173 38 146
0.21067841351032257 -0.035230834037065506 0.21782685816287994 174 39 145
0.17082536220550537 0.014622511342167854 0.18115128576755524 172 37 147
0.16580574214458466 0.05436786636710167 0.18527285754680634 167 33 151
0.1807478368282318 0.05563484877347946 0.16632910072803497 162 28 154
0.1952621340751648 -0.01119844801723957 0.15423588454723358 163 29 153
0.2163807451725006 -0.02617437206208706 0.1720900535583496 170 36 148
0.20052628219127655 -0.021027136594057083 0.19071415066719055 180 45 141
0.03086978569626808 -0.050344325602054596 0.2174270898103714 187 53 134
0.15469469130039215 -0.3638116717338562 0.21124261617660522 210 80 112
0.34322190284729004 0.13710074126720428 0.05026355758309364 143 13 163
0.47684720158576965 -0.1089894026517868 0.26736095547676086 139 9 164
0.5905722379684448 0.28222477436065674 -0.05004306510090828 139 9 164
0.4954317808151245 0.35205528140068054 -0.11209730803966522 134 7 166
0.5224617123603821 0.3762499690055847 -0.10627979785203934 126 3 167
0.5017287731170654 0.34509342908859253 -0.08168850839138031 111 0 168
0.5582051277160645 0.261247456073761 -0.033235203474760056 98 0 166
0.5522964000701904 0.23093870282173157 0.001796718337573111 90 0 165
0.5911977291107178 0.19546876847743988 0.03642895817756653 86 1 163
0.5905811190605164 0.18880365788936615 0.06430066376924515 81 1 162
0.5744932889938354 0.1391037404537201 0.09368530660867691 79 2 162
0.5944605469703674 0.12919442355632782 0.12309236079454422 78 2 161
0.6035966873168945 0.08581183105707169 0.1334693282842636 76 2 161
