ply
format ascii 1.0
element vertex 673
property float x
property float y
property float z
property uchar red
property uchar green
property uchar blue
end_header
0.30954551696777344 -0.12255021184682846 0.3869001269340515 253 185 43
0.3054434657096863 -0.11089274287223816 0.38244980573654175 253 181 45
0.3063969314098358 -0.1102222129702568 0.37630289793014526 253 175 49
0.31509125232696533 -0.09449093043804169 0.3455207049846649 252 169 52
0.30794858932495117 -0.06120738014578819 0.3063340485095978 251 164 54
0.2966586947441101 -0.029453933238983154 0.26025626063346863 251 163 55
0.28117603063583374 0.003251132555305958 0.16217778623104095 251 163 55
0.25772184133529663 0.058470554649829865 0.05677492171525955 251 162 56
0.21837541460990906 0.11326038092374802 -0.05481773987412453 251 163 55
0.18153280019760132 0.12570106983184814 -0.10330571979284286 252 167 53
0.14267024397850037 0.14588814973831177 -0.1369926780462265 252 169 52
0.1550121158361435 0.1518935114145279 -0.1688135266304016 252 173 49
0.15727871656417847 0.14585277438163757 -0.13771900534629822 253 175 49
0.1351560354232788 0.16994595527648926 -0.14936557412147522 253 182 45
0.12029194831848145 0.17448657751083374 -0.20336386561393738 253 184 44
0.08582468330860138 0.20454150438308716 -0.31253573298454285 253 190 41
0.0755874291062355 0.197157084941864 -0.3620463013648987 253 193 40
0.08562939614057541 0.15986117720603943 -0.35354873538017273 253 192 41
0.10546471178531647 0.14183194935321808 -0.3427773416042328 253 190 41
0.09987754374742508 0.12322390824556351 -0.31000158190727234 253 185 43
0.1544446051120758 0.0827920138835907 -0.23713545501232147 253 179 46
0.22303041815757751 0.059741273522377014 -0.13706475496292114 253 179 46
0.22553585469722748 0.055217038840055466 -0.07992681860923767 253 178 47
0.24879059195518494 0.04037925601005554 -0.026879584416747093 253 181 45
0.2597847282886505 0.024265402927994728 -0.0050358218140900135 253 195 40
0.3235095739364624 -0.04136548563838005 0.0274155605584383 253 195 40
0.3107314705848694 -0.08308706432580948 0.0599805973470211 253 192 41
0.34205031394958496 -0.11919766664505005 0.12499337643384933 253 192 41
0.34046489000320435 -0.11904935538768768 0.15660881996154785 253 192 41
0.3229212164878845 -0.13618624210357666 0.18208390474319458 253 190 41
0.3406202793121338 -0.16347573697566986 0.19923929870128632 253 192 41
0.3501533269882202 -0.1754593402147293 0.1961265206336975 253 192 41
0.3459145426750183 -0.17277175188064575 0.18357577919960022 253 192 41
0.32579338550567627 -0.1467364877462387 0.14860425889492035 253 193 40
0.34224456548690796 -0.14864957332611084 0.13174580037593842 253 196 39
0.32966160774230957 -0.11386291682720184 0.09875203669071198 253 196 39
0.34210142493247986 -0.13501770794391632 0.12913905084133148 252 199 38
0.3360714912414551 -0.12423950433731079 0.14357399940490723 251 208 36
0.34068357944488525 -0.12446229159832001 0.19078056514263153 248 221 36
0.33650457859039307 -0.120616614818573 0.23315806686878204 245 231 38
0.33145633339881897 -0.1454424262046814 0.2773221433162689 247 226 37
0.3450499475002289 -0.165245920419693 0.3024759888648987 243 236 38
0.3233688473701477 -0.16812554001808167 0.3438740670681 245 233 38
0.3276348114013672 -0.16288384795188904 0.35843396186828613 245 233 38
0.31357541680336 -0.15720416605472565 0.35622692108154297 244 234 38
0.3129500150680542 -0.1583234667778015 0.3620882034301758 246 229 37
0.3092305064201355 -0.15366865694522858 0.370084673166275 247 226 37
0.3104669451713562 -0.14394830167293549 0.36859071254730225 248 221 36
0.30623358488082886 -0.1257798820734024 0.3511536717414856 250 216 36
0.3070085644721985 -0.11290480941534042 0.348660409450531 251 209 36
0.31286507844924927 -0.11853159219026566 0.3561331331729889 251 209 36
0.3076528012752533 -0.1257505714893341 0.3602735102176666 250 216 36
0.30675941705703735 -0.12227901816368103 0.3491172194480896 252 201 38
0.28634339570999146 -0.11482919752597809 0.31833532452583313 253 190 41
0.3189953863620758 -0.10297760367393494 0.3149097263813019 253 193 40
0.305950790643692 -0.0802723690867424 0.2959918677806854 253 193 40
0.30774468183517456 -0.07992340624332428 0.2836630642414093 252 203 37
0.30062782764434814 -0.07885921001434326 0.26424580812454224 252 206 37
0.29172462224960327 -0.08508940041065216 0.2737021744251251 251 211 36
0.29480797052383423 -0.08116432279348373 0.2970796227455139 250 216 36
0.30374661087989807 -0.0886823982000351 0.2949425280094147 249 217 36
0.3098595142364502 -0.09026873111724854 0.2551208436489105 247 226 37
0.3006705045700073 -0.16887159645557404 0.24240154027938843 249 219 36
0.27946653962135315 -0.10465417057275772 -0.02512449398636818 251 211 36
0.06304085999727249 0.02460450865328312 -0.24317626655101776 253 196 39
0.05718650296330452 0.0861009806394577 -0.36709317564964294 253 185 43
-0.009404643438756466 0.10577274113893509 -0.42407694458961487 252 172 50
-0.034050580114126205 0.14303649961948395 -0.4258410632610321 251 162 56
-0.03214876726269722 0.16131804883480072 -0.44579535722732544 248 152 62
-0.016881603747606277 0.12319349497556686 -0.42205289006233215 248 150 63
0.0518512986600399 0.10084053874015808 -0.32880738377571106 248 149 64
0.0912897065281868 0.08856410533189774 -0.2531408965587616 246 145 66
0.12525784969329834 0.0722082182765007 -0.15970836579799652 246 142 68
0.15781763195991516 0.035884421318769455 -0.044815920293331146 244 138 71
0.17140927910804749 0.07424313575029373 -0.014933719299733639 244 137 71
0.18928000330924988 0.10912956297397614 -0.03317295387387276 243 134 73
0.19426943361759186 0.10042207688093185 -0.031450171023607254 238 124 80
0.16898885369300842 0.09141966700553894 -0.012928245589137077 232 112 89
0.1447937935590744 0.06724496185779572 0.0169379860162735 227 103 95
0.1329217553138733 0.08725424110889435 -0.006333023309707642 220 94 102
0.14419937133789062 0.08733115345239639 -0.023929376155138016 215 87 107
0.12462443113327026 0.06710802018642426 -0.01851429045200348 209 78 114
0.1486102044582367 0.03580839931964874 0.037541914731264114 197 64 125
0.18609628081321716 0.04395078867673874 0.04603271558880806 187 53 134
0.1642565280199051 0.06787807494401932 0.039769258350133896 180 45 141
0.168752521276474 0.06919971853494644 0.03890436515212059 173 38 146
0.20086202025413513 0.05208968743681908 0.03451303392648697 167 33 151
0.19877362251281738 0.03435983881354332 0.05847712978720665 165 31 151
0.2326163351535797 0.02529960311949253 0.09107884764671326 170 36 148
0.20293615758419037 0.039153050631284714 0.12426485866308212 177 43 143
0.2511460781097412 0.023201212286949158 0.19718658924102783 181 46 140
0.2180708944797516 -0.02411283552646637 0.23900540173053741 184 50 137
0.2170516401529312 -0.03169984742999077 0.2560473680496216 185 51 136
0.19830277562141418 -0.013949796557426453 0.28063198924064636 186 52 135
-0.09016437083482742 0.010875758714973927 0.26470574736595154 188 54 133
-0.257407009601593 0.05437638610601425 -0.048464830964803696 188 54 133
-0.3099878132343292 0.09167028963565826 -0.2556340992450714 189 55 132
-0.3301590085029602 0.048285383731126785 -0.3129030466079712 190 56 131
-0.2981316149234772 0.08091073483228683 -0.3536927103996277 185 51 136
-0.3169700801372528 0.11172285676002502 -0.37504324316978455 169 35 149
-0.2834875285625458 0.07039780914783478 -0.37217840552330017 159 26 155
-0.3303644359111786 0.06833379715681076 -0.36871159076690674 149 17 161
-0.2976604402065277 0.07304982095956802 -0.36902567744255066 134 7 166
-0.2878289222717285 0.07517226040363312 -0.37903109192848206 124 2 167
-0.3151741027832031 0.08201088011264801 -0.3119673430919647 112 0 168
-0.313416451215744 0.09783226251602173 -0.32057055830955505 106 0 167
-0.30507877469062805 0.10930276662111282 -0.3380277752876282 97 0 166
-0.31721362471580505 0.12189196795225143 -0.35355061292648315 89 1 164
-0.31316930055618286 0.1469251811504364 -0.3580012321472168 82 1 163
-0.3172256052494049 0.15307429432868958 -0.3712015748023987 78 2 161
-0.30719462037086487 0.13250134885311127 -0.3789931535720825 68 3 158
-0.3021266460418701 0.1256023645401001 -0.3979426622390747 69 3 158
-0.2954297959804535 0.11956072598695755 -0.4139438271522522 86 1 163
-0.29382336139678955 0.11042329668998718 -0.4154844582080841 98 0 166
-0.29431718587875366 0.10643461346626282 -0.4135214388370514 97 0 166
-0.294118195772171 0.09530597180128098 -0.40853893756866455 100 0 167
-0.28306445479393005 0.07570000737905502 -0.39607739448547363 104 0 167
-0.2838878333568573 0.061389945447444916 -0.37811413407325745 114 0 168
-0.277462363243103 0.04026417061686516 -0.3591572940349579 118 1 168
-0.27549153566360474 0.007372743915766478 -0.31975826621055603 126 3 167
-0.2639703154563904 -0.0018720240332186222 -0.2966878414154053 126 3 167
-0.2845427393913269 -0.006944045424461365 -0.29017022252082825 126 3 167
-0.28083792328834534 0.02316199615597725 -0.3012999892234802 126 3 167
-0.28291603922843933 0.032462406903505325 -0.310018390417099 124 2 167
-0.2870847284793854 0.04022848606109619 -0.3279404640197754 118 1 168
-0.28167885541915894 0.04610298201441765 -0.32882505655288696 112 0 168
-0.28794947266578674 0.05362338572740555 -0.3297177255153656 108 0 168
-0.29069435596466064 0.056118838489055634 -0.327426016330719 104 0 167
-0.2912234663963318 0.0575028732419014 -0.33241844177246094 101 0 167
-0.2802913784980774 0.05003371462225914 -0.3295924663543701 101 0 167
-0.27281180024147034 0.034912675619125366 -0.31555452942848206 101 0 167
-0.26267310976982117 0.012677166610956192 -0.2954455018043518 95 0 166
-0.2571239471435547 -0.011473062448203564 -0.2691836953163147 92 0 165
-0.2504675090312958 -0.01074032112956047 -0.26089051365852356 92 0 165
-0.2621806859970093 0.0019564919639378786 -0.24891752004623413 87 1 164
-0.27630263566970825 0.02643192559480667 -0.2663559019565582 81 1 162
-0.2799506187438965 0.047256797552108765 -0.2791845500469208 71 2 159
-0.2830282151699066 0.05204389616847038 -0.29062774777412415 68 3 158
-0.29325395822525024 0.03816686570644379 -0.29960790276527405 68 3 158
-0.29426926374435425 0.0492391474545002 -0.3076282739639282 69 3 158
-0.2964944839477539 0.06055071949958801 -0.30493390560150146 68 3 158
-0.29519224166870117 0.055484380573034286 -0.3035314977169037 64 3 156
-0.2975156009197235 0.04532100632786751 -0.2966441810131073 61 3 155
-0.2989281415939331 0.049486901611089706 -0.3012104034423828 58 4 154
-0.3105812668800354 0.06866639852523804 -0.310006707906723 54 4 152
-0.2989555299282074 0.07523252815008163 -0.31992796063423157 51 4 151
-0.29016581177711487 0.07630955427885056 -0.3245336413383484 49 4 150
-0.3012276589870453 0.07352648675441742 -0.3204999268054962 47 4 149
-0.3036576509475708 0.07003293931484222 -0.30867332220077515 45 4 148
-0.30100342631340027 0.06517744809389114 -0.31283462047576904 47 4 149
-0.29153871536254883 0.07328289747238159 -0.33287906646728516 45 4 148
-0.2949654757976532 0.07879044860601425 -0.3339662551879883 47 4 149
-0.29914453625679016 0.0746915340423584 -0.3380582630634308 51 4 151
-0.29829755425453186 0.07646995782852173 -0.3327271044254303 41 5 147
-0.302804172039032 0.08557216823101044 -0.3349376618862152 47 4 149
-0.31053245067596436 0.0932653620839119 -0.349153995513916 52 4 152
-0.29955750703811646 0.09672611951828003 -0.3720638155937195 59 3 154
-0.2963305115699768 0.10117494314908981 -0.3846646249294281 45 4 148
-0.3016375005245209 0.09413719922304153 -0.3777416944503784 45 4 148
-0.3056032061576843 0.08828933537006378 -0.3686026930809021 51 4 151
-0.2964147627353668 0.08129715919494629 -0.36953964829444885 47 4 149
-0.2918092608451843 0.07208888977766037 -0.3653023838996887 45 4 148
-0.2923543453216553 0.059296902269124985 -0.3569204807281494 49 4 150
-0.2870641350746155 0.04536505043506622 -0.3462999165058136 39 5 146
-0.2930033504962921 0.0419112965464592 -0.33284494280815125 37 5 145
-0.2864173948764801 0.05148257687687874 -0.325560063123703 39 5 146
-0.2878395915031433 0.04682845622301102 -0.3189392387866974 41 5 147
-0.2845010459423065 0.040566448122262955 -0.31498247385025024 41 5 147
-0.2863328754901886 0.0377747043967247 -0.31782782077789307 43 5 148
-0.2804908752441406 0.039718884974718094 -0.31976351141929626 39 5 146
-0.2821808159351349 0.04318187013268471 -0.32688310742378235 41 5 147
-0.2882598042488098 0.05132663622498512 -0.3346605896949768 43 5 148
-0.2880250811576843 0.05575872212648392 -0.3364502489566803 41 5 147
-0.2889149785041809 0.06320833414793015 -0.34579554200172424 45 4 148
-0.29563382267951965 0.06393810361623764 -0.3504163324832916 45 4 148
-0.288419634103775 0.0610240213572979 -0.34989985823631287 45 4 148
-0.28721654415130615 0.06551174074411392 -0.36106035113334656 47 4 149
-0.28973424434661865 0.0651998445391655 -0.36156290769577026 49 4 150
-0.28400081396102905 0.0651133581995964 -0.3600813150405884 47 4 149
-0.2896186411380768 0.062171656638383865 -0.36351916193962097 45 4 148
-0.28006526827812195 0.05884629860520363 -0.3626195788383484 45 4 148
-0.28860050439834595 0.06782172620296478 -0.37063077092170715 47 4 149
-0.2881411612033844 0.07088568806648254 -0.3669484555721283 49 4 150
-0.2917730212211609 0.07854360342025757 -0.3822025656700134 47 4 149
-0.2934125065803528 0.07734793424606323 -0.38808539509773254 47 4 149
-0.28859835863113403 0.08579465001821518 -0.3994787633419037 47 4 149
-0.29099971055984497 0.0947343185544014 -0.4133116602897644 45 4 148
-0.2908702492713928 0.09861715137958527 -0.4238530099391937 49 4 150
-0.29298222064971924 0.1068527102470398 -0.4395812749862671 49 4 150
-0.2796623706817627 0.11147642880678177 -0.45042747259140015 49 4 150
-0.295091837644577 0.11778734624385834 -0.45304396748542786 49 4 150
-0.29166555404663086 0.12428655475378036 -0.44677475094795227 43 5 148
-0.289330393075943 0.12473710626363754 -0.4559849798679352 45 4 148
-0.28882598876953125 0.12365870177745819 -0.45772045850753784 49 4 150
-0.2878313660621643 0.12412001192569733 -0.4585992991924286 51 4 151
-0.28694596886634827 0.12791511416435242 -0.4605664610862732 54 4 152
-0.2910865843296051 0.13205769658088684 -0.463635116815567 54 4 152
-0.2860857844352722 0.13000115752220154 -0.45909008383750916 51 4 151
-0.28604942560195923 0.13251131772994995 -0.4620598256587982 47 4 149
-0.2931886315345764 0.1283317506313324 -0.4565492272377014 49 4 150
-0.28976213932037354 0.12699373066425323 -0.4619089663028717 49 4 150
-0.2877492606639862 0.12950827181339264 -0.46399298310279846 45 4 148
-0.2909914255142212 0.1264219582080841 -0.4624025821685791 43 5 148
-0.28629836440086365 0.12585580348968506 -0.4614506661891937 41 5 147
-0.2864164412021637 0.12621337175369263 -0.4678727388381958 39 5 146
-0.28867101669311523 0.127290740609169 -0.4683851897716522 43 5 148
-0.287476122379303 0.12340322881937027 -0.4639674127101898 49 4 150
-0.29039695858955383 0.1176685318350792 -0.45527446269989014 61 3 155
-0.28805848956108093 0.11256478726863861 -0.44358035922050476 61 3 155
-0.29217877984046936 0.11177804321050644 -0.4413800537586212 66 3 157
-0.2921614646911621 0.1136375367641449 -0.43842148780822754 63 3 156
-0.2923010587692261 0.11586581915616989 -0.43885380029678345 63 3 156
-0.2901773452758789 0.11544831842184067 -0.440279096364975 64 3 156
-0.2899809777736664 0.11701294779777527 -0.4436464309692383 66 3 157
-0.2832101285457611 0.110017791390419 -0.4421405494213104 69 3 158
-0.2905178368091583 0.11369241774082184 -0.44278421998023987 68 3 158
-0.2903161346912384 0.10726990550756454 -0.4356849193572998 68 3 158
-0.2909623682498932 0.10984008759260178 -0.4392421543598175 69 3 158
-0.29192766547203064 0.1140068769454956 -0.4412905275821686 66 3 157
-0.2919251024723053 0.11617960780858994 -0.4415228068828583 64 3 156
-0.29106253385543823 0.1130349412560463 -0.441227525472641 58 4 154
-0.29120197892189026 0.11154334992170334 -0.44420430064201355 52 4 152
-0.286009281873703 0.10264552384614944 -0.43702685832977295 47 4 149
-0.2803906798362732 0.09138374775648117 -0.4328850209712982 54 4 152
-0.2795206308364868 0.08412376791238785 -0.4272131025791168 52 4 152
-0.2800329625606537 0.07551287859678268 -0.41614830493927 61 3 155
-0.2833104729652405 0.07213186472654343 -0.4012446999549866 61 3 155
-0.27281323075294495 0.058943260461091995 -0.39292094111442566 71 2 159
-0.2737041413784027 0.0462166853249073 -0.3894582688808441 76 2 161
-0.27613893151283264 0.04457548260688782 -0.3880775272846222 81 1 162
-0.2733457088470459 0.043538648635149 -0.38738206028938293 86 1 163
-0.27626898884773254 0.04773343726992607 -0.39748936891555786 90 0 165
-0.2718285322189331 0.05041801929473877 -0.4079693853855133 95 0 166
-0.2787410318851471 0.06372718513011932 -0.4206567108631134 100 0 167
-0.2825044095516205 0.08050066977739334 -0.43225526809692383 104 0 167
-0.2822797894477844 0.0892484039068222 -0.44442781805992126 104 0 167
-0.284660279750824 0.09837209433317184 -0.44579577445983887 111 0 168
-0.2908634543418884 0.10155818611383438 -0.43950775265693665 117 0 168
-0.29024258255958557 0.10573089867830276 -0.44287925958633423 120 1 168
-0.28545641899108887 0.10315455496311188 -0.438193678855896 120 1 168
-0.28874191641807556 0.09101571142673492 -0.43140336871147156 124 2 167
-0.28209978342056274 0.08420339971780777 -0.441872775554657 126 3 167
-0.2829936742782593 0.08088705688714981 -0.44916874170303345 124 2 167
-0.28057757019996643 0.08490828424692154 -0.45247381925582886 120 1 168
-0.2797985076904297 0.09068229794502258 -0.45260605216026306 117 0 168
-0.28055959939956665 0.09189201146364212 -0.4487285315990448 114 0 168
-0.28643089532852173 0.09779024869203568 -0.44639524817466736 112 0 168
-0.28093409538269043 0.09850430488586426 -0.43685293197631836 121 1 168
-0.28715431690216064 0.1021331250667572 -0.42533087730407715 124 2 167
-0.2809187173843384 0.0963534265756607 -0.4254419803619385 124 2 167
-0.276156485080719 0.08346483111381531 -0.425190806388855 118 1 168
-0.2782096862792969 0.07781213521957397 -0.4190795123577118 118 1 168
-0.2791651785373688 0.07001739740371704 -0.4111087918281555 121 1 168
-0.2738254964351654 0.06295479834079742 -0.4050678014755249 123 2 168
-0.2791396379470825 0.05345325544476509 -0.4014500081539154 123 2 168
-0.274865984916687 0.06029338389635086 -0.39786821603775024 121 1 168
-0.2817009389400482 0.06690650433301926 -0.3960643708705902 121 1 168
-0.2836146354675293 0.07373019307851791 -0.3990209102630615 121 1 168
-0.2824089825153351 0.08120357990264893 -0.40119683742523193 123 2 168
-0.28783029317855835 0.08476146310567856 -0.3999520242214203 121 1 168
-0.29119089245796204 0.08820702135562897 -0.3985680341720581 118 1 168
-0.2921116352081299 0.08571958541870117 -0.4017191529273987 118 1 168
-0.282048761844635 0.07774900645017624 -0.39994633197784424 118 1 168
-0.28936535120010376 0.0788426548242569 -0.39157795906066895 120 1 168
-0.296310693025589 0.07408986240625381 -0.378337562084198 120 1 168
-0.2958006262779236 0.07168203592300415 -0.374000608921051 120 1 168
-0.2938199043273926 0.07530864328145981 -0.38315707445144653 120 1 168
-0.2957560122013092 0.07990049570798874 -0.3891381323337555 120 1 168
-0.291706383228302 0.0851057767868042 -0.3921927213668823 118 1 168
-0.29672449827194214 0.09069758653640747 -0.39556649327278137 118 1 168
-0.28945794701576233 0.08277101069688797 -0.39179307222366333 118 1 168
-0.2881810963153839 0.07828154414892197 -0.38658228516578674 118 1 168
-0.29514944553375244 0.06251897662878036 -0.3629893958568573 117 0 168
-0.29146260023117065 0.05788011476397514 -0.3536546528339386 118 1 168
-0.2929752469062805 0.05161625146865845 -0.33987724781036377 120 1 168
-0.29431432485580444 0.048542678356170654 -0.3359401226043701 120 1 168
-0.2927751839160919 0.0472438745200634 -0.3389354348182678 120 1 168
-0.3045441508293152 0.07074131816625595 -0.3406895697116852 120 1 168
-0.3148709237575531 0.09489328414201736 -0.3447212278842926 120 1 168
-0.30613723397254944 0.10501893609762192 -0.3592064082622528 118 1 168
-0.30361270904541016 0.11705610901117325 -0.36691269278526306 118 1 168
-0.31383568048477173 0.12836462259292603 -0.3734467923641205 120 1 168
-0.30638664960861206 0.12898345291614532 -0.37962573766708374 120 1 168
-0.309938907623291 0.157646045088768 -0.3881319761276245 120 1 168
-0.31095775961875916 0.15940013527870178 -0.3871261775493622 120 1 168
-0.3078996241092682 0.1686277985572815 -0.3968304693698883 120 1 168
-0.3119586408138275 0.170559361577034 -0.39511701464653015 120 1 168
-0.3199101984500885 0.17168089747428894 -0.3847590386867523 120 1 168
-0.32336294651031494 0.16954655945301056 -0.37530913949012756 120 1 168
-0.31749674677848816 0.17502672970294952 -0.37539517879486084 120 1 168
-0.3089170753955841 0.17171421647071838 -0.37502411007881165 120 1 168
-0.30937519669532776 0.16551658511161804 -0.3698640763759613 120 1 168
-0.31676846742630005 0.17464493215084076 -0.37656232714653015 120 1 168
-0.3142707049846649 0.18589501082897186 -0.38566839694976807 120 1 168
-0.30373600125312805 0.1992095708847046 -0.39432936906814575 120 1 168
-0.3038302958011627 0.20942284166812897 -0.4019395112991333 120 1 168
-0.30469605326652527 0.20561723411083221 -0.3982473313808441 120 1 168
-0.31387344002723694 0.2037706822156906 -0.3888174295425415 118 1 168
-0.31166353821754456 0.20604224503040314 -0.3782656490802765 120 1 168
-0.32205069065093994 0.1952570080757141 -0.3699197769165039 120 1 168
-0.3087376058101654 0.19884563982486725 -0.35679811239242554 118 1 168
-0.3107081949710846 0.22060216963291168 -0.35473528504371643 118 1 168
-0.325816810131073 0.2279440015554428 -0.3352331221103668 117 0 168
-0.32948172092437744 0.21352842450141907 -0.31631574034690857 118 1 168
-0.3381645977497101 0.21195629239082336 -0.31578144431114197 118 1 168
-0.33055779337882996 0.2086520493030548 -0.2995034158229828 117 0 168
-0.3164992332458496 0.2033301740884781 -0.2849242389202118 115 0 168
-0.3363974690437317 0.19263137876987457 -0.2570261061191559 115 0 168
-0.3322802782058716 0.16573317348957062 -0.21608322858810425 115 0 168
-0.32073676586151123 0.11405666172504425 -0.17136923968791962 118 1 168
-0.2798388600349426 0.03284459188580513 -0.06451161205768585 120 1 168
-0.2502512037754059 -0.012114711105823517 0.04166938737034798 120 1 168
-0.19762586057186127 -0.05712828412652016 0.13392595946788788 120 1 168
-0.19520628452301025 -0.06745622307062149 0.1926693618297577 121 1 168
-0.20165865123271942 -0.027368826791644096 0.19563908874988556 120 1 168
-0.2138221561908722 -0.027736997231841087 0.17278456687927246 120 1 168
-0.19140619039535522 -0.030237417668104172 0.19157229363918304 118 1 168
-0.2253572940826416 -0.027685513719916344 0.17373843491077423 118 1 168
-0.21359199285507202 -0.028876211494207382 0.1596645563840866 118 1 168
-0.23657956719398499 -0.01731974631547928 0.13457375764846802 120 1 168
-0.23589076101779938 -0.032231539487838745 0.12691433727741241 120 1 168
-0.17081888020038605 -0.08249985426664352 0.17398640513420105 120 1 168
-0.1432933658361435 -0.09988947957754135 0.23289047181606293 120 1 168
-0.13545013964176178 -0.12508489191532135 0.2721063792705536 121 1 168
-0.13515101373195648 -0.11889283359050751 0.257644385099411 121 1 168
-0.16252528131008148 -0.09205712378025055 0.21188439428806305 121 1 168
-0.20106655359268188 -0.060274895280599594 0.14254708588123322 118 1 168
-0.19713819026947021 -0.0607142336666584 0.11983533203601837 118 1 168
-0.18414777517318726 -0.07648860663175583 0.12794509530067444 115 0 168
-0.16965675354003906 -0.08717358857393265 0.15114545822143555 114 0 168
-0.16583837568759918 -0.09283081442117691 0.17031270265579224 112 0 168
-0.16653567552566528 -0.104606032371521 0.17775391042232513 112 0 168
-0.16413533687591553 -0.10927999764680862 0.1773468405008316 112 0 168
-0.14008969068527222 -0.11916828155517578 0.19666002690792084 111 0 168
-0.1227545291185379 -0.12205354869365692 0.22528356313705444 111 0 168
-0.11059627681970596 -0.1487158089876175 0.24446088075637817 109 0 168
-0.09714897722005844 -0.16193664073944092 0.24832355976104736 109 0 168
-0.09696299582719803 -0.1569221168756485 0.24501480162143707 111 0 168
-0.07877771556377411 -0.14622199535369873 0.24351190030574799 111 0 168
-0.08131668716669083 -0.15312343835830688 0.24897466599941254 111 0 168
-0.09042870253324509 -0.15867605805397034 0.24925999343395233 111 0 168
-0.08225884288549423 -0.1556244194507599 0.25098276138305664 109 0 168
-0.07212579995393753 -0.14431898295879364 0.27480223774909973 114 0 168
-0.07809209078550339 -0.1458921879529953 0.286479651927948 115 0 168
-0.09121150523424149 -0.15151022374629974 0.2933817207813263 115 0 168
-0.12441921979188919 -0.12480206787586212 0.2674390375614166 112 0 168
-0.14824263751506805 -0.09203463047742844 0.2357836812734604 111 0 168
-0.16909915208816528 -0.08329004049301147 0.18489320576190948 111 0 168
-0.15649275481700897 -0.0798058733344078 0.14616306126117706 109 0 168
-0.18442659080028534 -0.06522362679243088 0.11343508958816528 109 0 168
-0.19049829244613647 -0.06556065380573273 0.10564244538545609 112 0 168
-0.20914481580257416 -0.06844523549079895 0.06666512042284012 114 0 168
-0.22291283309459686 -0.04531598463654518 0.03456845134496689 117 0 168
-0.23171979188919067 -0.050021372735500336 0.0048294165171682835 123 2 168
-0.23592719435691833 -0.04733028635382652 -0.01494115311652422 126 3 167
-0.2619171142578125 -0.021114839240908623 -0.04941794276237488 127 3 167
-0.26029908657073975 -0.003235887736082077 -0.0683983787894249 129 4 167
-0.26683059334754944 0.01342626940459013 -0.08577955514192581 129 4 167
-0.2680512070655823 0.016056450083851814 -0.10107757151126862 124 2 167
-0.2522999048233032 -0.01335157547146082 -0.07886192947626114 121 1 168
-0.24151083827018738 -0.017517996951937675 -0.043466717004776 123 2 168
-0.2532210946083069 -0.017205463722348213 -0.041186269372701645 124 2 167
-0.25465211272239685 -0.011195541359484196 -0.07668600976467133 127 3 167
-0.24440158903598785 -0.009995502419769764 -0.08634299784898758 132 5 166
-0.22682736814022064 -0.04978928342461586 -0.03132394701242447 133 6 166
-0.21403717994689941 -0.0630652979016304 0.030387314036488533 136 7 165
-0.20834881067276 -0.08495273441076279 0.06608998030424118 137 8 165
-0.20154361426830292 -0.0900420993566513 0.0635334849357605 136 7 165
-0.20852260291576385 -0.0634562149643898 0.03867889195680618 136 7 165
-0.21025918424129486 -0.037952348589897156 0.022721854969859123 140 10 164
-0.22129686176776886 -0.035351529717445374 0.02274482138454914 147 16 161
-0.22145038843154907 -0.02351449802517891 0.03429487347602844 151 19 160
-0.22124169766902924 -0.030359484255313873 0.04066533222794533 158 25 156
-0.21138645708560944 -0.041751112788915634 0.04345633462071419 163 29 153
-0.20768629014492035 -0.0597432516515255 0.06067921966314316 167 33 151
-0.20800088346004486 -0.05611846596002579 0.07599688321352005 173 38 146
-0.19519482553005219 -0.047302450984716415 0.07477127760648727 177 43 143
-0.19119174778461456 -0.029511859640479088 0.0573747381567955 183 48 138
-0.19860081374645233 0.0033320060465484858 0.03878740593791008 188 54 133
-0.19127394258975983 -0.0071185436099767685 0.027970027178525925 197 64 125
-0.16551914811134338 -0.04780455678701401 0.06247325986623764 204 72 118
-0.1409335732460022 -0.06345211714506149 0.14142253994941711 210 80 112
-0.09014158695936203 -0.1040644720196724 0.21171535551548004 215 86 108
-0.08377370238304138 -0.11069982498884201 0.2414565086364746 215 87 107
-0.05190553888678551 -0.136871337890625 0.26164010167121887 215 87 107
-0.009154018014669418 -0.19294123351573944 0.3022027611732483 215 86 108
-0.003494432894513011 -0.184144526720047 0.3360205590724945 215 86 108
-0.0012299515074118972 -0.19170604646205902 0.36726388335227966 212 82 110
0.03688209503889084 -0.1968609094619751 0.3823952078819275 210 80 112
0.11366195976734161 -0.22067177295684814 0.42199796438217163 213 83 109
0.1698170304298401 -0.2279718518257141 0.4708910286426544 213 83 109
0.18241602182388306 -0.2204645574092865 0.5105770230293274 214 85 109
0.19231799244880676 -0.2138182371854782 0.528655469417572 217 89 105
0.19892075657844543 -0.21916641294956207 0.5381059050559998 221 95 101
0.20038117468357086 -0.20944060385227203 0.5398508310317993 229 107 92
0.20938780903816223 -0.2025296837091446 0.5485092401504517 236 119 84
0.20745602250099182 -0.18653129041194916 0.5595312714576721 240 129 77
0.21077865362167358 -0.19142739474773407 0.5666673183441162 242 133 74
0.21310654282569885 -0.17191626131534576 0.5609534382820129 245 141 69
0.22908243536949158 -0.15663571655750275 0.5605024695396423 249 153 61
0.23925136029720306 -0.14538225531578064 0.5500590801239014 250 157 58
0.26443225145339966 -0.13608166575431824 0.5410382151603699 250 157 58
0.27570855617523193 -0.12583191692829132 0.5203967094421387 250 160 57
0.2820263206958771 -0.11656120419502258 0.5004630088806152 251 162 56
0.28565332293510437 -0.11506988108158112 0.4962855875492096 250 157 58
0.28936219215393066 -0.10976261645555496 0.4948783814907074 249 153 61
0.2790483236312866 -0.10391096770763397 0.5052330493927002 247 147 65
0.2708144783973694 -0.10648902505636215 0.5072641968727112 246 143 67
0.2707972526550293 -0.11328417807817459 0.5109831690788269 245 141 69
0.26633700728416443 -0.12964162230491638 0.5241835713386536 244 138 71
0.2660634219646454 -0.1304583102464676 0.5251398682594299 244 137 71
0.26281967759132385 -0.14736491441726685 0.5189805030822754 243 134 73
0.2707740068435669 -0.14100924134254456 0.5169186592102051 244 138 71
0.2616003155708313 -0.1343279778957367 0.5131101012229919 244 137 71
0.25252482295036316 -0.13311238586902618 0.5061662197113037 243 135 72
0.25006499886512756 -0.12915383279323578 0.4971369504928589 243 135 72
0.27231210470199585 -0.13871143758296967 0.4865624010562897 244 138 71
0.27177760004997253 -0.14576409757137299 0.4785136878490448 246 143 67
0.2628708481788635 -0.13360074162483215 0.4803420901298523 247 146 65
0.2730950713157654 -0.12718816101551056 0.49162980914115906 247 146 65
0.2510716915130615 -0.11832685023546219 0.5058550834655762 246 145 66
0.2598104178905487 -0.11029721796512604 0.4951018989086151 247 146 65
0.28369399905204773 -0.10464179515838623 0.4867110848426819 247 146 65
0.280056357383728 -0.07039615511894226 0.4980933666229248 247 147 65
0.22690501809120178 0.002986836014315486 0.5087280869483948 246 145 66
0.15943403542041779 0.08267461508512497 0.5114087462425232 247 146 65
-0.020666655153036118 0.18866758048534393 0.4181020259857178 246 145 66
-0.13724969327449799 0.22243617475032806 0.2595013380050659 246 143 67
-0.17323200404644012 0.19834774732589722 0.16769221425056458 232 113 88
-0.19382545351982117 0.19932864606380463 0.10184028744697571 246 142 68
-0.13379448652267456 0.20659726858139038 0.09764943271875381 245 141 69
-0.10553397238254547 0.16621290147304535 0.14143551886081696 245 141 69
0.0065306201577186584 0.10714583843946457 0.2459549903869629 246 142 68
0.10383815318346024 0.0796559676527977 0.32436344027519226 234 115 86
0.098899245262146 0.0847366601228714 0.3336697518825531 231 110 90
0.08439923822879791 0.11837195605039597 0.336064875125885 232 112 89
0.08663320541381836 0.1433711051940918 0.31719470024108887 244 138 71
0.05366715416312218 0.1474631130695343 0.3022685945034027 245 139 70
0.08270338922739029 0.170729398727417 0.3025510013103485 245 141 69
0.06375003606081009 0.16234351694583893 0.27139320969581604 245 141 69
0.09350499510765076 0.17580555379390717 0.26417964696884155 245 139 70
0.14037290215492249 0.13738510012626648 0.2803073823451996 246 143 67
0.17383725941181183 0.1137523204088211 0.30191224813461304 232 113 88
0.17755673825740814 0.12141024321317673 0.3124159276485443 246 145 66
0.2001587450504303 0.09230092912912369 0.34805282950401306 246 143 67
0.16990073025226593 0.0947362557053566 0.37326544523239136 246 145 66
0.16922388970851898 0.07565709203481674 0.4104035198688507 234 116 85
0.16948138177394867 0.053494520485401154 0.43276387453079224 248 149 64
0.1765863448381424 0.05144728720188141 0.45438942313194275 248 152 62
0.16856606304645538 0.03618917241692543 0.4912640154361725 248 152 62
0.1785997897386551 0.01146639883518219 0.49358415603637695 249 153 61
0.1747548133134842 0.07542389631271362 0.4703989028930664 250 156 59
0.11990717053413391 0.10901615023612976 0.45042821764945984 251 163 55
0.058025848120450974 0.18201550841331482 0.4192139506340027 251 163 55
0.007500866428017616 0.2414972186088562 0.3487962484359741 250 160 57
0.08398253470659256 0.19805406033992767 0.3495955467224121 250 159 58
0.07308660447597504 0.15493912994861603 0.36376699805259705 251 163 55
0.12286187708377838 0.16594889760017395 0.3297078013420105 252 169 52
0.14181268215179443 0.15679168701171875 0.30461907386779785 252 173 49
0.1697172224521637 0.09655848145484924 0.2802504003047943 253 175 49
0.22223509848117828 0.05179983749985695 0.27851757407188416 253 182 45
0.2457914650440216 0.02968636341392994 0.29456841945648193 253 188 42
0.24715830385684967 0.004206821322441101 0.31044864654541016 252 199 38
0.23557128012180328 0.007061386480927467 0.3013331890106201 250 213 36
0.2538410723209381 -0.005440238863229752 0.29450324177742004 250 216 36
0.2561319172382355 -0.008251824416220188 0.2982182800769806 248 223 36
0.2557780146598816 -0.0008386534173041582 0.3157695233821869 246 229 37
0.24679313600063324 -0.008486032485961914 0.3402329087257385 246 228 37
0.2634737491607666 -0.03461872786283493 0.3569122850894928 247 226 37
0.2839331328868866 -0.06399470567703247 0.3879909813404083 247 224 36
0.2757422626018524 -0.09780300408601761 0.43725115060806274 248 221 36
0.2576463520526886 -0.13431137800216675 0.48430779576301575 252 203 37
0.25682559609413147 -0.1679592877626419 0.5087032914161682 253 195 40
0.25247922539711 -0.18491534888744354 0.5106911063194275 253 190 41
0.25264590978622437 -0.19313783943653107 0.5006219744682312 252 201 38
0.2511439025402069 -0.19038861989974976 0.5032179355621338 251 208 36
0.25604045391082764 -0.19365143775939941 0.5046667456626892 251 209 36
0.2574024200439453 -0.18767350912094116 0.5033102035522461 251 209 36
0.25425857305526733 -0.19397713243961334 0.5078813433647156 251 208 36
0.24226993322372437 -0.19152896106243134 0.5163979530334473 252 206 37
0.24558867514133453 -0.21425274014472961 0.5343782901763916 252 204 37
0.23933184146881104 -0.2159433662891388 0.5390153527259827 252 203 37
0.2427549958229065 -0.2191603183746338 0.5511816740036011 252 203 37
0.23849943280220032 -0.2303655445575714 0.5450127124786377 252 199 38
0.2496902048587799 -0.24208417534828186 0.5503966212272644 253 196 39
0.2444564551115036 -0.24225379526615143 0.5578750967979431 253 196 39
0.24269814789295197 -0.235573872923851 0.5367046594619751 253 196 39
0.2573853135108948 -0.24609975516796112 0.523603618144989 253 196 39
0.25418347120285034 -0.23491808772087097 0.520197331905365 253 196 39
0.24960018694400787 -0.2418520450592041 0.5193109512329102 253 196 39
0.272319495677948 -0.2432279735803604 0.4935859441757202 253 193 40
0.28175386786460876 -0.23653317987918854 0.48070111870765686 253 184 44
0.27819913625717163 -0.2166517972946167 0.4768495261669159 252 170 51
0.2747044563293457 -0.21336273849010468 0.4828462302684784 250 159 58
0.2688646912574768 -0.20739483833312988 0.496258020401001 248 149 64
0.25283583998680115 -0.2190181165933609 0.5023885369300842 245 141 69
0.2682216167449951 -0.22460326552391052 0.4968688189983368 244 138 71
0.2608812749385834 -0.2366243153810501 0.49823737144470215 243 135 72
0.2626867890357971 -0.23567821085453033 0.4985142946243286 240 129 77
0.2708076536655426 -0.23517316579818726 0.50201016664505 238 124 80
0.265500009059906 -0.22749480605125427 0.4971335530281067 236 119 84
0.2701197564601898 -0.24613651633262634 0.4895811080932617 235 118 84
0.2750464379787445 -0.236403226852417 0.4873127341270447 234 115 86
0.271964430809021 -0.22799420356750488 0.483779639005661 234 115 86
0.2813716232776642 -0.232456237077713 0.48897120356559753 232 113 88
0.27842506766319275 -0.24076810479164124 0.48216933012008667 229 108 91
0.27633464336395264 -0.24566854536533356 0.4926821291446686 228 106 93
0.2736528515815735 -0.24031032621860504 0.5007081627845764 229 107 92
0.2712570130825043 -0.2560531795024872 0.5072753429412842 229 108 91
0.26719754934310913 -0.283214807510376 0.48233675956726074 233 114 87
0.2202245593070984 -0.2964786887168884 0.5042954087257385 236 119 84
0.14392738044261932 -0.30973371863365173 0.4913361072540283 238 124 80
0.11448099464178085 -0.3239891529083252 0.4777377247810364 243 134 73
0.09987544268369675 -0.36543527245521545 0.44652193784713745 244 138 71
0.07482956349849701 -0.3486272394657135 0.3785052001476288 245 139 70
-0.019105935469269753 -0.3312407433986664 0.31762945652008057 245 139 70
-0.08183173090219498 -0.28944453597068787 0.21738854050636292 245 141 69
-0.07592225074768066 -0.2610582709312439 0.1633094698190689 246 142 68
-0.09013532847166061 -0.27047067880630493 0.15193024277687073 243 135 72
-0.1293235421180725 -0.2478075921535492 0.14811985194683075 242 132 75
-0.13160283863544464 -0.2108442336320877 0.11786116659641266 242 133 74
-0.13837246596813202 -0.2260262668132782 0.09602662175893784 240 129 77
-0.10619661957025528 -0.2447149157524109 0.09395483136177063 239 125 79
-0.1011226549744606 -0.26255905628204346 0.11056773364543915 237 121 82
-0.06509886682033539 -0.2752489447593689 0.1319752037525177 233 114 87
-0.05068342387676239 -0.30574139952659607 0.17571917176246643 229 108 91
0.01717476360499859 -0.33627811074256897 0.2423754781484604 225 101 96
0.014005860313773155 -0.34057462215423584 0.2857681214809418 220 93 102
0.038687679916620255 -0.3467257022857666 0.3133237063884735 218 90 104
0.06076042354106903 -0.3612196445465088 0.31296494603157043 219 91 103
0.13144679367542267 -0.3646182715892792 0.3189692199230194 217 89 105
0.17453448474407196 -0.37215420603752136 0.3325815796852112 216 88 106
0.2066131830215454 -0.35098546743392944 0.3610883951187134 216 88 106
0.23946508765220642 -0.3318648338317871 0.3878057599067688 216 88 106
0.266045480966568 -0.30914750695228577 0.3925156891345978 215 86 108
0.2657179832458496 -0.31299397349357605 0.401056706905365 213 83 109
0.24982057511806488 -0.31077277660369873 0.4335031509399414 211 81 111
0.26356250047683716 -0.3059397339820862 0.4450409412384033 208 77 115
0.2506936192512512 -0.3140628933906555 0.46636345982551575 204 72 118
0.22645063698291779 -0.30834314227104187 0.49406179785728455 201 69 121
0.21995660662651062 -0.30777180194854736 0.49614036083221436 199 66 123
0.1910783052444458 -0.3363041877746582 0.4747549891471863 199 66 123
0.1837766319513321 -0.33963078260421753 0.47094035148620605 200 68 122
0.1593424528837204 -0.3445764183998108 0.45894208550453186 202 70 120
0.1407388597726822 -0.34448152780532837 0.4322635531425476 204 72 118
0.13562743365764618 -0.33749115467071533 0.40921974182128906 206 74 117
0.12500056624412537 -0.34571659564971924 0.410488098859787 208 77 115
0.1202843189239502 -0.3424212336540222 0.3822876811027527 209 78 114
0.07199123501777649 -0.32108747959136963 0.3706626892089844 209 78 114
0.06741807609796524 -0.3080582618713379 0.3509058654308319 205 73 117
0.044406332075595856 -0.3031349778175354 0.32300615310668945 200 68 122
0.04585462063550949 -0.3116505444049835 0.3384189009666443 198 65 124
0.03155971318483353 -0.31438466906547546 0.3586786091327667 192 59 129
0.027921611443161964 -0.3156689405441284 0.3697662055492401 186 52 135
0.02104032039642334 -0.3123810887336731 0.35979747772216797 178 44 142
0.036749012768268585 -0.29673466086387634 0.3530615270137787 173 38 146
0.012810607440769672 -0.30524617433547974 0.34881559014320374 170 36 148
-0.012492249719798565 -0.2722468078136444 0.33637139201164246 169 35 149
-0.017626052722334862 -0.2563007175922394 0.31310373544692993 169 35 149
-0.019255205988883972 -0.26462510228157043 0.30577999353408813 168 34 150
-0.01743820123374462 -0.25436708331108093 0.29457756876945496 165 31 151
-0.052633266896009445 -0.23808810114860535 0.2553615868091583 163 29 153
-0.059359509497880936 -0.24004627764225006 0.22582097351551056 160 27 155
-0.08230546861886978 -0.21443143486976624 0.20001904666423798 160 27 155
-0.10836949944496155 -0.1997310370206833 0.16647246479988098 160 27 155
-0.12028727680444717 -0.1839028000831604 0.12839193642139435 162 28 154
-0.1289932280778885 -0.1798047572374344 0.10621857643127441 163 29 153
-0.13643506169319153 -0.173385351896286 0.09130455553531647 163 29 153
-0.14401021599769592 -0.16625016927719116 0.07784396409988403 162 28 154
-0.14949648082256317 -0.16258054971694946 0.06481214612722397 159 26 155
-0.1585669219493866 -0.14920787513256073 0.04787750169634819 158 25 156
-0.17422598600387573 -0.1318906992673874 0.02796461433172226 157 24 157
-0.18857896327972412 -0.1126384288072586 0.0009652587468735874 157 24 157
-0.20343726873397827 -0.10058602690696716 -0.02927899733185768 157 24 157
-0.20924462378025055 -0.09129347652196884 -0.053157735615968704 158 25 156
-0.2163923978805542 -0.09182199090719223 -0.06795471161603928 160 27 155
-0.20605230331420898 -0.09639240801334381 -0.06708458065986633 164 30 152
-0.20865942537784576 -0.08760599792003632 -0.06250723451375961 162 28 154
-0.20848211646080017 -0.0904906690120697 -0.05161336436867714 167 33 151
-0.22447916865348816 -0.08538618683815002 -0.06050141155719757 165 31 151
-0.22956357896327972 -0.08276371657848358 -0.07792376726865768 188 54 133
-0.2180461287498474 -0.08635241538286209 -0.08866674453020096 185 51 136
-0.22128720581531525 -0.08215973526239395 -0.08281289786100388 189 55 132
-0.22715109586715698 -0.06667183339595795 -0.07568758726119995 190 56 131
-0.22762997448444366 -0.0707024559378624 -0.07137724757194519 197 64 125
-0.23880043625831604 -0.06466390937566757 -0.07349828630685806 201 69 121
-0.23411168158054352 -0.05518588423728943 -0.06240186467766762 205 73 117
-0.2265739142894745 -0.06842023879289627 -0.04260897636413574 209 78 114
-0.21838246285915375 -0.07179218530654907 -0.014893889427185059 210 80 112
-0.2129219025373459 -0.08105090260505676 0.0069523039273917675 212 82 110
-0.19601517915725708 -0.10344754904508591 0.023747563362121582 214 85 109
-0.17750278115272522 -0.12016375362873077 0.04685717821121216 215 87 107
-0.1545785814523697 -0.15318213403224945 0.09318811446428299 214 85 109
-0.11602670699357986 -0.1790793240070343 0.15997204184532166 210 80 112
-0.09179165214300156 -0.20263449847698212 0.23625262081623077 203 71 119
-0.0523870550096035 -0.24665173888206482 0.3029274046421051 200 68 122
-0.04386063292622566 -0.24944575130939484 0.3210618197917938 196 63 126
-0.04878297820687294 -0.2524804472923279 0.3507702350616455 194 61 128
-0.03431681916117668 -0.2647174894809723 0.37029194831848145 189 55 132
-0.051684264093637466 -0.26125314831733704 0.35548630356788635 188 54 133
-0.05220804736018181 -0.24886418879032135 0.3453866243362427 194 61 128
-0.05583646520972252 -0.24236121773719788 0.3213798701763153 192 59 129
-0.05478043854236603 -0.2426343858242035 0.31690558791160583 186 52 135
-0.038520049303770065 -0.25703567266464233 0.33290037512779236 185 51 136
-0.028934217989444733 -0.2612011432647705 0.35648322105407715 183 48 138
-0.015531772747635841 -0.27102017402648926 0.3872823715209961 181 46 140
-0.012890723533928394 -0.26309147477149963 0.3909880518913269 178 44 142
-0.02096606232225895 -0.2625493109226227 0.3812923729419708 180 45 141
-0.0441528744995594 -0.24694515764713287 0.3525348901748657 180 45 141
-0.04952232912182808 -0.23468445241451263 0.31135275959968567 180 45 141
-0.04909534379839897 -0.24247489869594574 0.2984241545200348 176 42 143
-0.04651256278157234 -0.24588918685913086 0.31218665838241577 170 36 148
-0.04494743049144745 -0.248896986246109 0.317223459482193 169 35 149
-0.04629188030958176 -0.24869860708713531 0.3236951231956482 168 34 150
-0.08469543606042862 -0.22749966382980347 0.3046005964279175 167 33 151
-0.10126031935214996 -0.21578499674797058 0.2648699879646301 167 33 151
-0.1112607941031456 -0.20255722105503082 0.23225511610507965 170 36 148
-0.13083820044994354 -0.18309350311756134 0.22392146289348602 170 36 148
-0.12119998037815094 -0.19190378487110138 0.21272863447666168 170 36 148
-0.12906938791275024 -0.19310696423053741 0.20798982679843903 176 42 143
-0.13565512001514435 -0.19515076279640198 0.21421785652637482 182 47 139
-0.14155679941177368 -0.17954345047473907 0.20318704843521118 187 53 134
-0.1424597203731537 -0.16982509195804596 0.20030413568019867 186 52 135
-0.14003631472587585 -0.17795604467391968 0.2077828049659729 185 51 136
-0.15077050030231476 -0.17371733486652374 0.19888225197792053 184 50 137
-0.15175241231918335 -0.16458912193775177 0.19773446023464203 184 50 137
-0.13698402047157288 -0.1707310676574707 0.2148604393005371 181 46 140
-0.1423730105161667 -0.17283755540847778 0.2233477234840393 174 39 145
-0.1495242714881897 -0.17030920088291168 0.2214161455631256 163 29 153
-0.14531050622463226 -0.1686023771762848 0.22888526320457458 153 20 159
-0.14771869778633118 -0.17061156034469604 0.23952963948249817 146 15 162
-0.13444216549396515 -0.17632737755775452 0.2526281476020813 137 8 165
-0.13819938898086548 -0.17039942741394043 0.25503307580947876 132 5 166
-0.1166263297200203 -0.173162043094635 0.25463834404945374 130 4 167
-0.12191145122051239 -0.18155290186405182 0.24507467448711395 124 2 167
-0.1195562407374382 -0.19550150632858276 0.23930731415748596 118 1 168
-0.13465937972068787 -0.19299346208572388 0.21917584538459778 114 0 168
-0.15387794375419617 -0.1752035915851593 0.18745486438274384 109 0 168
-0.1523049771785736 -0.16644127666950226 0.1356492042541504 108 0 168
-0.16548974812030792 -0.15979330241680145 0.09163565933704376 108 0 168
-0.15796706080436707 -0.1593087911605835 0.07730048894882202 114 0 168
-0.15156398713588715 -0.17021453380584717 0.08655236661434174 127 3 167
-0.14310388267040253 -0.1752774715423584 0.09195365756750107 143 13 163
-0.15543167293071747 -0.1819603145122528 0.09458005428314209 154 21 158
-0.14231394231319427 -0.18129436671733856 0.09853299707174301 163 29 153
-0.1540265679359436 -0.17244885861873627 0.08102019876241684 167 33 151
-0.1566905677318573 -0.16872745752334595 0.06935589015483856 165 31 151
-0.1685699075460434 -0.1577952802181244 0.061863597482442856 162 28 154
-0.17217275500297546 -0.14649686217308044 0.03545651212334633 158 25 156
-0.17554382979869843 -0.1455606073141098 0.01285506784915924 153 20 159
-0.17945343255996704 -0.15248331427574158 -0.005280272103846073 149 17 161
-0.17397773265838623 -0.15412788093090057 -0.013903815299272537 149 17 161
-0.18481189012527466 -0.14978991448879242 -0.009001029655337334 146 15 162
-0.18244792520999908 -0.14086687564849854 -0.016537142917513847 147 16 161
-0.18786795437335968 -0.14299742877483368 -0.025969143956899643 150 18 160
-0.18774420022964478 -0.14109797775745392 -0.02367156744003296 154 21 158
-0.18037289381027222 -0.14516492187976837 -0.012858577072620392 153 20 159
-0.17577135562896729 -0.15440113842487335 -0.003613439155742526 149 17 161
-0.18206781148910522 -0.15432964265346527 0.0004252061480656266 147 16 161
-0.171941339969635 -0.16139324009418488 0.00847245380282402 147 16 161
-0.17979352176189423 -0.16023114323616028 0.017315248027443886 149 17 161
-0.17634062469005585 -0.16760221123695374 0.031052187085151672 149 17 161
-0.1574535369873047 -0.19219587743282318 0.05221427604556084 147 16 161
-0.13907422125339508 -0.2122560441493988 0.09136158972978592 144 14 163
-0.12346480786800385 -0.22991445660591125 0.13193736970424652 142 12 164
-0.11286386847496033 -0.2371366173028946 0.17509135603904724 134 7 166
-0.09333077073097229 -0.24156326055526733 0.1900622844696045 134 7 166
-0.06747601926326752 -0.2816494405269623 0.24380196630954742 137 8 165
-0.013619517907500267 -0.2986561357975006 0.3157864212989807 140 10 164
-0.041742246598005295 -0.2691959738731384 0.3629947006702423 147 16 161
-0.05144309997558594 -0.24683675169944763 0.42609259486198425 167 33 151
-0.06357540190219879 -0.24289634823799133 0.4076886475086212 182 47 139
-0.08417628705501556 -0.2487439066171646 0.38536280393600464 196 63 126
