ply
format ascii 1.0
element vertex 686
property float x
property float y
property float z
property uchar red
property uchar green
property uchar blue
end_header
0.40854933857917786 -0.8526833057403564 0.06315451860427856 255 127 0
0.4049299657344818 -0.8539401292800903 0.060475923120975494 255 127 0
0.40197739005088806 -0.8387237787246704 0.07891827821731567 255 127 0
0.4361433684825897 -0.7785123586654663 0.07882152497768402 255 127 0
0.4307846426963806 -0.720090389251709 0.06252343952655792 255 127 0
0.42085862159729004 -0.6665696501731873 0.06643754988908768 255 127 0
0.4160887897014618 -0.6164213418960571 0.07512954622507095 255 127 0
0.406695693731308 -0.562631368637085 0.07113982737064362 255 127 0
0.3896864950656891 -0.5102341175079346 0.07428877055644989 255 127 0
0.39890196919441223 -0.48113927245140076 0.0772063136100769 255 127 0
0.41159555315971375 -0.48299679160118103 0.07296717166900635 255 127 0
0.41729068756103516 -0.4900185763835907 0.06779113411903381 255 127 0
0.41624292731285095 -0.4909815788269043 0.05783846974372864 255 127 0
0.4011496305465698 -0.4603883624076843 0.06558190286159515 255 127 0
0.3865618407726288 -0.4211573302745819 0.07951159030199051 255 127 0
0.3921504318714142 -0.4095248579978943 0.08248007297515869 255 127 0
0.39929303526878357 -0.40374061465263367 0.07518655806779861 255 127 0
0.38474032282829285 -0.3843093514442444 0.08521333336830139 255 127 0
0.3659278452396393 -0.3387422263622284 0.10431426763534546 255 127 0
0.34666597843170166 -0.3056112825870514 0.11281196773052216 255 127 0
0.34540483355522156 -0.2870466113090515 0.10367298126220703 255 127 0
0.34823450446128845 -0.2983318567276001 0.0886562243103981 255 127 0
0.34157925844192505 -0.28978416323661804 0.07539644837379456 255 127 0
0.30785804986953735 -0.2642260491847992 0.08854102343320847 255 127 0
0.2908782362937927 -0.22462530434131622 0.09196902066469193 255 127 0
0.29446789622306824 -0.18350116908550262 0.0874776542186737 255 127 0
0.2845574617385864 -0.1740996539592743 0.0768330842256546 255 127 0
0.2856611907482147 -0.1739601492881775 0.07085278630256653 255 127 0
0.26353877782821655 -0.15243741869926453 0.07230284065008163 255 127 0
0.253991961479187 -0.13202683627605438 0.07954667508602142 255 127 0
0.2583622932434082 -0.11119943112134933 0.07701447606086731 255 127 0
0.2596457600593567 -0.11839413642883301 0.0598122701048851 255 127 0
0.2622840702533722 -0.13544373214244843 0.06674759835004807 255 127 0
0.26180577278137207 -0.14229950308799744 0.06832630187273026 255 127 0
0.24222233891487122 -0.11262078583240509 0.0762421190738678 255 127 0
0.21911165118217468 -0.08917327225208282 0.0768531858921051 255 127 0
0.2258126586675644 -0.08729097992181778 0.08548193424940109 255 127 0
0.23708514869213104 -0.08544114977121353 0.07991154491901398 255 127 0
0.23482586443424225 -0.07144065201282501 0.0821358859539032 255 127 0
0.22237984836101532 -0.06729210168123245 0.07760032266378403 255 127 0
0.21880915760993958 -0.06220215931534767 0.08385671675205231 255 127 0
0.2217194139957428 -0.04234614223241806 0.09055335819721222 255 127 0
0.20283406972885132 -0.019973697140812874 0.10652485489845276 255 127 0
0.2145562618970871 -0.043095044791698456 0.10347019135951996 255 127 0
0.2109290063381195 -0.050702642649412155 0.09634430706501007 255 127 0
0.2065933346748352 -0.06180878356099129 0.07943860441446304 255 127 0
0.20016364753246307 -0.05944036319851875 0.08508823812007904 255 127 0
0.1846136599779129 -0.043207306414842606 0.09105224162340164 255 127 0
0.15904472768306732 -0.006080573424696922 0.09204921126365662 255 127 0
0.12805859744548798 0.0322972871363163 0.10211867839097977 255 127 0
0.10350346565246582 0.06285510957241058 0.1261911392211914 255 127 0
0.08999166637659073 0.10778681933879852 0.14670278131961823 255 127 0
0.057985641062259674 0.14151933789253235 0.1555931568145752 255 127 0
0.0636996403336525 0.14548364281654358 0.15197840332984924 255 127 0
0.06852539628744125 0.141771137714386 0.14123797416687012 255 127 0
0.0791865810751915 0.1240139976143837 0.13131341338157654 255 127 0
0.08246488124132156 0.11717874556779861 0.12417729943990707 255 127 0
0.08831793814897537 0.1161687821149826 0.12262801826000214 255 127 0
0.08811739832162857 0.11415759474039078 0.12547878921031952 255 127 0
0.0939711332321167 0.11185913532972336 0.11914874613285065 255 127 0
0.08115381002426147 0.10189545154571533 0.11381521075963974 255 127 0
0.09913478046655655 0.10485010594129562 0.10757718980312347 255 127 0
0.04786163195967674 0.15552213788032532 0.13715732097625732 255 127 0
0.031324662268161774 0.15110865235328674 0.2389674335718155 255 127 0
-0.032181765884160995 0.2155892550945282 0.24652236700057983 255 127 0
-0.004656945820897818 0.21120114624500275 0.2573662996292114 255 127 0
0.07778989523649216 0.08710289746522903 0.2332204431295395 255 127 0
0.020935332402586937 0.1564677655696869 0.21456798911094666 255 127 0
0.008258635178208351 0.243443563580513 0.1649082601070404 255 127 0
0.015762057155370712 0.25538185238838196 0.02544592134654522 255 127 0
0.35146450996398926 -0.3538379669189453 -0.3205953538417816 255 127 0
0.4364074170589447 -0.38897866010665894 -0.42123815417289734 255 127 0
0.5038272142410278 -0.7296321392059326 -0.22639702260494232 255 127 0
0.37804168462753296 -0.788508415222168 -0.18110381066799164 255 127 0
0.3674677610397339 -0.7808601260185242 -0.19474966824054718 255 127 0
0.35216137766838074 -0.772609293460846 -0.18888214230537415 255 127 0
0.3303303122520447 -0.7808797955513 -0.1796599179506302 255 127 0
0.3396582007408142 -0.774774432182312 -0.168106809258461 255 127 0
0.3557486832141876 -0.7819765210151672 -0.1493769735097885 255 127 0
0.37712517380714417 -0.7906597256660461 -0.11888924241065979 255 127 0
0.3966086804866791 -0.7911375164985657 -0.1028565987944603 255 127 0
0.4114556908607483 -0.7946739196777344 -0.08721589297056198 255 127 0
0.4055432081222534 -0.798534095287323 -0.06049351021647453 255 127 0
0.4284723699092865 -0.8037238717079163 -0.04758654534816742 255 127 0
0.4004143178462982 -0.8185021281242371 0.04874882102012634 255 127 0
0.4169362187385559 -0.7548750638961792 0.06886225938796997 255 127 0
0.44061022996902466 -0.793616533279419 0.033477894961833954 255 127 0
0.47232094407081604 -0.7971890568733215 0.0598418153822422 255 127 0
0.49562719464302063 -0.7996885776519775 0.04268705099821091 255 127 0
0.48608145117759705 -0.8009825348854065 0.029271317645907402 255 127 0
0.49035635590553284 -0.7813971638679504 0.0006401656428351998 255 127 0
0.4492012858390808 -0.8188608288764954 -0.031919874250888824 255 127 0
0.46365681290626526 -0.8093515634536743 -0.05217013508081436 255 127 0
0.47128286957740784 -0.8147817254066467 -0.050469182431697845 255 127 0
0.4609490633010864 -0.8141871094703674 -0.0498848482966423 255 127 0
0.4511848986148834 -0.8191820979118347 -0.08181890845298767 255 127 0
0.426729679107666 -0.8184534907341003 -0.11290468275547028 255 127 0
0.4315035939216614 -0.8121180534362793 -0.14793448150157928 255 127 0
0.43241044878959656 -0.8064491748809814 -0.17701062560081482 255 127 0
0.4190305769443512 -0.8072640895843506 -0.18672992289066315 255 127 0
0.4023655652999878 -0.798244833946228 -0.2139235883951187 255 127 0
0.39440852403640747 -0.7879572510719299 -0.243675097823143 255 127 0
0.38532036542892456 -0.7692233920097351 -0.2514471709728241 255 127 0
0.3677460849285126 -0.7648425102233887 -0.2587510049343109 255 127 0
0.3480129837989807 -0.7443345785140991 -0.2550080120563507 255 127 0
0.32600510120391846 -0.7306191325187683 -0.2595773935317993 255 127 0
0.3138003647327423 -0.7035753130912781 -0.2716245949268341 255 127 0
0.3053249716758728 -0.6934665441513062 -0.2723776698112488 255 127 0
0.29991480708122253 -0.6935175657272339 -0.2660794258117676 255 127 0
0.31204599142074585 -0.7053394317626953 -0.2659258246421814 255 127 0
0.31065940856933594 -0.7132478356361389 -0.25810539722442627 255 127 0
0.31088754534721375 -0.7167088389396667 -0.2593461573123932 255 127 0
0.3009945750236511 -0.7191035747528076 -0.2547694146633148 255 127 0
0.2971608638763428 -0.6933379769325256 -0.2602417767047882 255 127 0
0.29247790575027466 -0.6775147318840027 -0.2628640830516815 255 127 0
0.2942742109298706 -0.6906597018241882 -0.2916150689125061 255 127 0
0.30504027009010315 -0.6797090172767639 -0.28404200077056885 255 127 0
0.32273948192596436 -0.6971790790557861 -0.27674219012260437 255 127 0
0.2862401008605957 -0.6822459697723389 -0.23957213759422302 255 127 0
0.2770428955554962 -0.6703763604164124 -0.22403156757354736 255 127 0
0.2508705258369446 -0.6373674273490906 -0.24490226805210114 255 127 0
0.22992220520973206 -0.6285606026649475 -0.25731372833251953 255 127 0
0.23332662880420685 -0.6290262341499329 -0.2690699100494385 255 127 0
0.22035527229309082 -0.6296859979629517 -0.250344842672348 255 127 0
0.24699309468269348 -0.6247752904891968 -0.242780864238739 255 127 0
0.2367285043001175 -0.6384892463684082 -0.2238183170557022 255 127 0
0.26005515456199646 -0.6706284880638123 -0.24438534677028656 255 127 0
0.2856453061103821 -0.6844359040260315 -0.2657521665096283 255 127 0
0.3033708930015564 -0.6982576847076416 -0.26105797290802 255 127 0
0.268685519695282 -0.6899887323379517 -0.24796459078788757 255 127 0
0.2530217468738556 -0.6758754849433899 -0.2516181766986847 255 127 0
0.25657734274864197 -0.6616117358207703 -0.2550261616706848 255 127 0
0.2564607560634613 -0.6505635976791382 -0.2517799437046051 255 127 0
0.25560492277145386 -0.6638742685317993 -0.2699073553085327 255 127 0
0.2897493541240692 -0.6908214688301086 -0.27342504262924194 255 127 0
0.2961766719818115 -0.7168076634407043 -0.24833539128303528 255 127 0
0.3161429762840271 -0.7292107343673706 -0.25714990496635437 255 127 0
0.27957022190093994 -0.7270833253860474 -0.25572478771209717 255 127 0
0.31576457619667053 -0.699374794960022 -0.2786219120025635 255 127 0
0.29582613706588745 -0.7357476353645325 -0.26507386565208435 255 127 0
0.2853253483772278 -0.7186689972877502 -0.25683847069740295 255 127 0
0.265264093875885 -0.7192133069038391 -0.2549862563610077 255 127 0
0.24015754461288452 -0.7543017268180847 -0.2722567915916443 255 127 0
0.000893095915671438 -0.5472100973129272 -0.10748672485351562 255 127 0
-0.11891139298677444 -0.17777204513549805 -0.2413831502199173 255 127 0
-0.17694108188152313 -0.06348644196987152 -0.33184903860092163 255 127 0
-0.21938546001911163 0.06271090358495712 -0.32639408111572266 255 127 0
-0.33479514718055725 0.17836496233940125 -0.2560901343822479 255 127 0
-0.3531672954559326 0.33635213971138 -0.20036567747592926 255 127 0
-0.41747769713401794 0.4455319941043854 -0.10606283694505692 255 127 0
-0.4090609848499298 0.506115734577179 -0.08865837007761002 255 127 0
-0.4541018307209015 0.5518063902854919 -0.06980197876691818 255 127 0
-0.44958290457725525 0.6015585064888 -0.045985929667949677 255 127 0
-0.48594579100608826 0.6276983022689819 -0.0042054615914821625 255 127 0
-0.4742477536201477 0.6503479480743408 0.01128103956580162 255 127 0
-0.4745578467845917 0.6662659049034119 0.018911223858594894 255 127 0
-0.4764256775379181 0.6792745590209961 0.04398738220334053 255 127 0
-0.4840036928653717 0.6942226886749268 0.0661458671092987 255 127 0
-0.4744681715965271 0.7027478814125061 0.0751560628414154 255 127 0
-0.47498974204063416 0.7038668990135193 0.08986706286668777 255 127 0
-0.4802120625972748 0.6996346116065979 0.0861186608672142 255 127 0
-0.472202330827713 0.7007162570953369 0.08605295419692993 255 127 0
-0.48051151633262634 0.7058407068252563 0.09242984652519226 255 127 0
-0.47857221961021423 0.718688428401947 0.09631592780351639 255 127 0
-0.4739329516887665 0.7309058904647827 0.102949358522892 255 127 0
-0.46354973316192627 0.7450738549232483 0.11830975860357285 255 127 0
-0.46222513914108276 0.7450605034828186 0.11177042126655579 255 127 0
-0.4644010066986084 0.7381972670555115 0.1077456921339035 255 127 0
-0.4624559283256531 0.7394559383392334 0.10647096484899521 255 127 0
-0.46148329973220825 0.7425606846809387 0.11532434821128845 255 127 0
-0.45757314562797546 0.7425352931022644 0.12375957518815994 255 127 0
-0.45897287130355835 0.7438592910766602 0.12285088002681732 255 127 0
-0.4577471911907196 0.7453573942184448 0.12828488647937775 255 127 0
-0.4542520344257355 0.7476320266723633 0.13984315097332 255 127 0
-0.45862090587615967 0.7481846213340759 0.13858026266098022 255 127 0
-0.45773470401763916 0.750523030757904 0.13423605263233185 255 127 0
-0.4576568603515625 0.7468581795692444 0.13977453112602234 255 127 0
-0.4530966281890869 0.7462875247001648 0.13898995518684387 255 127 0
-0.4562648832798004 0.7446748614311218 0.1407773643732071 255 127 0
-0.45943784713745117 0.7402034401893616 0.14038579165935516 255 127 0
-0.463135689496994 0.7390123605728149 0.13865354657173157 255 127 0
-0.4617108106613159 0.7394656538963318 0.122758649289608 255 127 0
-0.46033012866973877 0.7328681945800781 0.11910753697156906 255 127 0
-0.457938551902771 0.7305247187614441 0.11805901676416397 255 127 0
-0.45919519662857056 0.7249159216880798 0.11289167404174805 255 127 0
-0.46304434537887573 0.723670244216919 0.11027859896421432 255 127 0
-0.4649937152862549 0.7325316667556763 0.1110319197177887 255 127 0
-0.4644964933395386 0.7322958111763 0.12361738085746765 255 127 0
-0.4665094316005707 0.7271851301193237 0.13108696043491364 255 127 0
-0.467824250459671 0.7235932946205139 0.13030360639095306 255 127 0
-0.4675668478012085 0.7098721861839294 0.12819111347198486 255 127 0
-0.4636676013469696 0.703675389289856 0.11397364735603333 255 127 0
-0.4706609845161438 0.697020947933197 0.12351959943771362 255 127 0
-0.47232890129089355 0.710895836353302 0.12791617214679718 255 127 0
-0.47228673100471497 0.7172771096229553 0.1225101500749588 255 127 0
-0.47329363226890564 0.7218772172927856 0.12994790077209473 255 127 0
-0.4735358655452728 0.704209566116333 0.12246081233024597 255 127 0
-0.4593268930912018 0.688395619392395 0.11844862252473831 255 127 0
-0.4779481887817383 0.673494815826416 0.10531004518270493 255 127 0
-0.4769607484340668 0.6608755588531494 0.11694978177547455 255 127 0
-0.47184422612190247 0.6656287312507629 0.1366685926914215 255 127 0
-0.46966081857681274 0.6724104285240173 0.14243070781230927 255 127 0
-0.4750056266784668 0.6437069177627563 0.15112625062465668 255 127 0
-0.4728846251964569 0.6059051156044006 0.15264900028705597 255 127 0
-0.4847070574760437 0.5855823159217834 0.1341550648212433 255 127 0
-0.4783163070678711 0.5901340246200562 0.12889829277992249 255 127 0
-0.4780765771865845 0.6124187707901001 0.13276980817317963 255 127 0
-0.4765654504299164 0.6273969411849976 0.14694750308990479 255 127 0
-0.4762725234031677 0.6510998606681824 0.1469370424747467 255 127 0
-0.4906848073005676 0.6668127179145813 0.1512453854084015 255 127 0
-0.4876556396484375 0.6696776151657104 0.14974895119667053 255 127 0
-0.4815714359283447 0.6757679581642151 0.17255470156669617 255 127 0
-0.487411767244339 0.6881956458091736 0.17893090844154358 255 127 0
-0.47483107447624207 0.7344115376472473 0.12943494319915771 255 127 0
-0.4583391547203064 0.8117406964302063 -0.037420835345983505 255 127 0
-0.2724647521972656 0.7306205630302429 0.06402944773435593 255 127 0
-0.2094433456659317 0.7282803654670715 0.23103398084640503 255 127 0
-0.0755172148346901 0.48108208179473877 0.25392264127731323 255 127 0
0.005595951806753874 0.3175466060638428 0.2570817470550537 255 127 0
0.06257274001836777 0.22524669766426086 0.21283116936683655 255 127 0
0.08948877453804016 0.17074687778949738 0.16895562410354614 255 127 0
0.08217611908912659 0.14966119825839996 0.16970857977867126 255 127 0
0.09316300600767136 0.1444028913974762 0.1711024045944214 255 127 0
0.09911087900400162 0.13322041928768158 0.17133815586566925 255 127 0
0.09898809343576431 0.1205068901181221 0.1550820767879486 255 127 0
0.10250744968652725 0.11619336158037186 0.14429205656051636 255 127 0
0.10339369624853134 0.10819707065820694 0.12929658591747284 255 127 0
0.09215458482503891 0.11760978400707245 0.13171657919883728 255 127 0
0.11731669306755066 0.09939233958721161 0.11610813438892365 255 127 0
0.10043352097272873 0.09726957976818085 0.12873251736164093 255 127 0
0.11706564575433731 0.10761256515979767 0.14558184146881104 255 127 0
0.09968496859073639 0.10841269046068192 0.1369452327489853 255 127 0
0.11160670220851898 0.10818052291870117 0.15308509767055511 255 127 0
0.1129535436630249 0.08246278762817383 0.15119627118110657 255 127 0
0.13961274921894073 0.04304598644375801 0.13882116973400116 255 127 0
0.1807609498500824 -0.040009479969739914 0.1337697058916092 255 127 0
0.2916804850101471 -0.13600680232048035 0.08070486783981323 255 127 0
0.340729296207428 -0.3020288050174713 0.020997531712055206 255 127 0
0.4162052869796753 -0.46179330348968506 0.016419317573308945 255 127 0
0.4293908178806305 -0.5476697087287903 0.0360538549721241 255 127 0
0.44509759545326233 -0.5904451012611389 0.025692855939269066 255 127 0
0.47012752294540405 -0.6774245500564575 0.002144330646842718 255 127 0
0.500831663608551 -0.7430527210235596 -0.030996141955256462 255 127 0
0.4903669059276581 -0.7954715490341187 -0.06984401494264603 255 127 0
0.4720591604709625 -0.8172449469566345 -0.09569565206766129 255 127 0
0.4482869803905487 -0.8347662687301636 -0.08763676881790161 255 127 0
0.43112531304359436 -0.8493667244911194 -0.07959312945604324 255 127 0
0.4338092505931854 -0.8494800925254822 -0.0660477802157402 255 127 0
0.4287179708480835 -0.8392506837844849 -0.05580691993236542 255 127 0
0.40107783675193787 -0.8517492413520813 -0.053165141493082047 255 127 0
0.3972392976284027 -0.8417280316352844 -0.0476946122944355 255 127 0
0.34078338742256165 -0.8417235612869263 -0.049748219549655914 255 127 0
0.31784966588020325 -0.8141727447509766 -0.047773152589797974 255 127 0
0.27465611696243286 -0.7888711094856262 -0.05647829547524452 255 127 0
0.2447947859764099 -0.7650561928749084 -0.044459909200668335 255 127 0
0.23966164886951447 -0.7522138953208923 -0.021150005981326103 255 127 0
0.22093236446380615 -0.7619026899337769 -0.0092556681483984 255 127 0
0.23779302835464478 -0.772419810295105 -0.0036912423092871904 255 127 0
0.27404290437698364 -0.7988949418067932 -0.007017458789050579 255 127 0
0.28538134694099426 -0.8089026808738708 -0.012296992354094982 255 127 0
0.3017111122608185 -0.8074970841407776 -0.01642380841076374 255 127 0
0.3006840944290161 -0.805255115032196 -0.03651675954461098 255 127 0
0.306203693151474 -0.7958462834358215 -0.043731458485126495 255 127 0
0.30209681391716003 -0.7786566615104675 -0.04717385023832321 255 127 0
0.2750455439090729 -0.7652090191841125 -0.043688200414180756 255 127 0
0.26297345757484436 -0.7508177161216736 -0.04382576793432236 255 127 0
0.2546535134315491 -0.7407585382461548 -0.05131819099187851 255 127 0
0.2571277320384979 -0.7341417670249939 -0.05745283514261246 255 127 0
0.2602308392524719 -0.7465094923973083 -0.035384368151426315 255 127 0
0.25397247076034546 -0.7648965716362 -0.02814469300210476 255 127 0
0.2590489983558655 -0.7760270237922668 -0.014055192470550537 255 127 0
0.2749403715133667 -0.78437340259552 -0.0040559545159339905 255 127 0
0.28549355268478394 -0.8045765161514282 -0.010868576355278492 255 127 0
0.2951810956001282 -0.8275273442268372 -0.0003430728684179485 255 127 0
0.3089810609817505 -0.8261770009994507 0.008581066504120827 255 127 0
0.30912283062934875 -0.8183820843696594 0.0066815330646932125 255 127 0
0.30795663595199585 -0.8308505415916443 0.017578555271029472 255 127 0
0.3153093755245209 -0.8341149687767029 0.017627902328968048 255 127 0
0.31058040261268616 -0.845474898815155 0.011336436495184898 255 127 0
0.3191368281841278 -0.8446958661079407 0.018163764849305153 255 127 0
0.34122008085250854 -0.8507876992225647 0.01837422139942646 255 127 0
0.3328425884246826 -0.8580925464630127 0.024250969290733337 255 127 0
0.3251599967479706 -0.852877676486969 0.03319723904132843 255 127 0
0.32039645314216614 -0.8388950824737549 0.01859300583600998 255 127 0
0.29135221242904663 -0.8327827453613281 0.015989577397704124 255 127 0
0.2844465970993042 -0.8135182857513428 0.005539719946682453 255 127 0
0.30892500281333923 -0.8272294998168945 0.0023342017084360123 255 127 0
0.31360194087028503 -0.8400492072105408 0.0029049122240394354 255 127 0
0.31307700276374817 -0.8331073522567749 0.019129619002342224 255 127 0
0.32209882140159607 -0.8390597701072693 0.023903245106339455 255 127 0
0.3208468556404114 -0.8576052188873291 0.04523693025112152 255 127 0
0.3451414108276367 -0.8713682293891907 0.0650254338979721 255 127 0
0.36072808504104614 -0.8718052506446838 0.06541507691144943 255 127 0
0.3797336220741272 -0.8614695072174072 0.07227833569049835 255 127 0
0.3932030200958252 -0.8601276874542236 0.08312631398439407 255 127 0
0.3958287537097931 -0.8547687530517578 0.08675927668809891 255 127 0
0.3788442313671112 -0.8594087362289429 0.0863543450832367 255 127 0
0.38142845034599304 -0.8579221963882446 0.07611006498336792 255 127 0
0.3709496855735779 -0.8725153803825378 0.0688004344701767 255 127 0
0.36860302090644836 -0.8708974719047546 0.08993419259786606 255 127 0
0.3645623028278351 -0.8651468753814697 0.14239566028118134 255 127 0
0.3720856308937073 -0.8319060206413269 0.17878133058547974 255 127 0
0.3752683699131012 -0.8121246099472046 0.19699320197105408 255 127 0
0.37219861149787903 -0.7976730465888977 0.2217833548784256 255 127 0
0.39505577087402344 -0.8061031699180603 0.1958264857530594 255 127 0
0.3744906485080719 -0.8305361866950989 0.17887282371520996 255 127 0
0.38517773151397705 -0.8245531916618347 0.19007886946201324 255 127 0
0.3572244346141815 -0.8304427862167358 0.1988201141357422 255 127 0
0.3750806748867035 -0.8253515362739563 0.1949949562549591 255 127 0
0.3732084333896637 -0.841072142124176 0.17254608869552612 255 127 0
0.3767540454864502 -0.8328613042831421 0.16234007477760315 255 127 0
0.39617258310317993 -0.8322478532791138 0.11911644786596298 255 127 0
0.3917754888534546 -0.8333664536476135 0.128470316529274 255 127 0
0.4023301899433136 -0.815762996673584 0.1375546157360077 255 127 0
0.39116764068603516 -0.8079515099525452 0.14649049937725067 255 127 0
0.41259369254112244 -0.7860738039016724 0.14285680651664734 255 127 0
0.4035080075263977 -0.7924931645393372 0.12970834970474243 255 127 0
0.424710214138031 -0.792050838470459 0.11569917947053909 255 127 0
0.4179118275642395 -0.8116307258605957 0.10498486459255219 255 127 0
0.4098213016986847 -0.8289893865585327 0.0938059538602829 255 127 0
0.41423138976097107 -0.8365615010261536 0.07158815115690231 255 127 0
0.4279024600982666 -0.8111810088157654 0.08163421601057053 255 127 0
0.4291039705276489 -0.7784286141395569 0.091823048889637 255 127 0
0.4411410093307495 -0.759655237197876 0.05865626782178879 255 127 0
0.4355798363685608 -0.7681792378425598 0.05180874466896057 255 127 0
0.4514949321746826 -0.7709088921546936 0.02639404684305191 255 127 0
0.45322275161743164 -0.7663401365280151 0.004858056548982859 255 127 0
0.46201732754707336 -0.7483874559402466 0.0034782562870532274 255 127 0
0.4629734456539154 -0.7313142418861389 -0.0006500976742245257 255 127 0
0.46028372645378113 -0.7115780711174011 -0.0061043319292366505 255 127 0
0.4637167453765869 -0.6932591199874878 -0.035493794828653336 255 127 0
0.4761431813240051 -0.6803134083747864 -0.06722188740968704 255 127 0
0.4800339937210083 -0.695116400718689 -0.08150976151227951 255 127 0
0.49298909306526184 -0.7040572166442871 -0.11464308947324753 255 127 0
0.48000776767730713 -0.7001053094863892 -0.11789804697036743 255 127 0
0.4809251129627228 -0.6873734593391418 -0.12904568016529083 255 127 0
0.482332706451416 -0.6730844974517822 -0.14421434700489044 255 127 0
0.4903448820114136 -0.6605618596076965 -0.13655470311641693 255 127 0
0.4898146390914917 -0.6516225934028625 -0.13930873572826385 255 127 0
0.48178789019584656 -0.6334934830665588 -0.13385537266731262 255 127 0
0.4701325297355652 -0.6140804886817932 -0.13837778568267822 255 127 0
0.45489975810050964 -0.5836712718009949 -0.11447656899690628 255 127 0
0.44791704416275024 -0.552819550037384 -0.09307738393545151 255 127 0
0.45647260546684265 -0.5273017883300781 -0.07979514449834824 255 127 0
0.4467259645462036 -0.5109431147575378 -0.06289605051279068 255 127 0
0.44547268748283386 -0.5125916004180908 -0.057405147701501846 255 127 0
0.4503692388534546 -0.5151650905609131 -0.06920920312404633 255 127 0
0.4472150206565857 -0.5347033739089966 -0.0846579447388649 255 127 0
0.4526152014732361 -0.5423620939254761 -0.09783852845430374 255 127 0
0.46822330355644226 -0.5430912375450134 -0.10493475943803787 255 127 0
0.47122547030448914 -0.5426619052886963 -0.09843180328607559 255 127 0
0.4742699861526489 -0.5410259366035461 -0.10964973270893097 255 127 0
0.4729403555393219 -0.5391605496406555 -0.10658956319093704 255 127 0
0.4706728756427765 -0.5424415469169617 -0.09544441103935242 255 127 0
0.47174838185310364 -0.5513468384742737 -0.09855343401432037 255 127 0
0.4754050076007843 -0.5304243564605713 -0.09671268612146378 255 127 0
0.4618959128856659 -0.5140931010246277 -0.08990547806024551 255 127 0
0.4549165666103363 -0.49456825852394104 -0.07400538772344589 255 127 0
0.4439302682876587 -0.4673462510108948 -0.05814020335674286 255 127 0
0.4284217655658722 -0.4495992660522461 -0.043359775096178055 255 127 0
0.4352010190486908 -0.4368341565132141 -0.057529471814632416 255 127 0
0.43015000224113464 -0.4434433877468109 -0.06720046699047089 255 127 0
0.4346490502357483 -0.43807581067085266 -0.06142568215727806 255 127 0
0.4291149973869324 -0.4312646687030792 -0.06033165752887726 255 127 0
0.42188212275505066 -0.4074194133281708 -0.04499431326985359 255 127 0
0.4212840795516968 -0.3949323892593384 -0.05335984006524086 255 127 0
0.4175970256328583 -0.38566887378692627 -0.03335535526275635 255 127 0
0.4060102105140686 -0.3733203411102295 -0.0279122032225132 255 127 0
0.39514702558517456 -0.3539329171180725 -0.03572748228907585 255 127 0
0.3926534056663513 -0.33447957038879395 -0.036271318793296814 255 127 0
0.3968203663825989 -0.3390377461910248 -0.024427887052297592 255 127 0
0.4052068293094635 -0.352093368768692 -0.010808471590280533 255 127 0
0.4046867787837982 -0.37122589349746704 -0.030006514862179756 255 127 0
0.41673973202705383 -0.3820982575416565 -0.0412604846060276 255 127 0
0.4294688105583191 -0.3937382102012634 -0.04984179511666298 255 127 0
0.4270026683807373 -0.40118464827537537 -0.04723741114139557 255 127 0
0.43469128012657166 -0.40483829379081726 -0.05823906138539314 255 127 0
0.4315580725669861 -0.4009924829006195 -0.05833911895751953 255 127 0
0.42700865864753723 -0.38889849185943604 -0.059390559792518616 255 127 0
0.42364776134490967 -0.36800411343574524 -0.07000350952148438 255 127 0
0.4135187268257141 -0.3558677136898041 -0.06533553451299667 255 127 0
0.414360374212265 -0.35143420100212097 -0.06405279040336609 255 127 0
0.4219420254230499 -0.35154372453689575 -0.07088697701692581 255 127 0
0.4288955628871918 -0.3561113178730011 -0.07359296083450317 255 127 0
0.42752805352211 -0.3591105043888092 -0.07596389949321747 255 127 0
0.42695534229278564 -0.37275707721710205 -0.07905301451683044 255 127 0
0.42880979180336 -0.38528797030448914 -0.0905878022313118 255 127 0
0.43393978476524353 -0.3803035318851471 -0.09933178871870041 255 127 0
0.4321383237838745 -0.3736337125301361 -0.09993720054626465 255 127 0
0.4260910153388977 -0.3660505712032318 -0.09484539926052094 255 127 0
0.4267365038394928 -0.3632816970348358 -0.0973225012421608 255 127 0
0.4313267171382904 -0.35759416222572327 -0.11067552864551544 255 127 0
0.4273136258125305 -0.3546788692474365 -0.12093529850244522 255 127 0
0.4236829876899719 -0.3406541049480438 -0.12200378626585007 255 127 0
0.42309191823005676 -0.3354582190513611 -0.12181173264980316 255 127 0
0.4200652837753296 -0.325352281332016 -0.10840141773223877 255 127 0
0.4133467376232147 -0.3027874529361725 -0.0992111936211586 255 127 0
0.4044170379638672 -0.2966732084751129 -0.09439413249492645 255 127 0
0.40495219826698303 -0.2912316620349884 -0.08202031254768372 255 127 0
0.4365246295928955 -0.2686203420162201 -0.08198747783899307 255 127 0
0.4416620135307312 -0.3083269000053406 -0.07360245287418365 255 127 0
0.5118577480316162 -0.5656970143318176 -0.4693574011325836 255 127 0
0.3613748252391815 -0.530732274055481 -0.3646191954612732 255 127 0
-0.02574489265680313 -0.3125165104866028 -0.2134113758802414 255 127 0
-0.0017822245135903358 -0.330867201089859 -0.21611468493938446 255 127 0
0.06252218782901764 -0.451585590839386 -0.2958781123161316 255 127 0
0.06935794651508331 -0.509609043598175 -0.23483406007289886 255 127 0
0.020355157554149628 -0.43440645933151245 -0.2004210650920868 255 127 0
0.029481418430805206 -0.4224391281604767 -0.20731587707996368 255 127 0
-0.0013399225426837802 -0.4040444791316986 -0.21630094945430756 255 127 0
0.029652604833245277 -0.41991695761680603 -0.2458898425102234 255 127 0
0.050492145121097565 -0.4243854582309723 -0.23931032419204712 255 127 0
0.07276074588298798 -0.4324294924736023 -0.2500872313976288 255 127 0
0.12639056146144867 -0.4976266026496887 -0.27556732296943665 255 127 0
0.14916656911373138 -0.5337890386581421 -0.2804374694824219 255 127 0
0.14970853924751282 -0.5101941823959351 -0.2687514126300812 255 127 0
0.15620343387126923 -0.49948498606681824 -0.2641299068927765 255 127 0
0.16845399141311646 -0.5206579566001892 -0.259529173374176 255 127 0
0.2615247964859009 -0.5174356698989868 -0.26037633419036865 255 127 0
0.3604089915752411 -0.7336652874946594 -0.1984325498342514 255 127 0
-0.44250330328941345 0.7222404479980469 0.17920097708702087 255 127 0
-0.4744047224521637 0.7670053839683533 0.1480797678232193 255 127 0
-0.4307331144809723 0.7801316380500793 0.22606723010540009 255 127 0
-0.4408828914165497 0.770438551902771 0.2035895735025406 255 127 0
-0.4448334276676178 0.7714214324951172 0.1916811764240265 255 127 0
-0.43394044041633606 0.7769572734832764 0.2003648728132248 255 127 0
-0.45138832926750183 0.7505806684494019 0.2266397625207901 255 127 0
-0.45953187346458435 0.7359932065010071 0.21863311529159546 255 127 0
-0.4602370858192444 0.738200843334198 0.23038937151432037 255 127 0
-0.4641403555870056 0.7380415797233582 0.22144462168216705 255 127 0
-0.44216546416282654 0.742399275302887 0.20019148290157318 255 127 0
-0.4488077163696289 0.7387329339981079 0.19252867996692657 255 127 0
-0.4512472152709961 0.7372141480445862 0.1924382746219635 255 127 0
-0.4475209712982178 0.733077347278595 0.20444253087043762 255 127 0
-0.4485533535480499 0.7351494431495667 0.2035728543996811 255 127 0
-0.4579981565475464 0.7304284572601318 0.20879493653774261 255 127 0
-0.4445902705192566 0.7302904725074768 0.24285319447517395 255 127 0
-0.4225080609321594 0.7662751078605652 0.2496734857559204 255 127 0
-0.17278432846069336 0.4990418255329132 0.2913852334022522 255 127 0
-0.06919128447771072 0.2563905715942383 0.22618956863880157 255 127 0
0.021781543269753456 0.2015286684036255 0.19178907573223114 255 127 0
0.049693427979946136 0.18225644528865814 0.19091995060443878 255 127 0
0.03292180597782135 0.19466251134872437 0.18817000091075897 255 127 0
0.035766925662755966 0.19841253757476807 0.19430069625377655 255 127 0
0.03669369965791702 0.20097316801548004 0.1960378736257553 255 127 0
0.03163309767842293 0.19723646342754364 0.19541120529174805 255 127 0
0.030820176005363464 0.18704524636268616 0.20050227642059326 255 127 0
0.036901943385601044 0.18293045461177826 0.20694947242736816 255 127 0
0.038324568420648575 0.18433286249637604 0.2084398716688156 255 127 0
0.031230034306645393 0.18235741555690765 0.2133544236421585 255 127 0
0.032028183341026306 0.19180187582969666 0.20909558236598969 255 127 0
0.033576127141714096 0.205313041806221 0.21005485951900482 255 127 0
0.03344695642590523 0.18873324990272522 0.21123197674751282 255 127 0
0.04159262776374817 0.17597824335098267 0.21186481416225433 255 127 0
0.03892441838979721 0.18724587559700012 0.20698930323123932 255 127 0
0.0293355081230402 0.19427795708179474 0.2045862078666687 255 127 0
0.032956529408693314 0.1872413009405136 0.1999671757221222 255 127 0
0.03533568233251572 0.1964118480682373 0.19672800600528717 255 127 0
0.03413543477654457 0.19555197656154633 0.19135509431362152 255 127 0
0.04096179082989693 0.18869830667972565 0.18684504926204681 255 127 0
0.043534159660339355 0.18608570098876953 0.1854826658964157 255 127 0
0.03323163092136383 0.19623038172721863 0.18390613794326782 255 127 0
0.04711654409766197 0.19083267450332642 0.1758350282907486 255 127 0
0.02659185789525509 0.23024910688400269 0.18056529760360718 255 127 0
-0.010877743363380432 0.3188810646533966 0.17773306369781494 255 127 0
-0.03496013209223747 0.3960328996181488 0.10386032611131668 255 127 0
-0.03667274862527847 0.45797863602638245 0.09897150844335556 255 127 0
0.06311558932065964 0.2886620759963989 0.11869502812623978 255 127 0
0.1267814040184021 0.21074478328227997 0.1214173287153244 255 127 0
0.19210045039653778 0.01602424494922161 0.0898035317659378 255 127 0
0.18831653892993927 -0.03924814611673355 0.10579656064510345 255 127 0
0.21576376259326935 -0.08086974173784256 0.11375490576028824 255 127 0
0.2295193076133728 -0.09635891765356064 0.13816261291503906 255 127 0
0.23191215097904205 -0.16189777851104736 0.15754757821559906 255 127 0
0.28870096802711487 -0.2882808744907379 0.13160440325737 255 127 0
0.32946667075157166 -0.3396480977535248 0.11734184622764587 255 127 0
0.29826730489730835 -0.33204883337020874 0.14251026511192322 255 127 0
0.27867618203163147 -0.2500162124633789 0.17739509046077728 255 127 0
0.25007644295692444 -0.19560126960277557 0.17536379396915436 255 127 0
0.24419663846492767 -0.16946189105510712 0.166604682803154 255 127 0
0.2503671646118164 -0.15940307080745697 0.18203005194664001 255 127 0
0.23196783661842346 -0.1338016390800476 0.22295013070106506 255 127 0
0.20797324180603027 -0.1342090219259262 0.2569367587566376 255 127 0
0.2824406325817108 -0.152221217751503 0.1654992550611496 255 127 0
0.34200146794319153 -0.32557472586631775 0.07169654220342636 255 127 0
0.3704237937927246 -0.3467002213001251 0.06245654821395874 255 127 0
0.33786267042160034 -0.37507855892181396 0.07281886786222458 255 127 0
0.3534363806247711 -0.3906528949737549 0.09406200796365738 255 127 0
0.3620521128177643 -0.4431796967983246 0.11482056230306625 255 127 0
0.38901257514953613 -0.48525309562683105 0.14133603870868683 255 127 0
0.377129465341568 -0.5551417469978333 0.1581350713968277 255 127 0
0.40062403678894043 -0.6353102922439575 0.16143006086349487 255 127 0
0.40538230538368225 -0.7046433687210083 0.13874118030071259 255 127 0
0.3954440653324127 -0.791796863079071 0.1013934314250946 255 127 0
0.405838280916214 -0.8304590582847595 0.09348039329051971 255 127 0
0.38425907492637634 -0.8401597738265991 0.09587554633617401 255 127 0
0.33021849393844604 -0.8558341264724731 0.09440158307552338 255 127 0
0.2856546640396118 -0.8302213549613953 0.1459697037935257 255 127 0
0.2018752247095108 -0.7460231781005859 0.21607625484466553 255 127 0
0.20616427063941956 -0.7314399480819702 0.17936013638973236 255 127 0
0.21926727890968323 -0.7600356340408325 0.11300858110189438 255 127 0
0.22551961243152618 -0.7561067342758179 0.09929867833852768 255 127 0
0.19434554874897003 -0.7514285445213318 0.1283339262008667 255 127 0
0.15920551121234894 -0.7368298172950745 0.12448375672101974 255 127 0
0.1430850327014923 -0.7066161632537842 0.11289676278829575 255 127 0
0.15178179740905762 -0.7112686038017273 0.09994593262672424 255 127 0
0.18364298343658447 -0.7352893352508545 0.08183819055557251 255 127 0
0.18704481422901154 -0.7284404039382935 0.0469755083322525 255 127 0
0.16975615918636322 -0.7275936603546143 0.05758552625775337 255 127 0
0.18348123133182526 -0.7172749638557434 0.03731827810406685 255 127 0
0.19725371897220612 -0.7222131490707397 0.03237776458263397 255 127 0
0.2114248275756836 -0.7386780381202698 0.04434674233198166 255 127 0
0.21745271980762482 -0.7352108359336853 0.04202736169099808 255 127 0
0.2223026603460312 -0.7306750416755676 0.05049961432814598 255 127 0
0.24143236875534058 -0.7286794185638428 0.053847841918468475 255 127 0
0.25209841132164 -0.7336254715919495 0.07798699289560318 255 127 0
0.25737348198890686 -0.7431157231330872 0.0928034633398056 255 127 0
0.2625802755355835 -0.7616733312606812 0.10052292048931122 255 127 0
0.2781408131122589 -0.7693078517913818 0.09019027650356293 255 127 0
0.2844192385673523 -0.7636836171150208 0.09307105094194412 255 127 0
0.27616530656814575 -0.7750624418258667 0.10200949013233185 255 127 0
0.26126208901405334 -0.7707220911979675 0.108977772295475 255 127 0
0.23260433971881866 -0.7644125819206238 0.11718109995126724 255 127 0
0.22953282296657562 -0.7598746418952942 0.11578385531902313 255 127 0
0.22483950853347778 -0.7560631632804871 0.10289018601179123 255 127 0
0.211618572473526 -0.7478174567222595 0.11688592284917831 255 127 0
0.2107652723789215 -0.7442030906677246 0.10931999236345291 255 127 0
0.20756930112838745 -0.7399474382400513 0.07676496356725693 255 127 0
0.2295907586812973 -0.7391716241836548 0.062037643045186996 255 127 0
0.2353990525007248 -0.7359717488288879 0.06367749720811844 255 127 0
0.24748116731643677 -0.7440341114997864 0.05798899754881859 255 127 0
0.2528357207775116 -0.7591208219528198 0.05399578809738159 255 127 0
0.2646275460720062 -0.7686263918876648 0.06014609709382057 255 127 0
0.2898964285850525 -0.7694475650787354 0.06360753625631332 255 127 0
0.27994638681411743 -0.7711167335510254 0.0775366947054863 255 127 0
0.2681410014629364 -0.7882552742958069 0.08820842206478119 255 127 0
0.27009260654449463 -0.7861294150352478 0.08305425941944122 255 127 0
0.27418068051338196 -0.788751482963562 0.07658126950263977 255 127 0
0.25801023840904236 -0.7718291878700256 0.08754568547010422 255 127 0
0.2455637902021408 -0.7537270188331604 0.07160203903913498 255 127 0
0.253304123878479 -0.7630411386489868 0.031502172350883484 255 127 0
0.269425630569458 -0.7683576941490173 0.031188255175948143 255 127 0
0.2853497862815857 -0.7545098066329956 0.028881123289465904 255 127 0
0.3061317503452301 -0.7676594257354736 0.022605223581194878 255 127 0
0.31539788842201233 -0.7798520922660828 -0.006747753359377384 255 127 0
0.3472626805305481 -0.7865616083145142 -0.012937470339238644 255 127 0
0.34329789876937866 -0.796978235244751 -0.02902338281273842 255 127 0
0.33659324049949646 -0.7887411117553711 -0.0497482605278492 255 127 0
0.3400827646255493 -0.7771245837211609 -0.0695750042796135 255 127 0
0.35064980387687683 -0.7798144817352295 -0.07722099125385284 255 127 0
0.34472644329071045 -0.7881326079368591 -0.08111973106861115 255 127 0
0.34982621669769287 -0.7860406041145325 -0.09562152624130249 255 127 0
0.3531211316585541 -0.781629204750061 -0.10243896394968033 255 127 0
0.3692677617073059 -0.7883405089378357 -0.08721143007278442 255 127 0
0.3696626126766205 -0.8008384108543396 -0.08839509636163712 255 127 0
0.37739357352256775 -0.8061046004295349 -0.08639552444219589 255 127 0
0.376426100730896 -0.8118802905082703 -0.09797843545675278 255 127 0
0.3861176669597626 -0.806398868560791 -0.11181678622961044 255 127 0
0.3753448724746704 -0.8146066069602966 -0.11196430772542953 255 127 0
0.387605220079422 -0.81297767162323 -0.11129750311374664 255 127 0
0.380791574716568 -0.8132014870643616 -0.12724392116069794 255 127 0
0.3793654143810272 -0.8068807721138 -0.1414535492658615 255 127 0
0.3680667281150818 -0.80342698097229 -0.14944849908351898 255 127 0
0.3540920317173004 -0.7979492545127869 -0.15297864377498627 255 127 0
0.35201749205589294 -0.7873445749282837 -0.14956633746623993 255 127 0
0.34162846207618713 -0.7853637933731079 -0.1486029028892517 255 127 0
0.32863298058509827 -0.7793468832969666 -0.13882486522197723 255 127 0
0.3066730797290802 -0.7746240496635437 -0.147247776389122 255 127 0
0.31038641929626465 -0.7595393061637878 -0.16015344858169556 255 127 0
0.2956981658935547 -0.7531070709228516 -0.1645723283290863 255 127 0
0.28947314620018005 -0.7385231256484985 -0.16082189977169037 255 127 0
0.2750645577907562 -0.7382890582084656 -0.15340371429920197 255 127 0
0.2667825520038605 -0.7346422076225281 -0.13912419974803925 255 127 0
0.2615325152873993 -0.7293081283569336 -0.14229844510555267 255 127 0
0.2502964735031128 -0.7140716910362244 -0.14219097793102264 255 127 0
0.2369566410779953 -0.707209050655365 -0.14588740468025208 255 127 0
0.2535267174243927 -0.7033446431159973 -0.14544053375720978 255 127 0
0.2617330253124237 -0.7077001333236694 -0.1451902985572815 255 127 0
0.26564520597457886 -0.7208136320114136 -0.15423914790153503 255 127 0
0.28043344616889954 -0.7211269736289978 -0.20518995821475983 255 127 0
0.08935625851154327 -0.6538497805595398 -0.1616063117980957 255 127 0
-0.09004966914653778 -0.2874411642551422 -0.3081234395503998 255 127 0
-0.21186970174312592 -0.013025329448282719 -0.3145884871482849 255 127 0
-0.14863987267017365 0.03152354061603546 -0.20273251831531525 255 127 0
-0.11932683736085892 -0.12826143205165863 -0.22259220480918884 255 127 0
-0.1725132316350937 -0.10748764127492905 -0.16678926348686218 255 127 0
-0.218680277466774 0.0367312915623188 -0.1244371309876442 255 127 0
-0.31562313437461853 0.21410910785198212 -0.057215724140405655 255 127 0
-0.3613809645175934 0.3322637677192688 -0.02933289110660553 255 127 0
-0.3935478627681732 0.40291374921798706 0.0030466774478554726 255 127 0
-0.4220786690711975 0.4749678373336792 0.030767954885959625 255 127 0
-0.4560331404209137 0.5297034382820129 0.029333416372537613 255 127 0
-0.46469777822494507 0.5783303380012512 0.027035893872380257 255 127 0
-0.4644924998283386 0.6174122095108032 0.05484180897474289 255 127 0
-0.458420068025589 0.631199836730957 0.057750996202230453 255 127 0
-0.46707525849342346 0.6475566029548645 0.053238559514284134 255 127 0
-0.47100088000297546 0.644048810005188 0.05877608433365822 255 127 0
-0.4723561704158783 0.647278904914856 0.057463161647319794 255 127 0
-0.46120670437812805 0.6532610654830933 0.06253594160079956 255 127 0
-0.46846655011177063 0.6609883308410645 0.07173383235931396 255 127 0
-0.4604611098766327 0.6916884779930115 0.08940885961055756 255 127 0
-0.4716270864009857 0.7073895931243896 0.1015397235751152 255 127 0
-0.4671434164047241 0.729130208492279 0.10712014138698578 255 127 0
-0.4715876877307892 0.7369123101234436 0.12328395992517471 255 127 0
-0.4716469943523407 0.7541519403457642 0.12784279882907867 255 127 0
-0.4862830936908722 0.7632469534873962 0.11506406217813492 255 127 0
-0.4766305387020111 0.7713890671730042 0.09762099385261536 255 127 0
-0.4701802432537079 0.7735762596130371 0.09078872948884964 255 127 0
-0.47368142008781433 0.7698554992675781 0.08987875282764435 255 127 0
-0.470162034034729 0.7682345509529114 0.0948563739657402 255 127 0
-0.47537729144096375 0.7669191360473633 0.10337653011083603 255 127 0
-0.47429126501083374 0.7588438391685486 0.11027203500270844 255 127 0
-0.47641658782958984 0.7509676218032837 0.11485383659601212 255 127 0
-0.4709382951259613 0.7457890510559082 0.12464416027069092 255 127 0
-0.46994706988334656 0.742096483707428 0.12976685166358948 255 127 0
-0.4720800817012787 0.7416597008705139 0.13440640270709991 255 127 0
-0.47009512782096863 0.7436721324920654 0.13084547221660614 255 127 0
-0.4691077470779419 0.7436172962188721 0.12850742042064667 255 127 0
-0.47253674268722534 0.7370532751083374 0.1263158619403839 255 127 0
-0.4657379686832428 0.7393603324890137 0.12853404879570007 255 127 0
-0.4713524580001831 0.7428076267242432 0.13060052692890167 255 127 0
-0.4646967649459839 0.7478814721107483 0.1316472887992859 255 127 0
-0.46644535660743713 0.7507559061050415 0.1318528950214386 255 127 0
-0.47034507989883423 0.7511503100395203 0.1313244253396988 255 127 0
-0.4674302041530609 0.7547867894172668 0.12202438712120056 255 127 0
-0.4649730622768402 0.7562597393989563 0.115918830037117 255 127 0
-0.4593944847583771 0.7633935213088989 0.122313492000103 255 127 0
-0.45943689346313477 0.7730512022972107 0.14164459705352783 255 127 0
-0.4592626690864563 0.7800588607788086 0.16383600234985352 255 127 0
-0.46412667632102966 0.7714221477508545 0.20658183097839355 255 127 0
-0.4514066278934479 0.7551571130752563 0.24290189146995544 255 127 0
-0.45404961705207825 0.7319784164428711 0.26171359419822693 255 127 0
-0.46042200922966003 0.7124320864677429 0.2760745584964752 255 127 0
-0.4650973677635193 0.7046887278556824 0.2742912769317627 255 127 0
-0.46876850724220276 0.6951953768730164 0.26862919330596924 255 127 0
-0.46526485681533813 0.6954095363616943 0.2564527690410614 255 127 0
-0.47532978653907776 0.6909807920455933 0.2502663731575012 255 127 0
-0.4713587760925293 0.6987441182136536 0.24765115976333618 255 127 0
-0.4697207510471344 0.7051805257797241 0.24258294701576233 255 127 0
-0.46332356333732605 0.7088956236839294 0.24322892725467682 255 127 0
-0.4679698646068573 0.7078900337219238 0.23214015364646912 255 127 0
-0.4650402069091797 0.7158986926078796 0.2276460975408554 255 127 0
-0.46323591470718384 0.7154598236083984 0.22839507460594177 255 127 0
-0.46593332290649414 0.717656135559082 0.22327467799186707 255 127 0
-0.4665079712867737 0.7198929786682129 0.2238771766424179 255 127 0
-0.463454008102417 0.7205299139022827 0.22364139556884766 255 127 0
-0.46145108342170715 0.7199129462242126 0.2231227159500122 255 127 0
-0.46773260831832886 0.7165273427963257 0.22138363122940063 255 127 0
-0.4666648805141449 0.7200812101364136 0.22300100326538086 255 127 0
-0.462040513753891 0.7234096527099609 0.22855915129184723 255 127 0
-0.46654459834098816 0.719717800617218 0.23063300549983978 255 127 0
-0.4623132348060608 0.7200782895088196 0.23145350813865662 255 127 0
-0.464154988527298 0.7213195562362671 0.23141568899154663 255 127 0
-0.46307307481765747 0.7286137342453003 0.23278062045574188 255 127 0
-0.46541157364845276 0.7369797229766846 0.23297645151615143 255 127 0
-0.46316710114479065 0.7382848858833313 0.24591007828712463 255 127 0
-0.4618954360485077 0.7423489093780518 0.24337609112262726 255 127 0
-0.4608496427536011 0.7466117143630981 0.23652388155460358 255 127 0
-0.4563804566860199 0.7453389167785645 0.23695306479930878 255 127 0
-0.45951002836227417 0.7392991781234741 0.23555777966976166 255 127 0
-0.46933963894844055 0.7297319173812866 0.23824699223041534 255 127 0
-0.473439484834671 0.7268171906471252 0.23610347509384155 255 127 0
-0.475690096616745 0.716787576675415 0.23904067277908325 255 127 0
-0.4799250364303589 0.7101242542266846 0.23544292151927948 255 127 0
-0.47902533411979675 0.6996846795082092 0.2458486557006836 255 127 0
-0.47279050946235657 0.703839898109436 0.25631144642829895 255 127 0
-0.4812980592250824 0.6977635025978088 0.2657080292701721 255 127 0
-0.47783055901527405 0.6979677677154541 0.2754700183868408 255 127 0
-0.4735012352466583 0.674953043460846 0.2942947447299957 255 127 0
-0.4897574782371521 0.6515111923217773 0.296640008687973 255 127 0
-0.4887211322784424 0.6513484120368958 0.30571281909942627 255 127 0
-0.49568524956703186 0.640803337097168 0.33656173944473267 255 127 0
-0.46552717685699463 0.6492136120796204 0.36815345287323 255 127 0
-0.4171539545059204 0.6387297511100769 0.39267170429229736 255 127 0
-0.3611562252044678 0.6078263521194458 0.41258704662323 255 127 0
-0.2812754511833191 0.5986432433128357 0.39496368169784546 255 127 0
-0.20870308578014374 0.45800575613975525 0.30449506640434265 255 127 0
0.015001606196165085 0.2354631870985031 0.26398730278015137 255 127 0
0.05356866493821144 0.10071680694818497 0.2438747137784958 255 127 0
0.05075886473059654 0.11489739269018173 0.2794858515262604 255 127 0
0.021689707413315773 0.21677576005458832 0.3302415907382965 255 127 0
0.006395422853529453 0.2585439682006836 0.3589789569377899 255 127 0
-0.022382518276572227 0.2599697709083557 0.33149954676628113 255 127 0
-0.043489255011081696 0.30306175351142883 0.32657304406166077 255 127 0
-0.0790058895945549 0.34526753425598145 0.313407838344574 255 127 0
-0.10790818184614182 0.40318411588668823 0.30234232544898987 255 127 0
