ply
format ascii 1.0
element vertex 674
property float x
property float y
property float z
property uchar red
property uchar green
property uchar blue
end_header
0.21468248963356018 0.06999017298221588 0.15517520904541016 133 6 166
0.19600653648376465 0.1526501178741455 0.21634723246097565 130 4 167
0.18155275285243988 0.028364283964037895 0.22620636224746704 130 4 167
0.23270100355148315 0.029370712116360664 0.2203681468963623 140 10 164
0.22156468033790588 0.0806647315621376 0.20453497767448425 121 1 168
0.2039068043231964 0.018053190782666206 0.20272471010684967 106 0 167
0.1982768028974533 -0.1178193911910057 0.14910335838794708 109 0 168
0.2166767418384552 -0.17502866685390472 0.022535057738423347 121 1 168
0.16313862800598145 -0.2400873750448227 0.015061589889228344 118 1 168
0.1721182018518448 -0.3906509578227997 0.07967313379049301 129 4 167
0.05368775501847267 -0.5508133769035339 0.06352131068706512 137 8 165
0.04138370603322983 -0.6398078203201294 0.05896889418363571 153 20 159
0.0031614056788384914 -0.6900557279586792 0.01107844803482294 153 20 159
-0.02571781538426876 -0.6845943927764893 0.02349127270281315 144 14 163
-0.025649452582001686 -0.6980984807014465 0.007426711730659008 142 12 164
0.02804463915526867 -0.6745344996452332 -0.028588782995939255 140 10 164
0.08180618286132812 -0.6448307037353516 -0.055340155959129333 146 15 162
0.08965212106704712 -0.6525986790657043 -0.11894567310810089 149 17 161
0.07065902650356293 -0.6515699625015259 -0.12010494619607925 151 19 160
0.0891333743929863 -0.6522254347801208 -0.12692290544509888 127 3 167
0.13962991535663605 -0.6126751899719238 -0.1488019824028015 132 5 166
0.1894233077764511 -0.6136425137519836 -0.15363098680973053 154 21 158
0.18444500863552094 -0.5776838064193726 -0.21489514410495758 155 23 158
0.1262931227684021 -0.6418259739875793 -0.3754323720932007 158 25 156
0.00631999084725976 -0.698768138885498 -0.2793754041194916 253 185 43
-0.030234768986701965 -0.7375707626342773 -0.15681639313697815 253 195 40
-0.052589137107133865 -0.7035365104675293 -0.08397547155618668 253 176 48
-0.032477132976055145 -0.7154204845428467 -0.04417537897825241 253 179 46
-0.022529467940330505 -0.7242602109909058 -0.02691173553466797 253 182 45
-0.004660952370613813 -0.7212833166122437 -0.05494101345539093 253 181 45
-0.009495978243649006 -0.7195445895195007 -0.06258542090654373 253 176 48
-0.01269510667771101 -0.7165854573249817 -0.0713125616312027 253 175 49
-0.024178985506296158 -0.7185192704200745 -0.08870244026184082 253 195 40
-0.022497083991765976 -0.7280715107917786 -0.09585472196340561 253 184 44
-0.02121039852499962 -0.7230609655380249 -0.11713461577892303 253 179 46
-0.03646494448184967 -0.7205986976623535 -0.1419372707605362 253 179 46
-0.029798025265336037 -0.726709246635437 -0.15389418601989746 248 152 62
-0.026039432734251022 -0.7277819514274597 -0.15463972091674805 250 156 59
-0.018959980458021164 -0.7279207110404968 -0.18961530923843384 251 163 55
-0.024011816829442978 -0.7288229465484619 -0.20437607169151306 253 175 49
-0.043446362018585205 -0.7352989315986633 -0.21401473879814148 252 172 50
-0.03649451211094856 -0.7349593639373779 -0.20775678753852844 253 179 46
-0.02878694236278534 -0.7377349734306335 -0.193580761551857 252 199 38
-0.02482796646654606 -0.7360288500785828 -0.16189002990722656 250 213 36
-0.028169913217425346 -0.7385152578353882 -0.1828710287809372 249 219 36
-0.027557147666811943 -0.7308922410011292 -0.31674522161483765 247 226 37
0.037712711840867996 -0.5700640082359314 -0.6173986196517944 248 221 36
-0.2654794156551361 -0.6311556100845337 -0.5515573024749756 233 114 87
-0.4039406180381775 -0.6704129576683044 -0.15166665613651276 232 113 88
-0.15983368456363678 -0.6998401880264282 0.023912090808153152 237 123 81
-0.05662481486797333 -0.7044761776924133 -0.03924405574798584 239 126 78
-0.009419801644980907 -0.7082161903381348 -0.08881591260433197 240 129 77
-0.01419607549905777 -0.7063306570053101 -0.1010199710726738 243 134 73
-0.015638405457139015 -0.6850470304489136 -0.10543599724769592 240 129 77
-0.027620557695627213 -0.688917338848114 -0.10050123184919357 240 129 77
-0.01955624297261238 -0.6928715705871582 -0.09476945549249649 240 129 77
-0.018803197890520096 -0.7009989619255066 -0.11928550899028778 238 124 80
0.007610194385051727 -0.6706442832946777 -0.1665622889995575 234 115 86
0.004535777028650045 -0.6750809550285339 -0.2227964848279953 232 113 88
0.0012564047938212752 -0.6749668121337891 -0.2085437774658203 234 116 85
0.026972072198987007 -0.6844382286071777 -0.20546124875545502 232 113 88
0.043862421065568924 -0.6899081468582153 -0.2079450786113739 228 106 93
0.031643420457839966 -0.6938056349754333 -0.22697018086910248 220 94 102
0.04072663187980652 -0.6818126440048218 -0.20708240568637848 212 82 110
0.04784965142607689 -0.6928249001502991 -0.20182141661643982 217 89 105
0.03531772270798683 -0.6915704607963562 -0.1938469260931015 186 52 135
0.03328685462474823 -0.6935814023017883 -0.21322081983089447 162 28 154
0.033601757138967514 -0.6951492428779602 -0.21652765572071075 183 48 138
0.03143498674035072 -0.6995676755905151 -0.2257029414176941 220 93 102
0.015123583376407623 -0.7035119533538818 -0.20803116261959076 223 97 99
0.012914135120809078 -0.7037272453308105 -0.18821273744106293 220 94 102
0.02453639917075634 -0.7106643915176392 -0.20494844019412994 221 95 101
0.027607664465904236 -0.6958349943161011 -0.21782197058200836 218 90 104
0.00859515368938446 -0.694901704788208 -0.19075095653533936 221 95 101
0.02890634909272194 -0.7048743963241577 -0.2353326380252838 227 103 95
0.037172831594944 -0.6837509870529175 -0.24205823242664337 231 110 90
0.03355434164404869 -0.6901475787162781 -0.2565801441669464 232 113 88
0.030797094106674194 -0.7099201679229736 -0.2500700354576111 232 113 88
0.005482701119035482 -0.6862693428993225 -0.2497418373823166 233 114 87
-0.029367510229349136 -0.6775996088981628 -0.1824813038110733 231 110 90
-0.021446332335472107 -0.6951234340667725 -0.2902717590332031 234 115 86
-0.04942548647522926 -0.682470440864563 -0.27200132608413696 233 114 87
-0.07281272858381271 -0.6993534564971924 -0.19350112974643707 225 101 96
-0.21992598474025726 -0.704095184803009 0.0587175078690052 225 101 96
-0.23133540153503418 -0.7307258248329163 0.13631367683410645 225 101 96
-0.22428423166275024 -0.711184024810791 0.2342686653137207 209 78 114
-0.25102874636650085 -0.6611961126327515 0.3481012284755707 200 68 122
-0.20138198137283325 -0.6339866518974304 0.4117231070995331 183 48 138
-0.20769385993480682 -0.6057128310203552 0.44934386014938354 188 54 133
-0.22933948040008545 -0.5779181718826294 0.48208436369895935 195 62 127
-0.2369079738855362 -0.5973010063171387 0.4744747281074524 194 61 128
-0.23347072303295135 -0.5368147492408752 0.51710045337677 195 62 127
-0.244353249669075 -0.5353517532348633 0.5160657167434692 194 61 128
-0.2006421983242035 -0.5157745480537415 0.5359248518943787 178 44 142
-0.1862928867340088 -0.4943409562110901 0.549278974533081 169 35 149
-0.15010876953601837 -0.5283612608909607 0.5114272832870483 159 26 155
-0.13157907128334045 -0.5371848940849304 0.46118342876434326 154 21 158
-0.11153453588485718 -0.5009873509407043 0.4688964784145355 151 19 160
-0.15142454206943512 -0.5112197995185852 0.4828917384147644 151 19 160
-0.1359943002462387 -0.523120641708374 0.48179692029953003 155 23 158
-0.14595168828964233 -0.5128861665725708 0.4886733591556549 153 20 159
-0.15607264637947083 -0.5073012113571167 0.4533740282058716 172 37 147
-0.18717406690120697 -0.47543495893478394 0.4886496961116791 191 57 130
-0.1952005922794342 -0.48704442381858826 0.5256338715553284 197 64 125
-0.19175511598587036 -0.49072298407554626 0.532461404800415 204 72 118
-0.1954752504825592 -0.5107360482215881 0.528053343296051 184 50 137
-0.18873032927513123 -0.48117443919181824 0.4960818290710449 165 31 151
-0.1755794882774353 -0.5233326554298401 0.42864835262298584 189 55 132
-0.17453870177268982 -0.5442163348197937 0.3926311731338501 174 39 145
-0.1778455525636673 -0.5371845364570618 0.35278961062431335 169 35 149
-0.1578696370124817 -0.4866800904273987 0.38387221097946167 174 39 145
-0.15338414907455444 -0.49972888827323914 0.4061299264431 160 27 155
-0.13443253934383392 -0.49398720264434814 0.4074947237968445 182 47 139
-0.13739609718322754 -0.5142379999160767 0.4379589259624481 209 78 114
-0.09399697184562683 -0.5619760751724243 0.3885139524936676 147 16 161
-0.08090369403362274 -0.5559024214744568 0.3724469542503357 146 15 162
-0.06605282425880432 -0.5744940042495728 0.33819708228111267 126 3 167
-0.07100144773721695 -0.5806618332862854 0.319328248500824 136 7 165
-0.0414520762860775 -0.5656874775886536 0.33596938848495483 127 3 167
-0.05895701050758362 -0.5369517207145691 0.38832297921180725 120 1 168
-0.0439261719584465 -0.5014525055885315 0.4541369080543518 127 3 167
-0.043209485709667206 -0.4771980345249176 0.46683332324028015 127 3 167
-0.02346091717481613 -0.49716371297836304 0.42956337332725525 127 3 167
-0.0026889718137681484 -0.5146139860153198 0.4046342968940735 133 6 166
0.033066216856241226 -0.5047262907028198 0.35932397842407227 129 4 167
0.0479683019220829 -0.5233355164527893 0.3248738944530487 118 1 168
0.06063448265194893 -0.5283327698707581 0.3071292042732239 114 0 168
0.04583911970257759 -0.5267320871353149 0.17072880268096924 118 1 168
0.24037925899028778 -0.5274670124053955 -0.12978312373161316 112 0 168
0.05507940798997879 -0.5707210898399353 -0.4042648375034332 247 147 65
-0.31891775131225586 -0.4263555109500885 -0.4007525146007538 250 159 58
-0.2950567901134491 -0.4659803807735443 -0.433051198720932 250 156 59
-0.26318299770355225 0.13674865663051605 -0.639256477355957 232 113 88
-0.22665271162986755 0.25629594922065735 -0.6502917408943176 229 107 92
-0.24219553172588348 0.2455826848745346 -0.6583800911903381 237 121 82
-0.26931920647621155 0.24684980511665344 -0.6270265579223633 224 100 97
-0.25342151522636414 0.2569366991519928 -0.6457096338272095 241 130 76
-0.25971662998199463 0.2877676784992218 -0.6292856335639954 237 121 82
-0.2471347451210022 0.23166607320308685 -0.6513535380363464 219 91 103
-0.21554957330226898 0.24611446261405945 -0.6654483675956726 245 141 69
-0.20028014481067657 0.2688891589641571 -0.7043113112449646 235 118 84
-0.16411449015140533 0.28822267055511475 -0.7422429919242859 237 121 82
-0.13309001922607422 0.3593598008155823 -0.5877960920333862 234 116 85
-0.06544256955385208 0.4617156982421875 -0.5302910208702087 241 130 76
-0.0483979806303978 0.526030957698822 -0.5079641342163086 250 159 58
-0.054425980895757675 0.5140923857688904 -0.4442378282546997 236 120 83
-0.08547646552324295 0.5324894189834595 -0.4001433849334717 242 132 75
-0.07885684072971344 0.5595613718032837 -0.3809143602848053 249 153 61
-0.08378016203641891 0.5435042977333069 -0.4183530807495117 243 134 73
-0.11750874668359756 0.5079677700996399 -0.40134018659591675 253 178 47
-0.1357955038547516 0.48069465160369873 -0.43713393807411194 250 159 58
-0.17822755873203278 0.47968143224716187 -0.43840304017066956 246 145 66
-0.20690563321113586 0.4403231739997864 -0.47498124837875366 249 154 60
-0.24779611825942993 0.3838711977005005 -0.46427541971206665 248 223 36
-0.2857440412044525 0.3075767457485199 -0.4627455770969391 240 128 77
-0.317283570766449 0.25126221776008606 -0.4815957248210907 246 143 67
-0.34780701994895935 0.2308255434036255 -0.47327274084091187 242 133 74
-0.3962553143501282 0.16604623198509216 -0.4843819737434387 237 121 82
-0.3725864291191101 0.15845327079296112 -0.560010552406311 238 124 80
-0.3866283595561981 0.16157129406929016 -0.5774341225624084 228 106 93
-0.40793126821517944 0.15519699454307556 -0.5650900602340698 252 199 38
-0.4000197947025299 0.1272445172071457 -0.550273060798645 253 195 40
-0.39195963740348816 0.15030768513679504 -0.5226502418518066 243 236 38
-0.38193652033805847 0.2104303389787674 -0.5401034951210022 240 245 37
-0.37642210721969604 0.19084209203720093 -0.5537368655204773 241 243 38
-0.327597439289093 0.16852758824825287 -0.6039580702781677 24 6 139
-0.3261101245880127 0.2489621639251709 -0.5789598226547241 43 5 148
-0.3224720060825348 0.21478021144866943 -0.6300694346427917 31 5 142
-0.33523231744766235 0.2454143464565277 -0.5999259352684021 43 5 148
-0.3244858384132385 0.22512704133987427 -0.5843808650970459 244 234 38
-0.3233761489391327 0.2552972435951233 -0.5553725361824036 244 234 38
-0.29318302869796753 0.2680738568305969 -0.5794891119003296 243 238 38
-0.2873327136039734 0.2603813409805298 -0.5777292847633362 245 233 38
-0.2887805104255676 0.22729013860225677 -0.6158139705657959 242 240 38
-0.3089517652988434 0.26105979084968567 -0.6041978597640991 24 6 139
-0.32093164324760437 0.2523026466369629 -0.5782068967819214 241 243 38
-0.313833087682724 0.23306311666965485 -0.5482595562934875 253 196 39
-0.31130483746528625 0.2442532330751419 -0.5571532249450684 16 7 135
-0.30556946992874146 0.29072293639183044 -0.5222172737121582 19 6 137
-0.26784762740135193 0.2633412182331085 -0.5139411687850952 243 238 38
-0.2204383909702301 0.3072519302368164 -0.5496803522109985 29 6 141
-0.20054304599761963 0.3762427270412445 -0.548535943031311 43 5 148
-0.179832324385643 0.39002710580825806 -0.484242707490921 239 248 33
-0.17186743021011353 0.41836676001548767 -0.4390309453010559 33 5 143
-0.18152333796024323 0.45373624563217163 -0.40418821573257446 239 248 33
-0.1606154590845108 0.4703029692173004 -0.3774101436138153 33 5 143
-0.1372542381286621 0.4829338490962982 -0.3858831226825714 245 233 38
-0.15144440531730652 0.47873827815055847 -0.3932310938835144 251 208 36
-0.1397952437400818 0.42313283681869507 -0.45469003915786743 252 201 38
-0.1653365045785904 0.3836154043674469 -0.47352707386016846 253 188 42
-0.17343688011169434 0.3796144723892212 -0.4925535023212433 253 182 45
-0.24277335405349731 0.37229475378990173 -0.519187331199646 249 153 61
-0.22163844108581543 0.4660954475402832 -0.4930833876132965 250 160 57
-0.14477147161960602 0.5887731909751892 -0.3654806613922119 52 4 152
-0.1011120155453682 0.6200618147850037 -0.3721770644187927 58 4 154
-0.13181351125240326 0.6458314061164856 -0.3202023208141327 58 4 154
-0.14764167368412018 0.6077159643173218 -0.22057786583900452 59 3 154
-0.11983408778905869 0.629370927810669 -0.19531407952308655 76 2 161
-0.09725379943847656 0.5980043411254883 -0.2215309888124466 87 1 164
-0.09814020991325378 0.5333461761474609 -0.2595898509025574 84 1 163
-0.08740268647670746 0.6307491064071655 -0.20890198647975922 71 2 159
-0.02265213057398796 0.3552715480327606 0.045752156525850296 78 2 161
0.2199418842792511 0.6074666380882263 0.16237157583236694 208 77 115
0.40881118178367615 0.6625041961669922 0.05008566007018089 203 71 119
0.4041615426540375 0.6268056035041809 0.1285921335220337 202 70 120
0.4319877624511719 0.621791422367096 0.17418557405471802 202 70 120
0.43824148178100586 0.6094917058944702 0.15356525778770447 200 68 122
0.46060803532600403 0.5758906006813049 0.13816651701927185 191 57 130
0.48402395844459534 0.5539999008178711 0.13066789507865906 194 61 128
0.4561932682991028 0.5742402672767639 0.1414939910173416 200 68 122
0.4405159652233124 0.6305995583534241 0.12650421261787415 181 46 140
0.4049013555049896 0.6444392204284668 0.1234905794262886 172 37 147
0.37194642424583435 0.6544303894042969 0.13749410212039948 175 40 144
0.35857072472572327 0.6717491745948792 0.11554978787899017 175 40 144
0.3504166901111603 0.6700063943862915 0.14545007050037384 173 38 146
0.349774032831192 0.6658957004547119 0.1793326437473297 175 40 144
0.34079721570014954 0.685857355594635 0.16367459297180176 182 47 139
0.32514986395835876 0.6738101243972778 0.2067602127790451 174 39 145
0.3131748139858246 0.6894004344940186 0.228872612118721 182 47 139
0.3013608157634735 0.6847097277641296 0.2367183119058609 177 43 143
0.28774532675743103 0.6761653423309326 0.2407297044992447 174 39 145
0.3058168590068817 0.6705094575881958 0.26979491114616394 176 42 143
0.31196466088294983 0.6832207441329956 0.30522626638412476 192 59 129
0.32152286171913147 0.6789572238922119 0.293149471282959 205 73 117
0.33237165212631226 0.6940164566040039 0.2690962553024292 217 89 105
0.3421690762042999 0.6951143741607666 0.23720428347587585 223 97 99
0.34985703229904175 0.7029549479484558 0.2181728333234787 223 97 99
0.3217213749885559 0.7375555038452148 0.18516069650650024 213 83 109
0.31814900040626526 0.7227964997291565 0.19529972970485687 215 86 108
0.3278331160545349 0.7144542336463928 0.17898255586624146 217 89 105
0.33173495531082153 0.7212915420532227 0.14417721331119537 227 103 95
0.30039742588996887 0.7460143566131592 0.12323129922151566 223 98 98
0.28745007514953613 0.748184859752655 0.04993068054318428 236 120 83
0.2758536636829376 0.7453694939613342 -0.005125722382217646 241 130 76
0.24685291945934296 0.749016523361206 -0.03137974813580513 244 138 71
0.2153920978307724 0.728787899017334 -0.09948083758354187 249 153 61
0.2314780056476593 0.7097250819206238 -0.11462906748056412 250 157 58
0.22068972885608673 0.7027579545974731 -0.13873082399368286 248 150 63
0.2097499817609787 0.7032142877578735 -0.14311133325099945 251 163 55
0.2020214945077896 0.6900027394294739 -0.16879548132419586 253 175 49
0.1891610473394394 0.6901617646217346 -0.17979216575622559 251 163 55
0.1727128028869629 0.6833019852638245 -0.17272700369358063 252 199 38
0.1674264520406723 0.6878253221511841 -0.1508294939994812 253 193 40
0.13926248252391815 0.6813437938690186 -0.1922062784433365 252 204 37
0.1144968718290329 0.6018533706665039 -0.2052091658115387 253 195 40
0.03890073671936989 0.4640916585922241 -0.3248837888240814 242 241 38
-0.3199710249900818 0.4864967465400696 -0.40681999921798706 212 82 110
-0.5348614454269409 0.24148182570934296 -0.4597325921058655 209 78 114
-0.463373601436615 0.1648620069026947 -0.49489739537239075 204 72 118
-0.5220606923103333 0.10237348079681396 -0.5543335676193237 199 66 123
-0.37093931436538696 0.16039402782917023 -0.6340643167495728 193 60 128
-0.31209462881088257 0.3454231321811676 -0.5138124823570251 193 60 128
-0.38037005066871643 0.3876286745071411 -0.37516123056411743 197 64 125
-0.3706444203853607 0.37902796268463135 -0.45360812544822693 200 68 122
-0.4065294861793518 0.341571182012558 -0.4492517113685608 199 66 123
-0.3579895496368408 0.24367330968379974 -0.4980446398258209 198 65 124
-0.3469791114330292 0.2875528335571289 -0.5358300805091858 195 62 127
-0.25917932391166687 0.41057083010673523 -0.5635395646095276 188 54 133
-0.19071659445762634 0.5661097168922424 -0.47386521100997925 174 39 145
-0.09320361167192459 0.5776011347770691 -0.4869370758533478 167 33 151
-0.0638737827539444 0.6852877140045166 -0.3782406151294708 170 36 148
-0.061678484082221985 0.6227076649665833 -0.39562278985977173 159 26 155
-0.04201790317893028 0.6244747042655945 -0.3546006977558136 153 20 159
-0.030211688950657845 0.5978749394416809 -0.3338313400745392 150 18 160
-0.047861501574516296 0.5618116855621338 -0.3839242458343506 154 21 158
-0.05976322665810585 0.5883796811103821 -0.3981997072696686 151 19 160
-0.05572592094540596 0.6061244010925293 -0.3604508638381958 146 15 162
-0.03911061957478523 0.6263571381568909 -0.3314441740512848 163 29 153
-0.027457688003778458 0.644148051738739 -0.28036707639694214 155 23 158
-0.013610980473458767 0.6354653239250183 -0.22285069525241852 118 1 168
-0.008670485578477383 0.6436553597450256 -0.23903025686740875 103 0 167
0.005206483881920576 0.6441877484321594 -0.22772744297981262 137 8 165
0.01785879023373127 0.6412455439567566 -0.22244152426719666 130 4 167
0.023915328085422516 0.6502746939659119 -0.22487026453018188 130 4 167
0.04845494404435158 0.6492828726768494 -0.23180313408374786 134 7 166
0.05669351667165756 0.6469535231590271 -0.24019145965576172 139 9 164
0.09129640460014343 0.6296695470809937 -0.24764801561832428 134 7 166
0.1099199652671814 0.6352115869522095 -0.253054678440094 137 8 165
0.1032223030924797 0.6274080276489258 -0.2882075011730194 142 12 164
0.12262839078903198 0.6220500469207764 -0.2618125379085541 137 8 165
0.13444173336029053 0.6243277192115784 -0.25352784991264343 144 14 163
0.13290102779865265 0.5986829996109009 -0.2735959589481354 134 7 166
0.13897155225276947 0.5983353853225708 -0.25468185544013977 139 9 164
0.16555562615394592 0.5993918180465698 -0.2532479763031006 153 20 159
0.15592223405838013 0.5745770335197449 -0.2639961838722229 140 10 164
0.18947888910770416 0.5420012474060059 -0.27924445271492004 155 23 158
0.20109786093235016 0.5548914074897766 -0.2802390456199646 143 13 163
0.21205979585647583 0.5235386490821838 -0.33869004249572754 151 19 160
0.18041273951530457 0.5106790661811829 -0.3793194890022278 154 21 158
0.1416773647069931 0.4632161557674408 -0.4100353717803955 149 17 161
0.12021803855895996 0.454140305519104 -0.4118364453315735 154 21 158
0.08423395454883575 0.5252403616905212 -0.43485334515571594 155 23 158
0.01827760972082615 0.49633756279945374 -0.4580855071544647 164 30 152
0.0038403458893299103 0.49158793687820435 -0.4185883700847626 151 19 160
-0.030539825558662415 0.48758208751678467 -0.4083406627178192 158 25 156
-0.08358626812696457 0.36689791083335876 -0.4554823935031891 154 21 158
-0.21420978009700775 0.310638964176178 -0.4246005713939667 132 5 166
-0.2888343334197998 0.1242799386382103 -0.5174602270126343 155 23 158
-0.391325980424881 0.2500970959663391 -0.4867967665195465 188 54 133
-0.4182896018028259 0.18863597512245178 -0.43149760365486145 159 26 155
-0.43791306018829346 0.35327380895614624 -0.3365198075771332 140 10 164
-0.4654063880443573 0.34638747572898865 -0.22429431974887848 137 8 165
-0.4226815104484558 0.3669176995754242 -0.15109781920909882 123 2 168
-0.5280452370643616 0.37380146980285645 -0.13100703060626984 120 1 168
-0.5759432911872864 0.328752338886261 -0.10046138614416122 118 1 168
-0.6304690837860107 0.3088577687740326 -0.07169735431671143 115 0 168
-0.5621752738952637 0.37778419256210327 -0.12523052096366882 112 0 168
-0.47664496302604675 0.3630845546722412 -0.1975032091140747 115 0 168
-0.4712127447128296 0.3956424593925476 -0.15641194581985474 109 0 168
-0.47455254197120667 0.25623634457588196 -0.20612584054470062 106 0 167
-0.44452473521232605 0.346615731716156 -0.238265722990036 103 0 167
-0.602161169052124 0.2424858808517456 -0.23020315170288086 98 0 166
-0.6354323029518127 0.11308469623327255 -0.16578306257724762 92 0 165
-0.6516004800796509 0.026457715779542923 -0.06235676258802414 94 0 165
-0.629953920841217 0.1260032206773758 -0.11163893342018127 87 1 164
-0.6681598424911499 0.09710380434989929 -0.062046170234680176 90 0 165
-0.5850275158882141 0.08574004471302032 0.014576837420463562 95 0 166
-0.5960609316825867 0.18189454078674316 0.07193221896886826 97 0 166
-0.5876771807670593 0.20583315193653107 0.02566046267747879 101 0 167
-0.566177248954773 0.19497555494308472 0.09720173478126526 101 0 167
-0.5739171504974365 0.1363770216703415 0.1412312537431717 98 0 166
-0.5375262498855591 0.14747308194637299 0.020959293469786644 103 0 167
-0.5746331214904785 -0.01900627091526985 -0.026719985529780388 90 0 165
-0.48557916283607483 -0.21400772035121918 -0.09508690237998962 86 1 163
-0.515835165977478 -0.2291286289691925 -0.18282195925712585 90 0 165
-0.46341198682785034 -0.2908371388912201 -0.273570716381073 90 0 165
-0.43659135699272156 -0.35951927304267883 -0.30347779393196106 94 0 165
-0.43960803747177124 -0.4494068920612335 -0.29853352904319763 90 0 165
-0.462973952293396 -0.4590839147567749 -0.18685996532440186 86 1 163
-0.44537070393562317 -0.36311769485473633 -0.37619051337242126 68 3 158
-0.44782477617263794 -0.25261756777763367 -0.3838098645210266 59 3 154
-0.3911197781562805 -0.11387793719768524 -0.4371166527271271 61 3 155
-0.4041251540184021 -0.04077666625380516 -0.28186842799186707 64 3 156
-0.4023870527744293 0.04017851874232292 -0.20066030323505402 89 1 164
-0.4519079625606537 0.047106560319662094 -0.07106480747461319 84 1 163
-0.3951856195926666 -0.09481469541788101 -0.11424077302217484 76 2 161
-0.42140835523605347 -0.18794073164463043 -0.20192734897136688 78 2 161
-0.4296890199184418 -0.44764938950538635 -0.2487507164478302 52 4 152
-0.3791123032569885 -0.5083268284797668 -0.2652413249015808 242 241 38
-0.4053962826728821 -0.4879900813102722 -0.3518885672092438 103 0 167
-0.4530404806137085 -0.5105874538421631 -0.3896896243095398 108 0 168
-0.4218285083770752 -0.4474159777164459 -0.42956289649009705 115 0 168
-0.5566126108169556 -0.3181869685649872 -0.38993242383003235 118 1 168
-0.5608999133110046 -0.28826653957366943 -0.3019631803035736 111 0 168
-0.5260206460952759 -0.3193375766277313 -0.24878066778182983 111 0 168
-0.5947567224502563 -0.3593516945838928 -0.22423914074897766 108 0 168
-0.5160038471221924 -0.36944323778152466 -0.352756142616272 111 0 168
-0.511520504951477 -0.28685101866722107 -0.4126201272010803 112 0 168
-0.45709094405174255 -0.29302769899368286 -0.4995802044868469 118 1 168
-0.4264940321445465 -0.1933915615081787 -0.5535431504249573 118 1 168
-0.35793930292129517 -0.19931091368198395 -0.5814459323883057 117 0 168
-0.3167162537574768 -0.19474738836288452 -0.529356837272644 118 1 168
-0.3532157838344574 -0.25653722882270813 -0.4668714702129364 151 19 160
-0.30185064673423767 -0.20114322006702423 -0.5200532674789429 157 24 157
-0.3357451856136322 -0.20479339361190796 -0.4744657278060913 160 27 155
-0.29368293285369873 -0.2587125599384308 -0.4241079092025757 167 33 151
-0.36377841234207153 -0.209621399641037 -0.3987322449684143 163 29 153
-0.3335472345352173 -0.17089611291885376 -0.3966646194458008 163 29 153
-0.4352632164955139 0.00930880382657051 -0.3531223237514496 163 29 153
-0.4105071425437927 0.0905451625585556 -0.32890957593917847 159 26 155
-0.3930276334285736 0.2551930546760559 -0.21614296734333038 158 25 156
-0.4052271842956543 0.3002086281776428 -0.11671683937311172 155 23 158
-0.3689170777797699 0.3298402428627014 -0.09356703609228134 160 27 155
-0.37139207124710083 0.37826693058013916 -0.0840168371796608 163 29 153
-0.3725191354751587 0.4644641876220703 -0.038702573627233505 157 24 157
-0.3072882890701294 0.45033255219459534 -0.17882926762104034 154 21 158
-0.3169921636581421 0.4961884617805481 -0.24421727657318115 162 28 154
-0.3039688766002655 0.37800997495651245 -0.3554544746875763 167 33 151
-0.23377074301242828 0.3972308933734894 -0.4538082778453827 178 44 142
-0.17292706668376923 0.36104631423950195 -0.5211977958679199 183 48 138
-0.15443673729896545 0.4563709497451782 -0.522070050239563 189 55 132
-0.12070967257022858 0.43154311180114746 -0.5207260251045227 190 56 131
-0.009104292839765549 0.5308839678764343 -0.49355438351631165 238 124 80
-0.04399772733449936 0.3318485915660858 -0.5631884932518005 246 143 67
-0.02114417962729931 0.22708848118782043 -0.6534196734428406 248 150 63
-0.029511740431189537 0.13762304186820984 -0.6873645782470703 251 162 56
-0.045997254550457 0.13734212517738342 -0.6998113989830017 252 169 52
-0.03653654456138611 0.1727191060781479 -0.7032268643379211 253 188 42
-0.027063913643360138 0.14899474382400513 -0.7202044129371643 251 209 36
-0.045902881771326065 0.13829626142978668 -0.7137783765792847 247 224 36
-0.031044410541653633 0.14799465239048004 -0.7194857001304626 242 240 38
-0.016495026648044586 0.1472238004207611 -0.7301993370056152 242 241 38
-0.011115803383290768 0.13814528286457062 -0.7284531593322754 31 5 142
0.0025779753923416138 0.18409405648708344 -0.7458600997924805 240 245 37
-0.00419263681396842 0.19109724462032318 -0.7197767496109009 31 5 142
0.013112709857523441 0.23295515775680542 -0.7089018225669861 43 5 148
-0.003245798870921135 0.2176087200641632 -0.698373556137085 61 3 155
-0.0014133438235148787 0.21426837146282196 -0.6939855813980103 117 0 168
0.01036296971142292 0.1812029331922531 -0.7388620972633362 89 1 164
0.00783743616193533 0.12055974453687668 -0.755779504776001 41 5 147
0.023495815694332123 0.10060463845729828 -0.7836700081825256 81 1 162
0.04181603714823723 0.10326709598302841 -0.7933453321456909 52 4 152
-0.0016451843548566103 0.11457430571317673 -0.7941587567329407 71 2 159
-0.041207604110240936 0.09948809444904327 -0.7714305520057678 86 1 163
-0.07062000781297684 0.11779090762138367 -0.7563284039497375 97 0 166
-0.09230540692806244 0.12515899538993835 -0.7490860223770142 81 1 162
-0.10813023149967194 0.16382215917110443 -0.7041439414024353 78 2 161
-0.109671950340271 0.16870702803134918 -0.6729558110237122 79 2 162
-0.0905536562204361 0.23565854132175446 -0.6510099172592163 78 2 161
-0.055596280843019485 0.3215535879135132 -0.6131274104118347 81 1 162
-0.039061594754457474 0.33985280990600586 -0.5614331364631653 78 2 161
-0.0188855342566967 0.4296196699142456 -0.5284274220466614 78 2 161
0.016334837302565575 0.4225320816040039 -0.536558985710144 73 2 159
0.034257639199495316 0.41218844056129456 -0.5378851294517517 112 0 168
0.01927964948117733 0.43135884404182434 -0.5704184174537659 74 2 160
-0.01987902633845806 0.40964657068252563 -0.5629010200500488 81 1 162
-0.04264009743928909 0.3981601297855377 -0.592240571975708 39 5 146
-0.0950978621840477 0.361627995967865 -0.6710475087165833 79 2 162
-0.14621564745903015 0.29930225014686584 -0.6615694761276245 87 1 164
-0.1598324328660965 0.2518548369407654 -0.6445943117141724 97 0 166
-0.18772612512111664 0.2891407608985901 -0.6394393444061279 127 3 167
-0.19465388357639313 0.2920936644077301 -0.6261809468269348 90 0 165
-0.18426759541034698 0.3520197570323944 -0.5789387226104736 87 1 164
-0.18261690437793732 0.39833712577819824 -0.5779920816421509 114 0 168
-0.16679249703884125 0.3703717589378357 -0.5873217582702637 84 1 163
-0.18339349329471588 0.30911701917648315 -0.5710428357124329 121 1 168
-0.22413873672485352 0.29576534032821655 -0.5213736295700073 95 0 166
-0.1960444450378418 0.36685630679130554 -0.4776853322982788 94 0 165
-0.17760500311851501 0.4185895323753357 -0.40934526920318604 98 0 166
-0.16536752879619598 0.4492041766643524 -0.38181349635124207 98 0 166
-0.16208359599113464 0.45291051268577576 -0.36027583479881287 108 0 168
-0.18523037433624268 0.45191559195518494 -0.32911601662635803 104 0 167
-0.24849838018417358 0.39593416452407837 -0.30801713466644287 51 4 151
-0.30816370248794556 0.3721510171890259 -0.2028530389070511 73 2 159
-0.3454305827617645 0.3077462911605835 -0.20895826816558838 56 4 153
-0.4728885889053345 0.16008925437927246 -0.24993331730365753 41 5 147
-0.58998042345047 -0.13862964510917664 -0.18495140969753265 31 5 142
-0.6354749202728271 -0.28831738233566284 -0.08132289350032806 33 5 143
-0.6876373887062073 -0.29635223746299744 -0.01369436178356409 35 5 144
-0.6658708453178406 -0.3211234211921692 0.10432107746601105 56 4 153
-0.665226399898529 -0.36902016401290894 0.17524199187755585 43 5 148
-0.6880417466163635 -0.33730554580688477 0.2654363811016083 39 5 146
-0.6694314479827881 -0.23052962124347687 0.398433655500412 35 5 144
-0.6291131973266602 -0.18180590867996216 0.4869026243686676 39 5 146
-0.6017283201217651 -0.21370187401771545 0.5288298726081848 61 3 155
-0.5968248248100281 -0.2929970622062683 0.5021870136260986 59 3 154
-0.5926075577735901 -0.38250088691711426 0.4488614797592163 51 4 151
-0.5855346322059631 -0.4225425124168396 0.4043103754520416 49 4 150
-0.5933800339698792 -0.40571823716163635 0.41604194045066833 37 5 145
-0.6095291972160339 -0.36787599325180054 0.42511433362960815 242 240 38
-0.592630922794342 -0.35338547825813293 0.41889476776123047 244 234 38
-0.5757404565811157 -0.36444443464279175 0.4469810426235199 243 238 38
-0.5823755860328674 -0.44664090871810913 0.4174897074699402 241 243 38
-0.5594527721405029 -0.4823308289051056 0.3768724203109741 243 238 38
-0.5231708288192749 -0.5111813545227051 0.3725949823856354 241 243 38
-0.4972771108150482 -0.5479744672775269 0.37263911962509155 239 248 33
-0.4620908200740814 -0.5865941047668457 0.33842745423316956 16 7 135
-0.45361843705177307 -0.5770713090896606 0.3556917607784271 240 246 35
-0.46359798312187195 -0.5583284497261047 0.36855506896972656 243 236 38
-0.45616602897644043 -0.5511465668678284 0.39215320348739624 242 241 38
-0.4665336310863495 -0.5407245755195618 0.403142511844635 21 6 138
-0.4714150130748749 -0.516635000705719 0.41613462567329407 16 7 135
-0.4829239845275879 -0.49750128388404846 0.44658762216567993 29 6 141
-0.495297908782959 -0.4916192293167114 0.4504191279411316 239 248 33
-0.481590211391449 -0.49504464864730835 0.45242080092430115 245 231 38
-0.49138933420181274 -0.47615301609039307 0.4718114137649536 239 248 33
-0.5294833183288574 -0.4941582679748535 0.41553953289985657 19 6 137
-0.5502794981002808 -0.46601545810699463 0.3917102515697479 39 5 146
-0.5350089073181152 -0.4878847002983093 0.36390620470046997 37 5 145
-0.5429529547691345 -0.5070145726203918 0.38126328587532043 66 3 157
-0.5292561650276184 -0.5239445567131042 0.3535248935222626 79 2 162
-0.503686785697937 -0.5353408455848694 0.3425925374031067 79 2 162
-0.48836731910705566 -0.5865203142166138 0.2826910614967346 79 2 162
-0.4786362648010254 -0.6072689890861511 0.2733111083507538 84 1 163
-0.4575757384300232 -0.6199582815170288 0.2560108006000519 89 1 164
-0.4480920732021332 -0.6324692964553833 0.2266634702682495 106 0 167
-0.43611541390419006 -0.6349232792854309 0.20382168889045715 106 0 167
-0.4217136800289154 -0.656274676322937 0.19002416729927063 108 0 168
-0.4274618327617645 -0.66068434715271 0.16453051567077637 106 0 167
-0.41560792922973633 -0.6676918268203735 0.11023648083209991 111 0 168
-0.38361456990242004 -0.6956602334976196 0.0881793424487114 111 0 168
-0.3761311173439026 -0.7090242505073547 0.030913084745407104 115 0 168
-0.35602784156799316 -0.7170313000679016 -0.027212001383304596 126 3 167
-0.351324200630188 -0.7305595874786377 -0.01600184105336666 117 0 168
-0.34223514795303345 -0.736680269241333 -0.015264465473592281 117 0 168
-0.32632243633270264 -0.7381953001022339 -0.055808890610933304 117 0 168
-0.3559844493865967 -0.7228923439979553 -0.04120749235153198 112 0 168
-0.3598836064338684 -0.7084118127822876 -0.053611431270837784 98 0 166
-0.38607311248779297 -0.6973287463188171 -0.049313582479953766 71 2 159
-0.39822322130203247 -0.7171366810798645 -0.02150122821331024 35 5 144
-0.41724133491516113 -0.713784396648407 -0.0026555557269603014 239 248 33
-0.417874276638031 -0.7134686708450317 -0.02748049609363079 253 185 43
-0.4261505901813507 -0.6979714035987854 -0.012581772170960903 33 5 143
-0.40475037693977356 -0.7131624817848206 0.001310595660470426 252 204 37
-0.40081122517585754 -0.7138727903366089 0.008654454723000526 78 2 161
-0.39679771661758423 -0.6984162330627441 -0.014997337013483047 249 217 36
-0.41066592931747437 -0.7113903760910034 -0.004019285086542368 251 163 55
-0.4300050735473633 -0.6740524172782898 0.03397694230079651 249 217 36
-0.4207901358604431 -0.681835412979126 0.09234940260648727 253 192 41
-0.3718838393688202 -0.6724265813827515 0.1159484013915062 242 240 38
-0.32067522406578064 -0.6772623658180237 0.14405611157417297 12 7 134
-0.2492855042219162 -0.6382919549942017 0.1403130292892456 31 5 142
-0.2587079405784607 -0.6236698031425476 0.18670207262039185 241 243 38
-0.26423656940460205 -0.6164829134941101 0.19090943038463593 87 1 164
-0.3243124783039093 -0.5950042605400085 0.1954948753118515 84 1 163
-0.37145641446113586 -0.6205639839172363 0.20825877785682678 52 4 152
-0.35939857363700867 -0.6102997064590454 0.21805262565612793 74 2 160
-0.3606819808483124 -0.6249129772186279 0.2158478945493698 19 6 137
-0.3793337643146515 -0.5961335897445679 0.20286965370178223 24 6 139
-0.4461919069290161 -0.5961223840713501 0.16518735885620117 78 2 161
-0.5202494263648987 -0.5670703053474426 0.13524308800697327 56 4 153
-0.5335304141044617 -0.5215539336204529 0.1307637095451355 84 1 163
-0.54820716381073 -0.5105319619178772 0.17532305419445038 82 1 163
-0.5515830516815186 -0.5035763382911682 0.20653334259986877 79 2 162
-0.5223864912986755 -0.5053489804267883 0.2573753893375397 87 1 164
-0.4607318043708801 -0.5321807861328125 0.2714768648147583 81 1 162
-0.41981399059295654 -0.47038334608078003 0.09659573435783386 69 3 158
-0.734647274017334 -0.3755648732185364 0.06552235782146454 63 3 156
-0.5896552205085754 -0.5561704039573669 -0.13964731991291046 250 156 59
-0.532244861125946 -0.5877619981765747 0.028434578329324722 249 154 60
-0.2160063534975052 -0.6928333044052124 -0.041457388550043106 249 154 60
-0.17332454025745392 -0.7047774195671082 -0.11515412479639053 245 139 70
-0.15289051830768585 -0.696125328540802 -0.16853445768356323 242 133 74
-0.1525396704673767 -0.6979723572731018 -0.19468224048614502 243 135 72
-0.15897491574287415 -0.7099968194961548 -0.18678204715251923 244 138 71
-0.1517638862133026 -0.7180303335189819 -0.16196544468402863 243 134 73
-0.16528980433940887 -0.70561683177948 -0.11584248393774033 244 137 71
-0.17307604849338531 -0.7000978589057922 -0.10698753595352173 237 123 81
-0.2024298906326294 -0.6644934415817261 -0.08148267865180969 237 121 82
-0.23022128641605377 -0.6802855730056763 -0.0497279167175293 236 119 84
-0.23596906661987305 -0.665080726146698 -0.044656891375780106 232 113 88
-0.21419164538383484 -0.6608911156654358 -0.06076104938983917 235 118 84
-0.2239210456609726 -0.6824613213539124 -0.07934166491031647 238 124 80
-0.2168666422367096 -0.7025442719459534 -0.057211149483919144 234 116 85
-0.18690617382526398 -0.7363737225532532 -0.07717142254114151 234 115 86
-0.16120320558547974 -0.7325308322906494 -0.11383327096700668 239 125 79
-0.13220642507076263 -0.7397026419639587 -0.11244197934865952 239 126 78
-0.12773583829402924 -0.740050196647644 -0.11121871322393417 239 126 78
-0.13200876116752625 -0.7427170872688293 -0.07831571251153946 241 130 76
-0.14073427021503448 -0.7447436451911926 -0.055191345512866974 240 129 77
-0.15450581908226013 -0.7311660051345825 -0.027626896277070045 243 135 72
-0.15970934927463531 -0.7480480074882507 -0.014189393259584904 241 130 76
-0.1558045595884323 -0.7425143122673035 -0.02011910080909729 241 130 76
-0.12985417246818542 -0.7620397210121155 -0.03497651219367981 236 120 83
-0.11024932563304901 -0.7525568008422852 -0.03657367080450058 237 121 82
-0.13624340295791626 -0.7472142577171326 -0.019504379481077194 236 119 84
-0.16221298277378082 -0.741287350654602 0.00653511006385088 236 120 83
-0.1785060465335846 -0.7277356386184692 0.054589223116636276 236 119 84
-0.18049632012844086 -0.715112566947937 0.024974171072244644 237 123 81
-0.17295458912849426 -0.6831017136573792 0.027610188350081444 238 124 80
-0.1818164587020874 -0.6758484840393066 0.06774965673685074 237 121 82
-0.2059594839811325 -0.6549450159072876 0.05603241175413132 235 118 84
-0.2050740271806717 -0.6796258687973022 0.08359908312559128 239 126 78
-0.1913076490163803 -0.7001978158950806 0.16061508655548096 240 128 77
-0.1747708022594452 -0.6782732605934143 0.18967851996421814 236 119 84
-0.21105563640594482 -0.6527493000030518 0.2365773767232895 237 123 81
-0.21480004489421844 -0.6231996417045593 0.2822370231151581 240 128 77
-0.22045199573040009 -0.6103955507278442 0.30984219908714294 240 128 77
-0.20347960293293 -0.6158987283706665 0.31301018595695496 237 123 81
-0.21336565911769867 -0.6063151955604553 0.3084026575088501 236 119 84
-0.22550378739833832 -0.5887604355812073 0.33073386549949646 236 120 83
-0.24122770130634308 -0.5877642035484314 0.340520441532135 242 133 74
-0.2528288662433624 -0.5883055925369263 0.37500834465026855 240 129 77
-0.24281370639801025 -0.578698456287384 0.37005236744880676 242 133 74
-0.23495517671108246 -0.5888389348983765 0.3556790053844452 243 134 73
-0.21937629580497742 -0.6030893325805664 0.3375202715396881 243 134 73
-0.22300030291080475 -0.6216774582862854 0.3010910153388977 244 137 71
-0.22637712955474854 -0.6098334193229675 0.26783284544944763 244 138 71
-0.24739307165145874 -0.6166250705718994 0.26758044958114624 242 132 75
-0.26668378710746765 -0.6051375865936279 0.2665662467479706 244 137 71
-0.2710283100605011 -0.6096714735031128 0.2713971734046936 244 137 71
-0.274661660194397 -0.6025853753089905 0.278360515832901 244 138 71
-0.28355544805526733 -0.5960683226585388 0.26200979948043823 241 130 76
-0.2863737642765045 -0.5917860865592957 0.2375403791666031 239 126 78
-0.3038768768310547 -0.5896501541137695 0.21126408874988556 242 132 75
-0.30821940302848816 -0.6042497158050537 0.1908668726682663 242 132 75
-0.3111277222633362 -0.6133784651756287 0.19886843860149384 244 138 71
-0.3238425850868225 -0.6239715814590454 0.20305082201957703 246 143 67
-0.30831754207611084 -0.631615400314331 0.20052869617938995 248 150 63
-0.287215918302536 -0.6554058790206909 0.16990463435649872 251 162 56
-0.2796759009361267 -0.6603487133979797 0.1450510174036026 252 173 49
-0.2781962752342224 -0.6594207286834717 0.11167833209037781 253 179 46
-0.2748512327671051 -0.6698936223983765 0.09842120856046677 253 175 49
-0.26867377758026123 -0.6842026114463806 0.032031308859586716 252 169 52
-0.2482842653989792 -0.6731420159339905 -0.014290949329733849 250 159 58
-0.26230907440185547 -0.6876589059829712 -0.015363706275820732 252 167 53
-0.2784745693206787 -0.6819031238555908 0.019510583952069283 251 163 55
-0.26992055773735046 -0.6875846982002258 0.04952273517847061 252 169 52
-0.2767687439918518 -0.6817619204521179 0.06235962733626366 252 169 52
-0.2879406213760376 -0.6581370830535889 0.09843166917562485 229 108 91
-0.2832253575325012 -0.686269998550415 0.09639152139425278 232 112 89
-0.2780819833278656 -0.6774248480796814 0.07382769137620926 243 134 73
-0.26448965072631836 -0.6840419769287109 0.019150033593177795 252 167 53
-0.27277761697769165 -0.6774137616157532 0.020150117576122284 253 181 45
-0.2946458160877228 -0.6835377812385559 0.04051993787288666 253 188 42
-0.2869700491428375 -0.6815807223320007 0.038038451224565506 253 196 39
-0.2779926359653473 -0.699994683265686 0.0460369810461998 252 203 37
-0.25424331426620483 -0.6984907984733582 0.04953230172395706 252 199 38
-0.2338230013847351 -0.7086310386657715 0.04835369065403938 253 198 38
-0.22936053574085236 -0.7063974142074585 0.01740903966128826 253 198 38
-0.21305538713932037 -0.7189993262290955 0.002843104302883148 253 196 39
-0.19662028551101685 -0.7323247790336609 -0.02753528393805027 253 193 40
-0.1801062822341919 -0.7269787788391113 -0.09363605082035065 253 181 45
-0.17353098094463348 -0.7520425915718079 -0.12157425284385681 251 163 55
-0.16156108677387238 -0.7474156022071838 -0.12629376351833344 248 152 62
-0.17290820181369781 -0.7609180808067322 -0.13710950314998627 234 116 85
-0.14193862676620483 -0.779543936252594 -0.20723655819892883 242 133 74
-0.11173583567142487 -0.7563888430595398 -0.2897201180458069 246 145 66
-0.09839113801717758 -0.771456778049469 -0.2790406048297882 250 159 58
-0.122456394135952 -0.7863652110099792 -0.256169855594635 250 160 57
-0.11574554443359375 -0.7829368710517883 -0.26184722781181335 229 108 91
-0.1358988881111145 -0.779779314994812 -0.24816516041755676 234 115 86
-0.14670449495315552 -0.7936177253723145 -0.2335694432258606 228 106 93
-0.1316024512052536 -0.7634140849113464 -0.25304198265075684 229 107 92
-0.13695237040519714 -0.7624313235282898 -0.2512979507446289 248 150 63
-0.16222146153450012 -0.7776500582695007 -0.2489372342824936 249 153 61
-0.1437453180551529 -0.7791368961334229 -0.25208279490470886 249 153 61
-0.14280933141708374 -0.7862197160720825 -0.2513044476509094 249 153 61
-0.12289825826883316 -0.7844245433807373 -0.2784685492515564 249 154 60
-0.10271983593702316 -0.7756999731063843 -0.2858550548553467 249 154 60
-0.14209704101085663 -0.7808485627174377 -0.25565677881240845 234 116 85
-0.17621059715747833 -0.7765315771102905 -0.20046350359916687 234 115 86
-0.190058633685112 -0.7748937010765076 -0.18187551200389862 248 150 63
-0.1480090171098709 -0.7686792016029358 -0.20119446516036987 225 101 96
-0.14152708649635315 -0.7785314917564392 -0.19256138801574707 251 164 54
-0.11532120406627655 -0.7828287482261658 -0.18113984167575836 249 153 61
-0.0878080204129219 -0.777344822883606 -0.18282261490821838 252 169 52
-0.06769007444381714 -0.774237871170044 -0.16723689436912537 250 156 59
-0.038918618112802505 -0.7792843580245972 -0.20371823012828827 246 142 68
-0.009398341178894043 -0.7576303482055664 -0.24795328080654144 246 142 68
-0.005470522213727236 -0.7617206573486328 -0.25305601954460144 252 166 53
0.013739735819399357 -0.7596336007118225 -0.27836692333221436 250 160 57
0.015162983909249306 -0.7496078610420227 -0.29327070713043213 252 169 52
0.03553742915391922 -0.7566331028938293 -0.3088245093822479 243 134 73
0.04868905246257782 -0.7455952763557434 -0.3325884938240051 245 141 69
0.04085667058825493 -0.7547368407249451 -0.3512026369571686 245 141 69
0.041900042444467545 -0.7461236715316772 -0.36350157856941223 248 149 64
0.03881920874118805 -0.7293053865432739 -0.39176154136657715 243 134 73
0.04007331281900406 -0.7395541071891785 -0.37958332896232605 251 162 56
0.03862370178103447 -0.7374227643013 -0.39491161704063416 245 141 69
0.04350874945521355 -0.7386193871498108 -0.40008848905563354 252 170 51
0.039890579879283905 -0.7492218017578125 -0.39541953802108765 253 185 43
0.04617716744542122 -0.7435207962989807 -0.4157238006591797 253 196 39
0.027079692110419273 -0.7434684634208679 -0.40463700890541077 252 199 38
0.02449554204940796 -0.7474715113639832 -0.408191055059433 252 203 37
0.025238046422600746 -0.7349815964698792 -0.39926978945732117 252 203 37
0.01653805375099182 -0.7548176646232605 -0.37562295794487 251 208 36
0.010946468450129032 -0.7517616152763367 -0.38355907797813416 252 204 37
0.02244020439684391 -0.7487882971763611 -0.3939027190208435 250 213 36
0.006152006797492504 -0.751948893070221 -0.3836621642112732 246 229 37
0.005196603946387768 -0.7516282796859741 -0.3411843478679657 243 236 38
0.012895802967250347 -0.7568625807762146 -0.28443825244903564 241 243 38
0.033420633524656296 -0.7540255784988403 -0.2668452262878418 242 240 38
0.07151524722576141 -0.7452024817466736 -0.2535332143306732 242 241 38
0.08314980566501617 -0.7281075716018677 -0.23499348759651184 241 243 38
0.07694407552480698 -0.7364106178283691 -0.21202760934829712 242 241 38
0.11079459637403488 -0.7494768500328064 -0.25687915086746216 21 6 138
0.14825396239757538 -0.7638015747070312 -0.32897770404815674 239 248 33
0.026197222992777824 -0.774819552898407 -0.33913111686706543 195 62 127
-0.06240415573120117 -0.853868305683136 -0.20701046288013458 194 61 128
-0.10719350725412369 -0.7039037346839905 0.05733971297740936 198 65 124
-0.16694016754627228 -0.6842477321624756 0.09631288051605225 193 60 128
-0.17294764518737793 -0.6837066411972046 0.07351630181074142 196 63 126
-0.16426068544387817 -0.6930181384086609 0.032262034714221954 215 86 108
-0.17159296572208405 -0.6967415809631348 0.01948411576449871 234 115 86
-0.1718621850013733 -0.70282381772995 -0.002760749077424407 216 88 106
-0.15434841811656952 -0.7082926630973816 -0.006501122377812862 222 96 100
-0.14111822843551636 -0.7044826745986938 -0.024932876229286194 222 96 100
-0.13731972873210907 -0.70064777135849 -0.04428956285119057 230 109 90
-0.14162017405033112 -0.7062444090843201 -0.06107839196920395 227 103 95
-0.13171592354774475 -0.7070618867874146 -0.0696716234087944 225 101 96
-0.1434323936700821 -0.711152970790863 -0.0751689001917839 227 104 94
-0.14391539990901947 -0.7102266550064087 -0.05245628580451012 221 95 101
-0.15470626950263977 -0.7264796495437622 -0.06141200289130211 214 85 109
-0.1609003096818924 -0.7262835502624512 -0.0550788976252079 212 82 110
-0.16707143187522888 -0.7184432148933411 -0.07387818396091461 215 86 108
-0.15648876130580902 -0.7077894806861877 -0.01494997926056385 215 87 107
-0.14425641298294067 -0.7117897868156433 -0.025634843856096268 218 90 104
-0.15510879456996918 -0.7072771787643433 -0.004553026519715786 218 90 104
-0.14037641882896423 -0.7027085423469543 0.018087657168507576 220 93 102
-0.13862264156341553 -0.7054107189178467 0.051407910883426666 226 102 96
-0.1165936067700386 -0.7027415037155151 0.06452689319849014 234 115 86
-0.10230798274278641 -0.6959764957427979 0.031100299209356308 229 107 92
-0.11159627884626389 -0.7002719640731812 0.00594459380954504 228 106 93
