ply
format ascii 1.0
element vertex 690
property float x
property float y
property float z
property uchar red
property uchar green
property uchar blue
end_header
-0.014285980723798275 -0.13268382847309113 0.3046315014362335 63 3 156
-0.04468603804707527 -0.13326707482337952 0.31537967920303345 58 4 154
0.03050466999411583 -0.12276477366685867 0.3185668885707855 49 4 150
-0.06419432908296585 -0.27988696098327637 0.20721551775932312 41 5 147
-0.20016492903232574 -0.2803676426410675 0.19493994116783142 33 5 143
-0.17620214819908142 -0.24120035767555237 0.24006304144859314 31 5 142
-0.10417069494724274 -0.20587454736232758 0.2584688663482666 29 6 141
-0.05008617043495178 -0.2334095984697342 0.260263592004776 27 6 140
-0.11761928349733353 -0.27687257528305054 0.1823256015777588 27 6 140
-0.10726706683635712 -0.1964104324579239 0.22449623048305511 27 6 140
-0.06803830713033676 -0.18674927949905396 0.21464964747428894 27 6 140
-0.050295908004045486 -0.19276964664459229 0.16537153720855713 31 5 142
-0.02629760280251503 -0.14856992661952972 0.18299554288387299 31 5 142
-0.02471744827926159 -0.17090065777301788 0.24140362441539764 31 5 142
0.004068529233336449 -0.1799107939004898 0.20529751479625702 31 5 142
0.04642997309565544 -0.09856631606817245 0.1929415911436081 29 6 141
0.08049718290567398 -0.059251219034194946 0.1820283681154251 29 6 141
0.13048763573169708 -0.08080992847681046 0.14721418917179108 27 6 140
0.10259058326482773 -0.09557019919157028 0.1507226675748825 29 6 141
0.11055827140808105 -0.11728278547525406 0.1458977609872818 29 6 141
0.17908602952957153 -0.05088447406888008 0.16304798424243927 27 6 140
0.1161639615893364 -0.13002805411815643 0.12374331057071686 24 6 139
0.2392093539237976 0.42037615180015564 0.08726561069488525 21 6 138
-0.22964788973331451 0.22731071710586548 -0.08311836421489716 63 3 156
0.22182321548461914 0.14293213188648224 -0.3044812083244324 52 4 152
0.3680833578109741 0.16342245042324066 -0.08769933879375458 58 4 154
0.33017975091934204 -0.03357597067952156 -0.043809305876493454 78 2 161
0.27924665808677673 -0.007086428813636303 0.047684744000434875 71 2 159
0.30769774317741394 0.07205969095230103 0.05376258119940758 90 0 165
0.3429304361343384 0.07628524303436279 0.05177132412791252 84 1 163
0.31681957840919495 0.07481765747070312 0.07316829264163971 79 2 162
0.3757929801940918 0.0847243219614029 0.09136361628770828 81 1 162
0.3405919075012207 0.060382574796676636 0.12061860412359238 81 1 162
0.3697054088115692 0.059796009212732315 0.09581871330738068 87 1 164
0.3478393256664276 0.01491356547921896 0.08650415390729904 84 1 163
0.30636921525001526 -0.012653382495045662 0.048435769975185394 81 1 162
0.2674957513809204 -0.03708295151591301 0.057538438588380814 81 1 162
0.23698025941848755 -0.02399069257080555 0.022148368880152702 92 0 165
0.22438712418079376 -0.00959314126521349 0.05506150797009468 81 1 162
0.25220397114753723 -0.009136959910392761 0.0600290447473526 76 2 161
0.2901853919029236 0.007590807043015957 0.05213739722967148 78 2 161
0.31047651171684265 0.0337681919336319 0.06195833534002304 79 2 162
0.2813076376914978 0.012764053419232368 0.05315997824072838 81 1 162
0.285441517829895 0.03515329957008362 0.05184269696474075 79 2 162
0.3082434833049774 0.05053379386663437 0.0725150778889656 78 2 161
0.31745055317878723 0.05241180583834648 0.0626334547996521 78 2 161
0.32381683588027954 0.04735808074474335 0.0769793689250946 78 2 161
0.2954668402671814 0.05468672141432762 0.09282038360834122 78 2 161
0.3009488582611084 0.05523541197180748 0.0865279883146286 76 2 161
0.2767142355442047 0.06805233657360077 0.07259908318519592 79 2 162
0.3011665344238281 0.16747261583805084 0.07649064809083939 78 2 161
0.45387235283851624 0.08283843100070953 0.16539180278778076 73 2 159
0.5039952993392944 -0.056633833795785904 -0.0990491732954979 59 3 154
0.4564894735813141 0.3231809735298157 -0.11779126524925232 61 3 155
0.3874318301677704 0.2789934277534485 -0.3047105073928833 58 4 154
0.3790193796157837 0.3026005029678345 -0.23063436150550842 51 4 151
0.44231197237968445 0.3056933879852295 -0.19248633086681366 54 4 152
0.4677867889404297 0.29177767038345337 -0.16925252974033356 51 4 151
0.4638647735118866 0.329436331987381 -0.1440795361995697 56 4 153
0.48733752965927124 0.3484289348125458 -0.11364731937646866 59 3 154
0.46431538462638855 0.31948021054267883 -0.12578386068344116 71 2 159
0.45616158843040466 0.3383944630622864 -0.14090792834758759 76 2 161
0.4555016756057739 0.3639204204082489 -0.13892067968845367 74 2 160
0.4317755103111267 0.3697051703929901 -0.14766427874565125 74 2 160
0.3984239101409912 0.35467687249183655 -0.1710188090801239 74 2 160
0.396925687789917 0.34102141857147217 -0.18127740919589996 73 2 159
0.3737899959087372 0.31310057640075684 -0.1983715444803238 69 3 158
0.3396645188331604 0.3105142116546631 -0.22658799588680267 78 2 161
0.32902082800865173 0.3141134977340698 -0.22159592807292938 79 2 162
0.31594318151474 0.2767854332923889 -0.2521698474884033 82 1 163
0.27180880308151245 0.26429998874664307 -0.25401949882507324 82 1 163
0.21840867400169373 0.2236158847808838 -0.2505464553833008 81 1 162
0.17537474632263184 0.4281613826751709 -0.24188557267189026 86 1 163
0.23379158973693848 0.2675243318080902 -0.21779045462608337 97 0 166
0.21240676939487457 0.21168065071105957 -0.28417858481407166 97 0 166
0.25581228733062744 0.2722143530845642 -0.20561139285564423 87 1 164
0.22211995720863342 0.260979562997818 -0.22945372760295868 81 1 162
0.20808598399162292 0.2566971778869629 -0.2579423189163208 66 3 157
0.20871680974960327 0.25372880697250366 -0.27330419421195984 66 3 157
0.22041907906532288 0.2650863230228424 -0.25705647468566895 86 1 163
0.247776061296463 0.2488078773021698 -0.2528710961341858 79 2 162
0.2056066244840622 0.26915571093559265 -0.2754039466381073 82 1 163
0.22234880924224854 0.2511623799800873 -0.28307482600212097 76 2 161
0.20315614342689514 0.23604486882686615 -0.2904212772846222 69 3 158
0.20347142219543457 0.23866704106330872 -0.288664311170578 66 3 157
0.20583385229110718 0.24707038700580597 -0.2747795283794403 64 3 156
0.21163800358772278 0.2614942789077759 -0.2640177607536316 66 3 157
0.23771286010742188 0.2597447633743286 -0.24488484859466553 66 3 157
0.24061772227287292 0.2574910819530487 -0.2333967536687851 61 3 155
0.23623815178871155 0.26191091537475586 -0.24211013317108154 56 4 153
0.23042207956314087 0.25755050778388977 -0.24842916429042816 54 4 152
0.22194822132587433 0.24873501062393188 -0.25924158096313477 56 4 153
0.2077586054801941 0.24569427967071533 -0.2730817496776581 56 4 153
0.19065579771995544 0.2447756826877594 -0.276731938123703 49 4 150
0.18108032643795013 0.2305537909269333 -0.2775302231311798 52 4 152
0.1658247709274292 0.23182758688926697 -0.27258044481277466 59 3 154
0.15302228927612305 0.2302519977092743 -0.28401342034339905 61 3 155
0.13991577923297882 0.20819200575351715 -0.2972226142883301 68 3 158
0.12399325519800186 0.1947529911994934 -0.31028982996940613 69 3 158
0.1119881123304367 0.1971541941165924 -0.312188982963562 78 2 161
0.12163647264242172 0.20565105974674225 -0.2912750542163849 79 2 162
0.12656058371067047 0.19003333151340485 -0.30570316314697266 78 2 161
0.10618101060390472 0.19073651731014252 -0.31549128890037537 78 2 161
0.10772029310464859 0.19159667193889618 -0.3139094114303589 64 3 156
0.11251264810562134 0.20345495641231537 -0.3078087568283081 66 3 157
0.12315399944782257 0.19507277011871338 -0.2962135374546051 66 3 157
0.11029019951820374 0.18154484033584595 -0.3085762560367584 61 3 155
0.10510189086198807 0.17897996306419373 -0.3053528368473053 76 2 161
0.0956992655992508 0.18381980061531067 -0.3192053437232971 82 1 163
0.10000442713499069 0.15955659747123718 -0.3433404564857483 79 2 162
0.04999412223696709 0.1276216208934784 -0.3667730391025543 64 3 156
0.022109834477305412 0.1261579692363739 -0.34718117117881775 81 1 162
0.06452061980962753 0.1572447419166565 -0.3061000108718872 69 3 158
0.04359927773475647 0.13430605828762054 -0.29727303981781006 64 3 156
0.0013353090034797788 0.11262626945972443 -0.29942587018013 63 3 156
-0.10350438952445984 0.03710327669978142 -0.333646684885025 61 3 155
-0.2100147008895874 -0.016396773979067802 -0.3168373703956604 61 3 155
-0.24008534848690033 -0.029270226135849953 -0.27355679869651794 64 3 156
-0.2701870799064636 -0.047608740627765656 -0.2521360218524933 59 3 154
-0.3402843773365021 -0.08687866479158401 -0.25657394528388977 59 3 154
-0.3639349639415741 -0.08967524766921997 -0.24587945640087128 59 3 154
-0.2732470631599426 -0.022216441109776497 -0.24121597409248352 61 3 155
-0.30939507484436035 -0.05222947895526886 -0.2631068229675293 58 4 154
-0.3472171723842621 -0.12155914306640625 -0.25835955142974854 58 4 154
-0.36549878120422363 -0.08177164196968079 -0.24537524580955505 59 3 154
-0.36954835057258606 -0.09840326756238937 -0.25116685032844543 59 3 154
-0.39732009172439575 -0.14785093069076538 -0.28392207622528076 59 3 154
-0.3951614797115326 -0.11050572991371155 -0.2668045163154602 61 3 155
-0.3341636657714844 -0.11179095506668091 -0.2553931772708893 61 3 155
-0.3587031960487366 -0.09288153797388077 -0.29053714871406555 61 3 155
-0.2922407388687134 -0.04848218336701393 -0.28231915831565857 59 3 154
-0.2990594506263733 -0.06731673330068588 -0.28383225202560425 61 3 155
-0.35559600591659546 -0.1131816953420639 -0.3076538145542145 61 3 155
-0.37516918778419495 -0.1157727837562561 -0.3155064284801483 61 3 155
-0.33309927582740784 -0.08302327990531921 -0.29783931374549866 61 3 155
-0.32407626509666443 -0.0700516477227211 -0.31709566712379456 61 3 155
-0.3224102258682251 -0.08614571392536163 -0.31947195529937744 63 3 156
-0.33770668506622314 -0.11209550499916077 -0.31464454531669617 63 3 156
-0.3321831226348877 -0.08078420162200928 -0.25478795170783997 66 3 157
-0.33518970012664795 -0.11442063748836517 -0.2603852152824402 68 3 158
-0.3090340495109558 -0.07332070916891098 -0.2718019485473633 64 3 156
-0.23761838674545288 0.005796823184937239 -0.28409239649772644 68 3 158
-0.09269450604915619 0.04777294769883156 -0.3097778856754303 39 5 146
-0.13995584845542908 0.06498970836400986 -0.38048434257507324 74 2 160
-0.12458042800426483 0.0818866416811943 -0.40504902601242065 87 1 164
-0.11533797532320023 0.04665959253907204 -0.38324350118637085 82 1 163
-0.12490437924861908 0.054007284343242645 -0.3979082703590393 92 0 165
-0.07774674147367477 0.04571722820401192 -0.39706823229789734 74 2 160
-0.12569497525691986 0.05163866654038429 -0.38964253664016724 74 2 160
-0.12301705032587051 0.019520113244652748 -0.38772979378700256 81 1 162
-0.14932981133460999 0.022934867069125175 -0.37348470091819763 68 3 158
-0.10047050565481186 0.07798804342746735 -0.37139812111854553 66 3 157
-0.04914528876543045 0.097890704870224 -0.3649584949016571 68 3 158
-0.08556953817605972 0.08219431340694427 -0.3916570246219635 78 2 161
-0.07922215759754181 0.046832263469696045 -0.3715721070766449 41 5 147
-0.11837374418973923 0.03235335275530815 -0.33476048707962036 61 3 155
-0.142239511013031 0.0333205983042717 -0.324662983417511 68 3 158
-0.12082267552614212 0.07257748395204544 -0.3206824064254761 69 3 158
-0.06310462206602097 0.13200493156909943 -0.3088006377220154 82 1 163
0.03066418692469597 0.16428400576114655 -0.3056924343109131 71 2 159
0.02021804265677929 0.16198638081550598 -0.3367239236831665 69 3 158
0.027225544676184654 0.18047577142715454 -0.3417862355709076 92 0 165
0.05528032034635544 0.18755878508090973 -0.31100136041641235 86 1 163
0.08277641236782074 0.15241238474845886 -0.32841551303863525 82 1 163
0.15081380307674408 0.24482449889183044 -0.29329922795295715 68 3 158
0.2168121635913849 0.3010201156139374 -0.2894343137741089 86 1 163
0.250100702047348 0.311572790145874 -0.2973346710205078 86 1 163
0.16608591377735138 0.23947791755199432 -0.34824463725090027 87 1 164
0.08793024718761444 0.285302072763443 -0.33712443709373474 98 0 166
0.11083423346281052 0.2711547315120697 -0.32659852504730225 78 2 161
0.06545937806367874 0.23502680659294128 -0.3307565450668335 86 1 163
0.04651999473571777 0.23020538687705994 -0.3105388879776001 92 0 165
0.048444051295518875 0.2330780327320099 -0.29231828451156616 100 0 167
0.06030948460102081 0.24954943358898163 -0.27106961607933044 84 1 163
0.06540099531412125 0.2300778478384018 -0.26828351616859436 94 0 165
0.08437123149633408 0.22754284739494324 -0.2765451967716217 98 0 166
0.09389850497245789 0.2193753570318222 -0.28769031167030334 114 0 168
0.08169256150722504 0.21230937540531158 -0.30605897307395935 106 0 167
0.02695474959909916 0.18925699591636658 -0.3093773126602173 97 0 166
-0.0033612989354878664 0.16981683671474457 -0.31899112462997437 90 0 165
0.020914794877171516 0.19242706894874573 -0.31230053305625916 86 1 163
0.08520545065402985 0.20586663484573364 -0.2791280150413513 94 0 165
0.10509777069091797 0.18915894627571106 -0.29152610898017883 98 0 166
0.09523014724254608 0.22048088908195496 -0.29798465967178345 89 1 164
0.058370672166347504 0.19291459023952484 -0.335170179605484 84 1 163
0.01209766324609518 0.17769385874271393 -0.32061880826950073 84 1 163
0.03374098613858223 0.19335463643074036 -0.3205268681049347 84 1 163
0.06568417698144913 0.21056222915649414 -0.30662521719932556 84 1 163
0.05178322270512581 0.20246118307113647 -0.3061510920524597 89 1 164
0.04366555064916611 0.2095395028591156 -0.3043965995311737 87 1 164
0.07020708918571472 0.20790545642375946 -0.292517751455307 82 1 163
0.07889827340841293 0.23093371093273163 -0.2861481010913849 81 1 162
0.10546975582838058 0.2401496320962906 -0.2942960560321808 81 1 162
0.1124626025557518 0.2372291386127472 -0.303661584854126 69 3 158
0.1405061036348343 0.25533321499824524 -0.277497798204422 71 2 159
0.17397727072238922 0.2501765191555023 -0.29196709394454956 71 2 159
0.17951108515262604 0.2578335106372833 -0.3031175434589386 73 2 159
0.10099762678146362 0.20532873272895813 -0.39666640758514404 74 2 160
-0.056638117879629135 0.005691544618457556 -0.4574528634548187 76 2 161
-0.19891247153282166 -0.03987479582428932 -0.42075204849243164 118 1 168
-0.22636784613132477 -0.11961519718170166 -0.16285063326358795 104 0 167
-0.2736268937587738 -0.07682733982801437 -0.20347264409065247 87 1 164
-0.2447800189256668 -0.012041311711072922 -0.15427884459495544 79 2 162
-0.22172370553016663 0.002410496585071087 -0.1547355353832245 108 0 168
-0.22206974029541016 0.0014198290882632136 -0.15415795147418976 118 1 168
-0.22114123404026031 0.00587416859343648 -0.15217791497707367 115 0 168
-0.21484637260437012 0.02214454486966133 -0.14378617703914642 115 0 168
-0.18022792041301727 0.03745587170124054 -0.14227351546287537 111 0 168
-0.14455771446228027 0.0532393604516983 -0.15567007660865784 111 0 168
-0.1439772993326187 0.07472700625658035 -0.1617433726787567 121 1 168
-0.13767825067043304 0.05859227851033211 -0.1714666485786438 103 0 167
-0.15120309591293335 0.04229338839650154 -0.18734543025493622 109 0 168
-0.15235184133052826 0.0613589771091938 -0.17754694819450378 121 1 168
-0.14362692832946777 0.05655711516737938 -0.1848566234111786 108 0 168
-0.181904137134552 0.03472979739308357 -0.17319928109645844 118 1 168
-0.20127291977405548 0.03973470255732536 -0.16540707647800446 121 1 168
-0.2002599984407425 0.0509941428899765 -0.1601627916097641 117 0 168
-0.18851086497306824 0.034678149968385696 -0.16635802388191223 111 0 168
-0.2000109702348709 0.03214612603187561 -0.15809516608715057 104 0 167
-0.1836441606283188 0.04015050455927849 -0.1643938273191452 101 0 167
-0.16415901482105255 0.05923013761639595 -0.1601574867963791 87 1 164
-0.1589704006910324 0.05083942413330078 -0.1842225044965744 103 0 167
-0.1787608414888382 0.0435701347887516 -0.17451491951942444 106 0 167
-0.17058736085891724 0.05178965628147125 -0.18180659413337708 78 2 161
-0.17665261030197144 0.06714516878128052 -0.1753033697605133 127 3 167
-0.17468631267547607 0.05872089043259621 -0.18483135104179382 94 0 165
-0.21353618800640106 0.0386844277381897 -0.18479731678962708 109 0 168
-0.21974636614322662 0.03885447233915329 -0.19192151725292206 103 0 167
-0.21361137926578522 0.027593279257416725 -0.19583189487457275 89 1 164
-0.20023353397846222 0.035030215978622437 -0.1868748664855957 79 2 162
-0.1504577398300171 0.08188264816999435 -0.16867706179618835 74 2 160
-0.09109369665384293 0.09911779314279556 -0.1601804941892624 59 3 154
-0.06558095663785934 0.11968950182199478 -0.164835125207901 56 4 153
-0.04836980253458023 0.13932794332504272 -0.17080838978290558 54 4 152
-0.017693230882287025 0.15852899849414825 -0.17614471912384033 52 4 152
0.03591255843639374 0.1704675704240799 -0.17431068420410156 52 4 152
0.05193966254591942 0.1790114790201187 -0.17928186058998108 58 4 154
0.06668706238269806 0.21146416664123535 -0.17293047904968262 56 4 153
0.04865194857120514 0.2237909436225891 -0.17480790615081787 59 3 154
0.05451994389295578 0.2331203818321228 -0.1727137565612793 69 3 158
0.10772676020860672 0.22834056615829468 -0.17158448696136475 71 2 159
0.1188962534070015 0.24164147675037384 -0.17793990671634674 69 3 158
0.11739733815193176 0.2589142322540283 -0.17413996160030365 84 1 163
0.11694716662168503 0.2467365860939026 -0.19186758995056152 69 3 158
0.11649160087108612 0.2447957545518875 -0.18614386022090912 73 2 159
0.12324312329292297 0.24691829085350037 -0.1938241571187973 92 0 165
0.11954335868358612 0.25111016631126404 -0.18403832614421844 90 0 165
0.13676324486732483 0.2520626485347748 -0.19204701483249664 84 1 163
0.13061146438121796 0.24881164729595184 -0.2019350528717041 71 2 159
0.12505869567394257 0.2600215673446655 -0.18288709223270416 78 2 161
0.13847580552101135 0.25464192032814026 -0.18581628799438477 73 2 159
0.16246727108955383 0.28569191694259644 -0.17852330207824707 71 2 159
0.17366820573806763 0.27372345328330994 -0.15920604765415192 71 2 159
0.1627945601940155 0.27089741826057434 -0.17603828012943268 68 3 158
0.15919312834739685 0.283814936876297 -0.17408141493797302 68 3 158
0.14976249635219574 0.2823643386363983 -0.17600394785404205 71 2 159
0.15880000591278076 0.2982129454612732 -0.18217182159423828 68 3 158
0.18320396542549133 0.30992522835731506 -0.16433489322662354 71 2 159
0.19678212702274323 0.30245012044906616 -0.1642412543296814 73 2 159
0.18688996136188507 0.2982867956161499 -0.1703691929578781 64 3 156
0.18362420797348022 0.3116816282272339 -0.1565506011247635 66 3 157
0.2088933140039444 0.30350154638290405 -0.1535952389240265 81 1 162
0.2152763307094574 0.2928486764431 -0.151897132396698 69 3 158
0.22028593719005585 0.31192436814308167 -0.1730324774980545 73 2 159
0.23697158694267273 0.32979822158813477 -0.16138680279254913 82 1 163
0.2618812024593353 0.3123084604740143 -0.14799857139587402 66 3 157
0.2813841998577118 0.32711806893348694 -0.15960903465747833 68 3 158
0.31196314096450806 0.31994161009788513 -0.1557045727968216 66 3 157
0.3084455132484436 0.3366588354110718 -0.138015478849411 61 3 155
0.30761218070983887 0.3594079315662384 -0.1261601597070694 61 3 155
0.3315587639808655 0.3676944077014923 -0.1315148025751114 71 2 159
0.3628506362438202 0.3909211754798889 -0.09320752322673798 82 1 163
0.4411779046058655 0.34951990842819214 -0.08687449246644974 78 2 161
0.43117740750312805 0.3637075424194336 -0.08873300999403 84 1 163
0.4056289494037628 0.38459524512290955 -0.0940244272351265 79 2 162
0.38230669498443604 0.3677816092967987 -0.11524093151092529 84 1 163
0.35054904222488403 0.36599162220954895 -0.1228698119521141 78 2 161
0.4097104072570801 0.358191579580307 -0.1171833947300911 68 3 158
0.45120924711227417 0.36569875478744507 -0.08428965508937836 95 0 166
0.49951162934303284 0.3736879527568817 -0.02941703610122204 86 1 163
0.503913938999176 0.3615688979625702 -0.04657189920544624 78 2 161
0.4616892337799072 0.4069814085960388 -0.039900220930576324 69 3 158
0.45330286026000977 0.4010372459888458 -0.043112508952617645 69 3 158
0.4446696639060974 0.38331472873687744 -0.06346342712640762 64 3 156
0.4373616874217987 0.38530412316322327 -0.07150150090456009 63 3 156
0.46703287959098816 0.37292370200157166 -0.048138171434402466 64 3 156
0.5131013989448547 0.34595900774002075 -0.01023392379283905 68 3 158
0.5124509334564209 0.35637831687927246 0.04354254901409149 69 3 158
0.5456362366676331 0.33586883544921875 0.06706339865922928 71 2 159
0.5244945883750916 0.3652908205986023 0.05921332165598869 76 2 161
0.5103402137756348 0.3599089980125427 0.013736379332840443 89 1 164
0.488089919090271 0.3645183742046356 -0.029818914830684662 95 0 166
0.48115313053131104 0.35068854689598083 -0.023788848891854286 87 1 164
0.48630571365356445 0.32648226618766785 -0.002340759849175811 87 1 164
0.5043957233428955 0.3370906114578247 -0.03446699306368828 79 2 162
0.4963509738445282 0.33401408791542053 -0.023173289373517036 78 2 161
0.4921520948410034 0.35776999592781067 0.014896944165229797 73 2 159
0.49985048174858093 0.3252618908882141 -0.0009004446328617632 66 3 157
0.526901125907898 0.3149834871292114 0.00420024897903204 66 3 157
0.505424439907074 0.33318600058555603 -0.014871133491396904 66 3 157
0.5273850560188293 0.3483184576034546 0.014420918188989162 68 3 158
0.505389392375946 0.33420658111572266 -0.007441033609211445 66 3 157
0.4685516953468323 0.33825504779815674 -0.02449720725417137 68 3 158
0.48195505142211914 0.35065630078315735 -0.03489338979125023 71 2 159
0.46485745906829834 0.3366917669773102 -0.04015248268842697 82 1 163
0.48488104343414307 0.353653222322464 -0.030288631096482277 81 1 162
0.4838152527809143 0.3542892634868622 -0.041980814188718796 79 2 162
0.42859676480293274 0.3565199375152588 -0.08928173780441284 84 1 163
0.4276425540447235 0.36473244428634644 -0.10276760160923004 98 0 166
0.4484715759754181 0.34198197722435 -0.10098248720169067 111 0 168
0.47815051674842834 0.3474830687046051 -0.08162393420934677 97 0 166
0.4781051278114319 0.3526206612586975 -0.07046639174222946 130 4 167
0.5004165172576904 0.3032975494861603 -0.09877190738916397 130 4 167
0.46736201643943787 0.3301500082015991 -0.1117338091135025 132 5 166
0.4506170153617859 0.3780154883861542 -0.1365184336900711 139 9 164
0.4201395511627197 0.35976165533065796 -0.1391148716211319 169 35 149
0.4109290540218353 0.35701248049736023 -0.14506199955940247 172 37 147
0.41290920972824097 0.3841954469680786 -0.12272652238607407 184 50 137
0.4295434057712555 0.35161298513412476 -0.12127780169248581 201 69 121
0.4413517415523529 0.34151068329811096 -0.13773393630981445 211 81 111
0.4494898021221161 0.3411635458469391 -0.1228318139910698 215 86 108
0.46965810656547546 0.3541620671749115 -0.12027516216039658 215 87 107
0.46105411648750305 0.36299318075180054 -0.09708841890096664 191 57 130
0.4827454388141632 0.35466232895851135 -0.10025853663682938 169 35 149
0.4851365387439728 0.3306662142276764 -0.10914953052997589 133 6 166
0.46664661169052124 0.33515939116477966 -0.10287895053625107 167 33 151
0.4865955412387848 0.33838140964508057 -0.11117678135633469 129 4 167
0.4506961703300476 0.3320506811141968 -0.14646975696086884 111 0 168
0.43515780568122864 0.33398380875587463 -0.1579967737197876 98 0 166
0.45466649532318115 0.29303330183029175 -0.18098409473896027 79 2 162
0.43599721789360046 0.32154008746147156 -0.18585099279880524 63 3 156
0.39544159173965454 0.2992532551288605 -0.2316148430109024 49 4 150
0.3231026232242584 0.34927141666412354 -0.23288178443908691 45 4 148
0.3898650109767914 0.352092981338501 -0.225063756108284 41 5 147
0.4009910523891449 0.30429449677467346 -0.1875876933336258 43 5 148
0.414763480424881 0.3371656537055969 -0.1728532314300537 52 4 152
0.39863887429237366 0.3347289562225342 -0.13827086985111237 63 3 156
0.3675944209098816 0.30762574076652527 -0.1618950217962265 74 2 160
0.39652344584465027 0.3019094467163086 -0.14608585834503174 78 2 161
0.40436220169067383 0.27975600957870483 -0.14377838373184204 76 2 161
0.3985230326652527 0.2667166590690613 -0.16681985557079315 86 1 163
0.36678266525268555 0.2753312885761261 -0.18937143683433533 82 1 163
0.36283376812934875 0.2583027184009552 -0.20491966605186462 78 2 161
0.3271600008010864 0.21073809266090393 -0.24468734860420227 66 3 157
0.2362397313117981 0.24983374774456024 -0.2652854919433594 59 3 154
0.21096289157867432 0.2301650196313858 -0.2826184034347534 56 4 153
0.1353457272052765 0.19415263831615448 -0.28423893451690674 58 4 154
0.20894762873649597 0.19582599401474 -0.3065465986728668 51 4 151
0.12792038917541504 0.13225357234477997 -0.31703197956085205 45 4 148
0.15335571765899658 0.07142027467489243 -0.3548680543899536 43 5 148
-0.02290300466120243 0.0702238529920578 -0.3366135358810425 37 5 145
-0.023237301036715508 0.12135599553585052 -0.32358309626579285 43 5 148
0.013424607925117016 0.11322160810232162 -0.2907859981060028 45 4 148
0.05673932284116745 0.11744926869869232 -0.31598618626594543 49 4 150
-0.03584945574402809 0.09398196637630463 -0.25299087166786194 47 4 149
0.05189850926399231 0.1081918329000473 -0.2422444224357605 39 5 146
0.06358692049980164 0.12169237434864044 -0.23575200140476227 43 5 148
0.10896711051464081 0.20710483193397522 -0.22359032928943634 37 5 145
0.23491618037223816 0.22512558102607727 -0.2558724582195282 45 4 148
0.22230273485183716 0.23567010462284088 -0.22635290026664734 51 4 151
0.22235462069511414 0.27489301562309265 -0.2910599112510681 51 4 151
0.22265054285526276 0.2694644629955292 -0.30866900086402893 49 4 150
0.2759505808353424 0.3553794026374817 -0.23127777874469757 49 4 150
0.35977277159690857 0.3182918131351471 -0.2093532830476761 61 3 155
0.34044602513313293 0.30699291825294495 -0.23145338892936707 56 4 153
0.3751510977745056 0.3645404577255249 -0.18407653272151947 58 4 154
0.3800010681152344 0.2947067320346832 -0.2765907049179077 56 4 153
0.3208545446395874 0.3318605124950409 -0.21614789962768555 58 4 154
0.2884417772293091 0.2677435874938965 -0.2849542796611786 68 3 158
0.22921234369277954 0.2822509706020355 -0.293947696685791 79 2 162
0.2552282214164734 0.3287091851234436 -0.24629423022270203 84 1 163
0.20464734733104706 0.31577637791633606 -0.23751582205295563 79 2 162
0.06534206122159958 0.20901763439178467 -0.3071502447128296 74 2 160
0.04730749875307083 0.26299548149108887 -0.20396842062473297 90 0 165
0.1756923943758011 0.2811293303966522 -0.21038182079792023 92 0 165
0.14614060521125793 0.2817322313785553 -0.19189487397670746 108 0 168
0.22922375798225403 0.30584031343460083 -0.18783733248710632 109 0 168
0.31662994623184204 0.3142739236354828 -0.185564786195755 90 0 165
0.29907703399658203 0.29487982392311096 -0.1840513050556183 97 0 166
0.2885931730270386 0.3084851801395416 -0.2065056711435318 74 2 160
0.3633187413215637 0.33212101459503174 -0.1778765618801117 81 1 162
0.33154723048210144 0.30542317032814026 -0.19442911446094513 78 2 161
0.3572602868080139 0.3190184533596039 -0.17293398082256317 71 2 159
0.42361414432525635 0.3221389651298523 -0.17467445135116577 79 2 162
0.3970070779323578 0.3152214288711548 -0.19261449575424194 84 1 163
0.4367748200893402 0.33155691623687744 -0.18813608586788177 82 1 163
0.3648003339767456 0.3574821650981903 -0.1968100219964981 71 2 159
0.389822781085968 0.3539036512374878 -0.1949748545885086 69 3 158
0.4028429687023163 0.329454243183136 -0.20574252307415009 64 3 156
0.37202462553977966 0.29557275772094727 -0.19214218854904175 64 3 156
0.44157326221466064 0.30843493342399597 -0.17692768573760986 66 3 157
0.4568652808666229 0.34765365719795227 -0.15880902111530304 68 3 158
0.4697587788105011 0.35583412647247314 -0.1230202317237854 68 3 158
0.4711885452270508 0.3190186619758606 -0.13931627571582794 63 3 156
0.5136440396308899 0.3370125889778137 -0.13944262266159058 59 3 154
0.4281003773212433 0.33277982473373413 -0.12954524159431458 71 2 159
0.5297185778617859 0.33832740783691406 -0.107989102602005 74 2 160
0.5197368264198303 0.25271961092948914 -0.0949087142944336 76 2 161
0.4553520977497101 0.306943416595459 -0.07440342754125595 76 2 161
0.4565431475639343 0.2718222439289093 -0.16031621396541595 76 2 161
0.436547189950943 0.27713605761528015 -0.14066709578037262 74 2 160
0.5079677104949951 0.275678813457489 -0.1227903664112091 73 2 159
0.4831414818763733 0.29259246587753296 -0.12146659195423126 73 2 159
0.4759714901447296 0.2948046326637268 -0.12524652481079102 71 2 159
0.5226089954376221 0.25316980481147766 -0.11168424040079117 74 2 160
0.4990212023258209 0.21272046864032745 -0.0996394157409668 73 2 159
0.4980078935623169 0.21312981843948364 -0.09112231433391571 71 2 159
0.4977639317512512 0.18795177340507507 -0.11659710109233856 71 2 159
0.44360825419425964 0.21816857159137726 -0.16526935994625092 71 2 159
0.44109153747558594 0.25640833377838135 -0.15307025611400604 68 3 158
0.524440348148346 0.20759055018424988 -0.14607255160808563 66 3 157
0.4653569161891937 0.21920570731163025 -0.12683025002479553 63 3 156
0.47796332836151123 0.24658803641796112 -0.15785834193229675 59 3 154
0.45520102977752686 0.2039547711610794 -0.16821344196796417 66 3 157
0.4440761208534241 0.13609784841537476 -0.16045847535133362 71 2 159
0.5259714722633362 0.16550865769386292 -0.10275711119174957 73 2 159
0.5277976989746094 0.17517632246017456 -0.02444901503622532 71 2 159
0.546474814414978 0.12385272979736328 0.030161796137690544 74 2 160
0.5563458204269409 0.053475819528102875 0.019292186945676804 76 2 161
0.4449848234653473 0.15103229880332947 0.01518852636218071 68 3 158
0.523876965045929 0.21160888671875 -0.014796340838074684 66 3 157
0.5456598401069641 0.1972689926624298 0.023763347417116165 68 3 158
0.5415001511573792 0.18053556978702545 0.053852278739213943 71 2 159
0.5709788203239441 0.2113312929868698 0.07883397489786148 69 3 158
0.5678009390830994 0.2029280662536621 0.1653956174850464 73 2 159
0.5338003039360046 0.12581491470336914 0.08048046380281448 64 3 156
0.5284304618835449 0.17228969931602478 0.12448175996541977 64 3 156
0.5213332772254944 0.19579041004180908 0.14757509529590607 69 3 158
0.574327826499939 0.2179834246635437 0.044559624046087265 71 2 159
0.5185107588768005 0.22754496335983276 0.04662782698869705 73 2 159
0.5254674553871155 0.2504081726074219 0.017674369737505913 73 2 159
0.5497967004776001 0.21591079235076904 0.09420818835496902 73 2 159
0.5510287284851074 0.1817670464515686 -0.011947673745453358 66 3 157
0.5505620837211609 0.2557138502597809 0.06754046678543091 61 3 155
0.5496498942375183 0.17910967767238617 0.05357472226023674 61 3 155
0.5179498791694641 0.14614532887935638 0.029626142233610153 64 3 156
0.49345073103904724 0.2007019817829132 0.03069930709898472 63 3 156
0.5360211133956909 0.2348228543996811 0.03229346126317978 64 3 156
0.5812327265739441 0.2102154791355133 0.07280084490776062 89 1 164
0.5383716821670532 0.17201626300811768 0.08711205422878265 84 1 163
0.4760584235191345 0.17279046773910522 0.0033416752703487873 69 3 158
0.44397345185279846 0.19722145795822144 -0.031494203954935074 58 4 154
0.4764121174812317 0.21466821432113647 0.010648883879184723 59 3 154
0.46630799770355225 0.15346363186836243 0.017326971516013145 63 3 156
0.4691446125507355 0.139227956533432 -0.01233384758234024 63 3 156
0.4807330369949341 0.1914013773202896 -0.0029619459528476 68 3 158
0.45942673087120056 0.14774352312088013 -0.04407542571425438 64 3 156
0.48037371039390564 0.14088083803653717 -0.07550837844610214 73 2 159
0.5033925771713257 0.13438311219215393 -0.06935430318117142 87 1 164
0.5391455292701721 0.15563428401947021 -0.08222927898168564 86 1 163
0.5094855427742004 0.21277804672718048 -0.08067827671766281 81 1 162
0.5316579341888428 0.1912170797586441 -0.12540701031684875 78 2 161
0.49996957182884216 0.2566593587398529 -0.12647326290607452 81 1 162
0.5048486590385437 0.2590563893318176 -0.13616879284381866 76 2 161
0.49918705224990845 0.2700784206390381 -0.15734127163887024 71 2 159
0.4843117296695709 0.2834317684173584 -0.14808322489261627 61 3 155
0.4926583468914032 0.26275020837783813 -0.16151557862758636 59 3 154
0.508155107498169 0.26760122179985046 -0.14937207102775574 56 4 153
0.5058538913726807 0.2814190685749054 -0.13863614201545715 51 4 151
0.4977964162826538 0.29076912999153137 -0.1458379030227661 39 5 146
0.4957806169986725 0.3060157895088196 -0.15733255445957184 37 5 145
0.4931890070438385 0.2832237482070923 -0.16105936467647552 33 5 143
0.48694297671318054 0.27936291694641113 -0.17183825373649597 33 5 143
0.4895734488964081 0.28204986453056335 -0.16830873489379883 35 5 144
0.5047222971916199 0.291382759809494 -0.1395590752363205 35 5 144
0.4866427779197693 0.2795944809913635 -0.15462453663349152 35 5 144
0.4750509262084961 0.2814030051231384 -0.16564224660396576 37 5 145
0.48831120133399963 0.2947104871273041 -0.16730982065200806 37 5 145
0.47765520215034485 0.2802256941795349 -0.16438013315200806 35 5 144
0.49146759510040283 0.28534403443336487 -0.17292053997516632 31 5 142
0.4899921715259552 0.2863709628582001 -0.16260385513305664 33 5 143
0.4863479435443878 0.2776619493961334 -0.17317257821559906 33 5 143
0.4632541537284851 0.24699990451335907 -0.18649697303771973 33 5 143
0.5004633665084839 0.26967868208885193 -0.16207359731197357 33 5 143
0.5053766965866089 0.2889404296875 -0.1517534852027893 37 5 145
0.47957873344421387 0.2965697944164276 -0.16897621750831604 35 5 144
0.49458229541778564 0.2989825904369354 -0.15301786363124847 33 5 143
0.4977673292160034 0.2753949463367462 -0.16433410346508026 33 5 143
0.5050662159919739 0.2945510149002075 -0.1381799429655075 35 5 144
0.522797167301178 0.27078211307525635 -0.14015869796276093 37 5 145
0.48301538825035095 0.28137320280075073 -0.15435226261615753 45 4 148
0.4756329357624054 0.2835083305835724 -0.16889438033103943 69 3 158
0.473827600479126 0.3023267388343811 -0.16339272260665894 69 3 158
0.4742070138454437 0.3041679561138153 -0.15526948869228363 66 3 157
0.4832576513290405 0.2976134419441223 -0.1421109437942505 61 3 155
0.4762614965438843 0.27689582109451294 -0.15958435833454132 61 3 155
0.4700126051902771 0.29782986640930176 -0.16052451729774475 66 3 157
0.4995623230934143 0.3163508474826813 -0.12898258864879608 66 3 157
0.46748703718185425 0.303166925907135 -0.12316080927848816 68 3 158
0.46449440717697144 0.28678685426712036 -0.14769454300403595 74 2 160
0.5094512701034546 0.2780686616897583 -0.12474516034126282 74 2 160
0.47979146242141724 0.2721880078315735 -0.1396966427564621 66 3 157
0.4869689345359802 0.2714851498603821 -0.13287191092967987 61 3 155
0.49290722608566284 0.2622566223144531 -0.13113927841186523 63 3 156
0.47703713178634644 0.28455647826194763 -0.12583132088184357 66 3 157
0.4784705936908722 0.2865179777145386 -0.13327829539775848 68 3 158
0.4856214225292206 0.2773383855819702 -0.10494302213191986 71 2 159
0.5052059292793274 0.27142420411109924 -0.1065167561173439 71 2 159
0.488084614276886 0.27817222476005554 -0.11666002869606018 69 3 158
0.4630526900291443 0.2575366795063019 -0.12396768480539322 69 3 158
0.49316370487213135 0.2702350616455078 -0.1020701676607132 73 2 159
0.49645158648490906 0.2867339551448822 -0.11425244808197021 73 2 159
0.4748534560203552 0.3059234321117401 -0.09022049605846405 73 2 159
0.4840223491191864 0.2657366096973419 -0.13708049058914185 73 2 159
0.4705982804298401 0.2943636476993561 -0.12474469840526581 73 2 159
0.4740801751613617 0.30026552081108093 -0.13599739968776703 59 3 154
0.48848989605903625 0.3046679198741913 -0.12627649307250977 61 3 155
0.48455139994621277 0.283796101808548 -0.15201114118099213 56 4 153
0.44469958543777466 0.2588040828704834 -0.19423618912696838 51 4 151
0.44063320755958557 0.2949203550815582 -0.16394276916980743 47 4 149
0.4702833890914917 0.31916874647140503 -0.1390163153409958 54 4 152
0.5083494186401367 0.34023594856262207 -0.11205705255270004 51 4 151
0.4519510269165039 0.339171826839447 -0.14301075041294098 56 4 153
0.4503028690814972 0.36216413974761963 -0.14399439096450806 63 3 156
0.463308185338974 0.3420006036758423 -0.1560308039188385 59 3 154
0.4513998329639435 0.35436660051345825 -0.12129554897546768 59 3 154
0.43497681617736816 0.31745442748069763 -0.1854972094297409 59 3 154
0.4332561790943146 0.3515261113643646 -0.14591479301452637 63 3 156
0.3951908349990845 0.3414638936519623 -0.1650182604789734 61 3 155
0.41216176748275757 0.3388751149177551 -0.16993048787117004 59 3 154
0.4269331097602844 0.3157241940498352 -0.15525148808956146 59 3 154
0.45096275210380554 0.2915966510772705 -0.15872034430503845 52 4 152
0.4598213732242584 0.3135341703891754 -0.1586020439863205 61 3 155
0.4394274652004242 0.3129954934120178 -0.16441428661346436 56 4 153
0.4499264061450958 0.3209189176559448 -0.15403972566127777 61 3 155
0.42624446749687195 0.33522871136665344 -0.14118194580078125 56 4 153
0.44656872749328613 0.3235858976840973 -0.1490865796804428 56 4 153
0.43229255080223083 0.34454232454299927 -0.14614132046699524 59 3 154
0.43469473719596863 0.34305351972579956 -0.1279544234275818 58 4 154
0.46147602796554565 0.3101752698421478 -0.1454823613166809 54 4 152
0.45967793464660645 0.2854190468788147 -0.16498056054115295 51 4 151
0.42008283734321594 0.30889251828193665 -0.19537171721458435 58 4 154
0.4012320339679718 0.34818652272224426 -0.18080353736877441 61 3 155
0.41531163454055786 0.35391849279403687 -0.15115302801132202 63 3 156
0.4567638635635376 0.3119196593761444 -0.14517678320407867 64 3 156
0.4515087306499481 0.3123786449432373 -0.16994281113147736 63 3 156
0.45060017704963684 0.33387500047683716 -0.13313981890678406 64 3 156
0.46474316716194153 0.32907891273498535 -0.15625597536563873 64 3 156
0.4230878949165344 0.3332330286502838 -0.154591903090477 61 3 155
0.4285815954208374 0.3038611114025116 -0.18248137831687927 56 4 153
0.4300975203514099 0.2957421541213989 -0.18634670972824097 59 3 154
0.4126148521900177 0.3108973801136017 -0.19603626430034637 59 3 154
0.4099217653274536 0.30951517820358276 -0.20060716569423676 61 3 155
0.4406965970993042 0.28446951508522034 -0.2124425619840622 68 3 158
0.4566371440887451 0.24249480664730072 -0.17762473225593567 66 3 157
0.4335576891899109 0.23154038190841675 -0.13974173367023468 68 3 158
0.46858248114585876 0.26245352625846863 -0.147176131606102 66 3 157
0.4451032280921936 0.3176857829093933 -0.13563962280750275 61 3 155
0.4491288661956787 0.3162160813808441 -0.14935393631458282 59 3 154
0.448862224817276 0.23649747669696808 -0.2936256527900696 63 3 156
-0.23420101404190063 -0.2451285570859909 -0.49996206164360046 63 3 156
-0.1681956946849823 -0.23511160910129547 -0.33572643995285034 52 4 152
-0.5425506830215454 -0.3372976779937744 0.05364048108458519 66 3 157
-0.4865489602088928 -0.3689658045768738 0.14190718531608582 66 3 157
-0.411323606967926 -0.39621591567993164 0.09802096337080002 58 4 154
-0.3892567455768585 -0.378268301486969 0.11872516572475433 49 4 150
-0.3854897618293762 -0.3803068697452545 0.12641887366771698 43 5 148
-0.4188501536846161 -0.3772423565387726 0.11654982715845108 43 5 148
-0.40968185663223267 -0.3682384788990021 0.11121939867734909 41 5 147
-0.44989246129989624 -0.3645969331264496 0.09456947445869446 43 5 148
-0.4479215741157532 -0.362815797328949 0.08247070759534836 41 5 147
-0.42819440364837646 -0.35905587673187256 0.1052425354719162 37 5 145
-0.4015876352787018 -0.3749415874481201 0.10283349454402924 35 5 144
-0.4126306176185608 -0.3885164260864258 0.08713967353105545 33 5 143
-0.4145268499851227 -0.3832361698150635 0.10702794045209885 31 5 142
-0.4393076002597809 -0.31633636355400085 0.1402025818824768 35 5 144
-0.41325733065605164 -0.33995598554611206 0.11481502652168274 33 5 143
-0.4402032494544983 -0.334394633769989 0.07978399097919464 29 6 141
-0.43481022119522095 -0.3240239918231964 0.1122562512755394 29 6 141
-0.40392425656318665 -0.34288346767425537 0.13334324955940247 31 5 142
-0.36550667881965637 -0.33432257175445557 0.13341721892356873 31 5 142
-0.35404595732688904 -0.3482493460178375 0.1457667052745819 31 5 142
-0.3480898141860962 -0.3395487368106842 0.15268535912036896 31 5 142
-0.3394091725349426 -0.3166680634021759 0.1675107777118683 29 6 141
-0.3473978638648987 -0.31600281596183777 0.14543037116527557 27 6 140
-0.35830971598625183 -0.31842634081840515 0.15342868864536285 33 5 143
-0.3584088385105133 -0.3021091818809509 0.15797588229179382 39 5 146
-0.3531723916530609 -0.3355919420719147 0.13024917244911194 39 5 146
-0.35972052812576294 -0.29387137293815613 0.1431470662355423 33 5 143
-0.3228469491004944 -0.3071383535861969 0.14563745260238647 33 5 143
-0.3186838626861572 -0.330044686794281 0.13935403525829315 33 5 143
-0.3143748342990875 -0.2962894141674042 0.15413878858089447 35 5 144
-0.3314269185066223 -0.29086893796920776 0.15800200402736664 33 5 143
-0.3189805746078491 -0.3007299304008484 0.1515320986509323 29 6 141
-0.2657879590988159 -0.2979808747768402 0.12638024985790253 29 6 141
-0.23004348576068878 -0.2942832112312317 0.13772234320640564 31 5 142
-0.19112831354141235 -0.27608436346054077 0.13210423290729523 29 6 141
-0.17045527696609497 -0.2672117054462433 0.15469904243946075 27 6 140
-0.1254780888557434 -0.24152451753616333 0.15454404056072235 27 6 140
-0.09465266019105911 -0.2265385240316391 0.1651112288236618 27 6 140
-0.0394216813147068 -0.2174280285835266 0.16672466695308685 24 6 139
-0.02701714262366295 -0.19506166875362396 0.18563829362392426 29 6 141
0.0017846301198005676 -0.1953355073928833 0.17670468986034393 29 6 141
-0.01481294073164463 -0.18424734473228455 0.16405563056468964 29 6 141
0.013342643156647682 -0.13300348818302155 0.15662850439548492 29 6 141
0.007325365673750639 -0.12630465626716614 0.16147515177726746 27 6 140
0.014307357370853424 -0.15530923008918762 0.15468275547027588 29 6 141
-0.018389180302619934 -0.17233392596244812 0.16828903555870056 27 6 140
-0.04820640757679939 -0.19678662717342377 0.16672076284885406 27 6 140
-0.0702652782201767 -0.2035067081451416 0.16139717400074005 27 6 140
-0.08880340307950974 -0.20034989714622498 0.16956864297389984 27 6 140
-0.12462561577558517 -0.21338188648223877 0.1835307478904724 24 6 139
-0.10520818084478378 -0.20300616323947906 0.19038458168506622 21 6 138
-0.10519669204950333 -0.23959949612617493 0.17405517399311066 21 6 138
-0.13753344118595123 -0.23606745898723602 0.17017923295497894 24 6 139
-0.1168781965970993 -0.22351250052452087 0.18399780988693237 27 6 140
-0.07931447774171829 -0.23213671147823334 0.2157103419303894 27 6 140
-0.08046765625476837 -0.22337710857391357 0.20546700060367584 24 6 139
-0.09511854499578476 -0.216451033949852 0.16597728431224823 21 6 138
-0.08779594302177429 -0.18555696308612823 0.16814643144607544 19 6 137
-0.09882600605487823 -0.18215025961399078 0.1532236933708191 19 6 137
-0.09511810541152954 -0.1923338770866394 0.15531738102436066 19 6 137
-0.08642145246267319 -0.199314147233963 0.16490575671195984 19 6 137
-0.13467197120189667 -0.20962320268154144 0.16690503060817719 21 6 138
-0.12769407033920288 -0.22357769310474396 0.15042182803153992 16 7 135
-0.1771727204322815 -0.24435465037822723 0.1563311219215393 16 7 135
-0.1617673933506012 -0.22963306307792664 0.16121257841587067 16 7 135
-0.16538682579994202 -0.2427108883857727 0.1680743247270584 16 7 135
-0.1537412852048874 -0.2595319151878357 0.17640569806098938 12 7 134
-0.1379043310880661 -0.22993260622024536 0.19038845598697662 12 7 134
-0.14120933413505554 -0.21101054549217224 0.1947324126958847 12 7 134
-0.1524324268102646 -0.21086570620536804 0.18664877116680145 16 7 135
-0.15527966618537903 -0.2103128433227539 0.1851440817117691 21 6 138
-0.16359058022499084 -0.21672557294368744 0.18827778100967407 19 6 137
-0.19814808666706085 -0.24437984824180603 0.1843944936990738 29 6 141
-0.2164994329214096 -0.23632381856441498 0.18893222510814667 29 6 141
-0.26735901832580566 -0.24568434059619904 0.19612449407577515 24 6 139
-0.2814387083053589 -0.2732824385166168 0.1726616621017456 21 6 138
-0.29721546173095703 -0.276355504989624 0.17216721177101135 19 6 137
-0.2969032824039459 -0.291965126991272 0.16130000352859497 19 6 137
-0.2797592580318451 -0.29894331097602844 0.1534072905778885 19 6 137
-0.3027501106262207 -0.29274672269821167 0.1778503954410553 19 6 137
-0.2658640146255493 -0.29656240344047546 0.18000708520412445 19 6 137
-0.24978020787239075 -0.3068309724330902 0.18582665920257568 16 7 135
-0.27663353085517883 -0.3105398118495941 0.15966683626174927 16 7 135
-0.32470378279685974 -0.2992837727069855 0.15752702951431274 19 6 137
-0.2932383716106415 -0.27641797065734863 0.1883886307477951 19 6 137
-0.2768266201019287 -0.2658534049987793 0.1883881688117981 35 5 144
-0.26625970005989075 -0.3116730749607086 0.163177028298378 27 6 140
-0.29039376974105835 -0.2956811189651489 0.17961040139198303 35 5 144
-0.26975324749946594 -0.29856055974960327 0.20025931298732758 58 4 154
-0.2881699800491333 -0.3088589608669281 0.15892130136489868 54 4 152
-0.3160804808139801 -0.29955148696899414 0.16444717347621918 54 4 152
-0.34080269932746887 -0.3129768967628479 0.14957807958126068 56 4 153
-0.3448728919029236 -0.3004308342933655 0.16404622793197632 54 4 152
-0.348699152469635 -0.3518216907978058 0.15794172883033752 51 4 151
-0.36330699920654297 -0.3199015259742737 0.13928240537643433 49 4 150
-0.3382927179336548 -0.2702118456363678 0.11911877244710922 24 6 139
-0.17297233641147614 -0.244905486702919 0.18134312331676483 33 5 143
-0.14943796396255493 -0.23114240169525146 0.19589845836162567 43 5 148
-0.15007388591766357 -0.20454370975494385 0.19002072513103485 52 4 152
-0.1475311517715454 -0.19385471940040588 0.2079707384109497 68 3 158
-0.13903175294399261 -0.20444433391094208 0.22530928254127502 74 2 160
-0.13978952169418335 -0.20155824720859528 0.23234106600284576 76 2 161
-0.14148537814617157 -0.20526070892810822 0.23532216250896454 76 2 161
-0.15113690495491028 -0.21362440288066864 0.22910423576831818 84 1 163
-0.1347784399986267 -0.21264897286891937 0.2227058857679367 95 0 166
-0.13789673149585724 -0.20279620587825775 0.22125640511512756 95 0 166
-0.13568830490112305 -0.2019316703081131 0.22460661828517914 92 0 165
-0.14528514444828033 -0.22212161123752594 0.21645204722881317 90 0 165
-0.14718325436115265 -0.21755290031433105 0.22092315554618835 95 0 166
-0.15613938868045807 -0.2112424075603485 0.237980917096138 101 0 167
-0.1139778196811676 -0.21627260744571686 0.2392956167459488 101 0 167
-0.0889415293931961 -0.23241357505321503 0.2339920848608017 111 0 168
-0.09180869907140732 -0.195943221449852 0.22410434484481812 115 0 168
-0.051750823855400085 -0.19600866734981537 0.21593071520328522 121 1 168
-0.019702844321727753 -0.1906530261039734 0.20342451333999634 130 4 167
0.007977080531418324 -0.13617771863937378 0.20235012471675873 123 2 168
0.05878421664237976 -0.10626298189163208 0.2023698389530182 129 4 167
0.06049225479364395 -0.09841810166835785 0.19159577786922455 121 1 168
0.10607019811868668 -0.05990784987807274 0.18488800525665283 114 0 168
0.12144683301448822 -0.04903772100806236 0.1727748066186905 130 4 167
0.15748025476932526 -0.041867103427648544 0.1690688133239746 124 2 167
0.1699499487876892 -0.013773766346275806 0.1549677848815918 118 1 168
0.19879567623138428 -0.028160059824585915 0.13673417270183563 124 2 167
0.17586275935173035 -0.029932966455817223 0.14483624696731567 130 4 167
0.1851492077112198 -0.0033446806482970715 0.15578210353851318 124 2 167
0.18891975283622742 -0.02344610169529915 0.15280026197433472 123 2 168
0.19714677333831787 -0.0380997434258461 0.14981523156166077 123 2 168
0.156518816947937 -0.055830612778663635 0.14795950055122375 124 2 167
0.10698023438453674 -0.05531252175569534 0.15266332030296326 117 0 168
0.08140020072460175 -0.050614286214113235 0.14915154874324799 118 1 168
0.08859746158123016 -0.06909061223268509 0.1651257425546646 114 0 168
0.10317744314670563 -0.08881957083940506 0.17805726826190948 108 0 168
0.10044603794813156 -0.08308535814285278 0.18101410567760468 82 1 163
0.09380954504013062 -0.11109812557697296 0.17836225032806396 90 0 165
0.05089309811592102 -0.11836877465248108 0.1575787365436554 82 1 163
0.058270834386348724 -0.09469093382358551 0.1749327927827835 76 2 161
0.07347679883241653 -0.10749710351228714 0.19934703409671783 79 2 162
0.0834864005446434 -0.10862661898136139 0.2035432755947113 89 1 164
