ply
format ascii 1.0
element vertex 678
property float x
property float y
property float z
property uchar red
property uchar green
property uchar blue
end_header
0.3106180429458618 -0.08190430700778961 0.6085391044616699 126 3 167
0.3244166672229767 -0.07734031230211258 0.5927631258964539 142 12 164
0.36607182025909424 -0.07305624336004257 0.5863505601882935 155 23 158
0.39740827679634094 -0.05857311561703682 0.5881702303886414 126 3 167
0.42587417364120483 -0.039723001420497894 0.5700219869613647 129 4 167
0.4588145911693573 -0.02051127329468727 0.5594005584716797 136 7 165
0.5026177763938904 -0.00373313226737082 0.542687714099884 144 14 163
0.5275407433509827 0.026077812537550926 0.5268099904060364 149 17 161
0.5428902506828308 0.044793322682380676 0.5059473514556885 136 7 165
0.5593739748001099 0.053404103964567184 0.4861094057559967 151 19 160
0.5681817531585693 0.07291402667760849 0.4610338509082794 136 7 165
0.5832405090332031 0.089002326130867 0.44118866324424744 118 1 168
0.5847206711769104 0.10010236501693726 0.4363820552825928 132 5 166
0.5733579397201538 0.08835777640342712 0.4340556263923645 136 7 165
0.5739973783493042 0.08166448026895523 0.43269065022468567 127 3 167
0.576933741569519 0.08962488919496536 0.43064525723457336 126 3 167
0.57562655210495 0.09426393359899521 0.41757291555404663 164 30 152
0.5601499676704407 0.10682962834835052 0.42025357484817505 196 63 126
0.5667698979377747 0.1034896969795227 0.419380247592926 210 80 112
0.5747662782669067 0.1172177791595459 0.37977519631385803 212 82 110
0.5805103778839111 0.1460830569267273 0.3480753004550934 215 86 108
0.5913913249969482 0.1392090618610382 0.3418201506137848 209 79 113
0.6096577048301697 0.13083171844482422 0.3723469078540802 209 78 114
0.6321454644203186 0.11588137596845627 0.4038703441619873 196 63 126
0.6227331757545471 0.10331261157989502 0.4062768816947937 200 68 122
0.6253894567489624 0.08507535606622696 0.43147197365760803 198 65 124
0.611304521560669 0.08727674931287766 0.4576452672481537 204 72 118
0.6434246301651001 0.07474488765001297 0.4264124631881714 203 71 119
0.6661970615386963 0.0773969292640686 0.38074061274528503 208 77 115
0.6992334127426147 0.1347724199295044 0.28303468227386475 218 90 104
0.6819067001342773 0.16072633862495422 0.1494516134262085 218 90 104
0.6546720862388611 0.20896492898464203 0.06215500459074974 215 86 108
0.6061891913414001 0.22995665669441223 -0.009801478125154972 215 86 108
0.583747148513794 0.2502032518386841 -0.03747588396072388 217 89 105
0.5641835927963257 0.2598381042480469 -0.06543240696191788 218 90 104
0.5550459027290344 0.2736060619354248 -0.05853263661265373 211 81 111
0.5607767105102539 0.2731609642505646 -0.03072138875722885 197 64 125
0.566344141960144 0.2874484658241272 -0.02504613623023033 215 87 107
0.5665262341499329 0.2786141633987427 -0.006407150533050299 198 65 124
0.5771952867507935 0.27347519993782043 -0.0062897359021008015 214 85 109
0.5822538137435913 0.2885039150714874 0.0013477373868227005 214 85 109
0.5867186188697815 0.29561325907707214 -0.0029043175745755434 212 82 110
0.5847389698028564 0.30262255668640137 -0.02140725776553154 209 79 113
0.5769057869911194 0.29246219992637634 -0.030231494456529617 210 80 112
0.584372341632843 0.2982383370399475 -0.021789515390992165 210 80 112
0.60038822889328 0.2845268249511719 0.007728755474090576 217 89 105
0.6156100034713745 0.2860338091850281 0.002848960692062974 218 90 104
0.6161321401596069 0.2707100510597229 -0.010671937838196754 219 91 103
0.6020171046257019 0.2847188115119934 -0.01650780253112316 204 72 118
0.5969942212104797 0.27643853425979614 -0.03720451518893242 206 74 117
0.5695809125900269 0.2607108950614929 -0.06864327937364578 209 78 114
0.546235203742981 0.2802010178565979 -0.0945006012916565 219 91 103
0.5343084335327148 0.28099772334098816 -0.1114170104265213 226 102 96
0.497581422328949 0.2767512798309326 -0.1306689977645874 229 108 91
0.46789756417274475 0.27214914560317993 -0.15329609811306 229 108 91
0.4516383707523346 0.273071825504303 -0.19359099864959717 235 118 84
0.43355071544647217 0.28568243980407715 -0.2087140828371048 232 113 88
0.42792075872421265 0.2772161662578583 -0.1989787220954895 227 104 94
0.4181240200996399 0.27915558218955994 -0.20561663806438446 227 103 95
0.4074924886226654 0.28133395314216614 -0.20429877936840057 227 104 94
0.4080297350883484 0.27941638231277466 -0.19352839887142181 220 94 102
0.4135631024837494 0.25770729780197144 -0.17843042314052582 222 96 100
0.4148888885974884 0.2736110985279083 -0.1873166561126709 224 100 97
0.41672542691230774 0.2658389210700989 -0.1996244192123413 227 103 95
0.40657928586006165 0.2750282287597656 -0.23365552723407745 227 104 94
0.39715731143951416 0.2860042154788971 -0.257088303565979 227 104 94
0.39855095744132996 0.28224053978919983 -0.26651617884635925 214 85 109
0.39172133803367615 0.28698474168777466 -0.28026309609413147 213 83 109
0.3885422945022583 0.2857155203819275 -0.29608941078186035 213 83 109
0.37968993186950684 0.2973265051841736 -0.28800997138023376 213 83 109
0.39573633670806885 0.27076220512390137 -0.287875771522522 197 64 125
0.38239553570747375 0.2862289547920227 -0.3215295374393463 204 72 118
0.3494686186313629 0.2606845498085022 -0.33844083547592163 201 69 121
0.3302612006664276 0.2701832950115204 -0.3533070683479309 209 78 114
0.30865728855133057 0.26980188488960266 -0.36023953557014465 209 79 113
0.30681276321411133 0.26563921570777893 -0.369797021150589 214 85 109
0.3041406273841858 0.26926541328430176 -0.36663198471069336 210 80 112
0.2940719723701477 0.26604968309402466 -0.3742913007736206 232 112 89
0.2976555824279785 0.28147122263908386 -0.37815192341804504 220 93 102
0.31160667538642883 0.27593135833740234 -0.3838801085948944 224 100 97
0.31797975301742554 0.2783200740814209 -0.37350162863731384 227 104 94
0.2962621748447418 0.27571091055870056 -0.3656059503555298 229 107 92
0.31961777806282043 0.3064505457878113 -0.35263198614120483 232 113 88
0.33810174465179443 0.29982295632362366 -0.33601316809654236 234 116 85
0.32790908217430115 0.28702324628829956 -0.31014350056648254 235 118 84
0.3232872784137726 0.2784082889556885 -0.29329583048820496 230 109 90
0.3035416901111603 0.27311041951179504 -0.28622904419898987 235 118 84
0.2788119912147522 0.24974475800991058 -0.29954394698143005 236 119 84
0.24637387692928314 0.24584047496318817 -0.32263779640197754 236 120 83
0.24828457832336426 0.23494838178157806 -0.358360230922699 232 112 89
0.20620204508304596 0.2537917494773865 -0.4004823565483093 230 109 90
0.17900800704956055 0.2595888376235962 -0.45252448320388794 223 97 99
0.15866895020008087 0.2440279722213745 -0.4906589984893799 187 53 134
0.12353508919477463 0.24393680691719055 -0.5100201368331909 178 44 142
0.08717019110918045 0.24825093150138855 -0.5132009387016296 189 55 132
0.0750318244099617 0.24401728808879852 -0.5141985416412354 200 68 122
0.06477461755275726 0.24878931045532227 -0.5085242986679077 206 74 117
0.08742241561412811 0.2525566518306732 -0.5031648874282837 204 72 118
0.09181199222803116 0.2534983158111572 -0.49276217818260193 197 64 125
0.08716121315956116 0.252231627702713 -0.4955832064151764 190 56 131
0.12362729758024216 0.258734792470932 -0.4800950288772583 188 54 133
0.1322874277830124 0.23164352774620056 -0.47064316272735596 194 61 128
0.1284988969564438 0.23027130961418152 -0.5082483291625977 190 56 131
0.10722609609365463 0.2262709140777588 -0.5240621566772461 159 26 155
0.07988303899765015 0.2365613877773285 -0.5330919027328491 159 26 155
0.03688003122806549 0.20401225984096527 -0.5478394627571106 170 36 148
0.017170162871479988 0.22747240960597992 -0.5535714030265808 182 47 139
-0.005312746856361628 0.22863726317882538 -0.5504735708236694 184 50 137
-0.028447989374399185 0.26235345005989075 -0.5632566809654236 167 33 151
-0.03544415161013603 0.24595016241073608 -0.5707319378852844 158 25 156
-0.0682327076792717 0.2435576468706131 -0.5540527701377869 159 26 155
-0.11946003139019012 0.20561589300632477 -0.5428575277328491 149 17 161
-0.19292393326759338 0.19425736367702484 -0.512569010257721 155 23 158
-0.2257327288389206 0.15502090752124786 -0.48556751012802124 149 17 161
-0.21971873939037323 0.13962164521217346 -0.4818403124809265 137 8 165
-0.21083523333072662 0.14272482693195343 -0.4950082004070282 127 3 167
-0.26278385519981384 0.11341755837202072 -0.506751537322998 104 0 167
-0.18562543392181396 0.10218238830566406 -0.5256120562553406 101 0 167
-0.16796275973320007 0.11567725986242294 -0.5958839058876038 79 2 162
-0.12684883177280426 0.17924164235591888 -0.6210848689079285 68 3 158
-0.13896264135837555 0.18035754561424255 -0.568842887878418 64 3 156
-0.13606533408164978 0.16590343415737152 -0.5257495641708374 52 4 152
-0.17206662893295288 0.17420341074466705 -0.4940700829029083 51 4 151
-0.20577003061771393 0.16796258091926575 -0.4695376455783844 253 185 43
-0.2212252914905548 0.1756504774093628 -0.4716036319732666 252 169 52
-0.19909749925136566 0.15519559383392334 -0.45305585861206055 43 5 148
-0.19923709332942963 0.17006021738052368 -0.45107781887054443 97 0 166
-0.18094375729560852 0.16173824667930603 -0.4243243634700775 253 196 39
-0.1953941136598587 0.1472577601671219 -0.4221499562263489 103 0 167
-0.21437415480613708 0.1483212262392044 -0.45332708954811096 253 176 48
-0.19116447865962982 0.15671555697917938 -0.4769633710384369 253 179 46
-0.18048180639743805 0.1610482931137085 -0.4936053454875946 253 184 44
-0.1938551664352417 0.15352179110050201 -0.4842161238193512 90 0 165
-0.19926826655864716 0.14089033007621765 -0.4864487946033478 252 206 37
-0.17931991815567017 0.16604244709014893 -0.49432095885276794 253 190 41
-0.19704334437847137 0.1816539317369461 -0.4977279603481293 252 201 38
-0.18310695886611938 0.17481082677841187 -0.5062074661254883 253 193 40
-0.17836081981658936 0.1736309975385666 -0.5128751993179321 51 4 151
-0.18699079751968384 0.17231951653957367 -0.531112551689148 253 193 40
-0.20143941044807434 0.15720362961292267 -0.5353052020072937 103 0 167
-0.21589210629463196 0.1762247085571289 -0.5333718657493591 108 0 168
-0.22942687571048737 0.17300839722156525 -0.5289628505706787 108 0 168
-0.21545708179473877 0.1450805813074112 -0.5339661240577698 51 4 151
-0.18476472795009613 0.14958782494068146 -0.5454509854316711 92 0 165
-0.16499488055706024 0.18003611266613007 -0.5437350869178772 39 5 146
-0.1286468207836151 0.17676818370819092 -0.5413318872451782 253 187 43
-0.11619572341442108 0.18838351964950562 -0.5407904982566833 253 185 43
-0.10521961003541946 0.20330797135829926 -0.5344212651252747 111 0 168
-0.11463497579097748 0.2046205699443817 -0.5186020135879517 253 184 44
-0.12164967507123947 0.18572884798049927 -0.5261378288269043 120 1 168
-0.08105367422103882 0.20536157488822937 -0.5454193353652954 253 196 39
-0.05661476403474808 0.23618438839912415 -0.5569236278533936 63 3 156
-0.03944449499249458 0.2346331775188446 -0.5483019351959229 49 4 150
-0.03075987473130226 0.22638431191444397 -0.5394939184188843 66 3 157
-0.018864361569285393 0.2312241494655609 -0.5213575959205627 66 3 157
-0.0023264780174940825 0.22521546483039856 -0.5236154794692993 73 2 159
0.005687581840902567 0.2572309672832489 -0.5235377550125122 37 5 145
0.057396914809942245 0.2555295526981354 -0.5231460332870483 251 163 55
0.07170514762401581 0.26123735308647156 -0.5120019316673279 33 5 143
0.08798105269670486 0.267887681722641 -0.509843647480011 68 3 158
0.07995159178972244 0.2593649625778198 -0.5141839385032654 253 179 46
0.06386903673410416 0.2786194682121277 -0.5050497651100159 253 192 41
0.054197318851947784 0.27353599667549133 -0.4997115135192871 253 187 43
0.0650993287563324 0.2399006187915802 -0.4852571189403534 69 3 158
0.11616063863039017 0.2647840976715088 -0.46227383613586426 253 178 47
0.11503656953573227 0.2669788599014282 -0.43737247586250305 253 185 43
0.10759913921356201 0.267977237701416 -0.42478904128074646 253 188 42
0.08941685408353806 0.2807515263557434 -0.4641081392765045 253 195 40
0.07966917008161545 0.2785109281539917 -0.4813768267631531 253 192 41
0.11549755185842514 0.2525078356266022 -0.4783378839492798 252 201 38
0.16655108332633972 0.2586817145347595 -0.4766080677509308 247 224 36
0.13787198066711426 0.26547420024871826 -0.489471435546875 245 231 38
0.08289549499750137 0.24900276958942413 -0.500626266002655 246 228 37
0.06746326386928558 0.22662568092346191 -0.49408644437789917 251 209 36
0.053833913058042526 0.24007922410964966 -0.5159674882888794 247 224 36
0.05252692848443985 0.23801060020923615 -0.512265145778656 246 228 37
0.04242338240146637 0.23732540011405945 -0.5143284797668457 244 234 38
0.04976063594222069 0.2212115079164505 -0.5358251929283142 245 231 38
0.030160780996084213 0.22925390303134918 -0.5419954657554626 248 223 36
0.03935734182596207 0.23728695511817932 -0.5367830991744995 247 224 36
0.045802947133779526 0.23930786550045013 -0.5294893383979797 246 228 37
0.06155531108379364 0.2555042505264282 -0.5135559439659119 249 217 36
0.0708879604935646 0.2486109435558319 -0.5202921628952026 252 206 37
0.07972884178161621 0.2528036832809448 -0.5153595805168152 253 196 39
0.0638064444065094 0.26038143038749695 -0.5070222020149231 252 199 38
0.059538379311561584 0.26703834533691406 -0.5170397162437439 253 195 40
0.08060885220766068 0.27401575446128845 -0.5206674933433533 253 188 42
0.1162722185254097 0.27050185203552246 -0.5010678768157959 253 195 40
0.13448233902454376 0.2626245319843292 -0.4915309548377991 253 188 42
0.1371021568775177 0.2675290107727051 -0.49017855525016785 253 192 41
0.12503205239772797 0.26612868905067444 -0.49350669980049133 252 204 37
0.11728999018669128 0.2637466490268707 -0.497924268245697 243 238 38
0.11100861430168152 0.2668727934360504 -0.501126229763031 248 221 36
0.10667970031499863 0.257411926984787 -0.49704939126968384 252 199 38
0.10464096814393997 0.2550310790538788 -0.48902392387390137 252 201 38
0.12631724774837494 0.2592547535896301 -0.4976169764995575 251 209 36
0.14079809188842773 0.26388558745384216 -0.5010796189308167 251 208 36
0.17088700830936432 0.2735159397125244 -0.4844086766242981 253 196 39
0.16652227938175201 0.28032389283180237 -0.4861133396625519 253 179 46
0.17567966878414154 0.2839154005050659 -0.48530086874961853 253 196 39
0.1768133044242859 0.2881169617176056 -0.49387386441230774 253 188 42
0.1890832632780075 0.28123632073402405 -0.48649659752845764 245 141 69
0.2012302279472351 0.29697003960609436 -0.4718240201473236 237 123 81
0.20563234388828278 0.2955639362335205 -0.4717583656311035 252 166 53
0.21159659326076508 0.29130542278289795 -0.46861934661865234 253 196 39
0.20459876954555511 0.28551360964775085 -0.4666314721107483 237 121 82
0.1793958842754364 0.29659560322761536 -0.4811333417892456 236 119 84
0.16389459371566772 0.28949591517448425 -0.4932931363582611 240 129 77
0.15590932965278625 0.2850601077079773 -0.4899398684501648 253 185 43
0.14929068088531494 0.2820527255535126 -0.48822304606437683 251 208 36
0.1393423229455948 0.28130054473876953 -0.4969869554042816 251 211 36
0.14307378232479095 0.2777892053127289 -0.5045325756072998 243 236 38
0.15187285840511322 0.2778565287590027 -0.5057770013809204 251 211 36
0.157547727227211 0.2781502306461334 -0.49770665168762207 249 219 36
0.15981556475162506 0.28331947326660156 -0.49172380566596985 251 208 36
0.16102884709835052 0.2914504408836365 -0.49582943320274353 253 185 43
0.18598145246505737 0.2945893704891205 -0.48448291420936584 239 126 78
0.21159231662750244 0.2994270324707031 -0.4737622141838074 234 116 85
0.2529907822608948 0.30827388167381287 -0.45802390575408936 238 124 80
0.28340944647789 0.31301650404930115 -0.43396320939064026 253 192 41
0.3183826804161072 0.3153805434703827 -0.4181957542896271 243 236 38
0.3250710964202881 0.3108743727207184 -0.4170839488506317 242 241 38
0.33026209473609924 0.31781837344169617 -0.4074953496456146 220 94 102
0.3408504128456116 0.31356969475746155 -0.39938509464263916 97 0 166
0.3296383321285248 0.31500449776649475 -0.39939019083976746 112 0 168
0.3169104754924774 0.3179894983768463 -0.40855202078819275 117 0 168
0.3103647530078888 0.3147689998149872 -0.4202742576599121 117 0 168
0.29829156398773193 0.3039115071296692 -0.43480509519577026 127 3 167
0.26289018988609314 0.30275604128837585 -0.44416746497154236 117 0 168
0.25093159079551697 0.304733008146286 -0.4421803951263428 103 0 167
0.2769652009010315 0.3065529465675354 -0.43206483125686646 100 0 167
0.31446605920791626 0.32005152106285095 -0.4134751558303833 115 0 168
0.3689851760864258 0.33447906374931335 -0.3739975094795227 117 0 168
0.4022761881351471 0.3386951684951782 -0.3515458106994629 111 0 168
0.4345341622829437 0.33504241704940796 -0.3297328054904938 73 2 159
0.46810659766197205 0.34316179156303406 -0.3124980032444 63 3 156
0.5231901407241821 0.3506868779659271 -0.254751980304718 68 3 158
0.5744736194610596 0.32453545928001404 -0.21962924301624298 79 2 162
0.5684522390365601 0.34107735753059387 -0.21346943080425262 71 2 159
0.4751926064491272 0.32335519790649414 -0.24755975604057312 68 3 158
0.35996463894844055 0.2958507537841797 -0.3576715886592865 69 3 158
0.29699307680130005 0.2959507405757904 -0.40223434567451477 68 3 158
0.23087240755558014 0.2793041467666626 -0.4141238331794739 69 3 158
0.21153311431407928 0.2724517583847046 -0.42380455136299133 73 2 159
0.21974824368953705 0.2825948894023895 -0.4281909763813019 147 16 161
0.23484855890274048 0.2838328182697296 -0.4067532420158386 108 0 168
0.24507884681224823 0.3012317419052124 -0.3995365798473358 29 6 141
0.26789820194244385 0.3022288978099823 -0.38248518109321594 248 223 36
0.30246856808662415 0.2935745120048523 -0.358545184135437 253 181 45
0.31180617213249207 0.2843823730945587 -0.3470126688480377 250 157 58
0.3105033040046692 0.28527575731277466 -0.3546406626701355 248 152 62
0.3061753213405609 0.29107967019081116 -0.35610613226890564 248 149 64
0.2992786765098572 0.29994216561317444 -0.35740217566490173 251 164 54
0.30687615275382996 0.3115878105163574 -0.35959699749946594 243 236 38
0.341389924287796 0.31382375955581665 -0.3477760851383209 250 213 36
0.34563755989074707 0.301096111536026 -0.3361072242259979 247 147 65
0.34790027141571045 0.3023463785648346 -0.3241538107395172 243 238 38
0.3532843291759491 0.3134298324584961 -0.33732983469963074 241 243 38
0.3386163115501404 0.2962912619113922 -0.3595387041568756 27 6 140
0.3322599232196808 0.2864333391189575 -0.3663133680820465 41 5 147
0.3552933633327484 0.2952805459499359 -0.34794676303863525 59 3 154
0.38750332593917847 0.2997644245624542 -0.3091992735862732 49 4 150
0.39483338594436646 0.28069114685058594 -0.3097401261329651 49 4 150
0.3774336874485016 0.2844293713569641 -0.3322383761405945 56 4 153
0.3527037501335144 0.29215505719184875 -0.36479124426841736 54 4 152
0.34452053904533386 0.2990082800388336 -0.3812295198440552 59 3 154
0.3235093653202057 0.3022368252277374 -0.38726338744163513 59 3 154
0.32865408062934875 0.2850233316421509 -0.3800642192363739 47 4 149
0.32303157448768616 0.2916448414325714 -0.3710126578807831 29 6 141
0.3115783631801605 0.31308746337890625 -0.3871684968471527 35 5 144
0.2999100685119629 0.3038821518421173 -0.4016071856021881 21 6 138
0.32974258065223694 0.2966517210006714 -0.3643302619457245 242 240 38
0.33316341042518616 0.2944546639919281 -0.3520222306251526 243 238 38
0.3408949077129364 0.3003760874271393 -0.34698930382728577 243 236 38
0.35326308012008667 0.30374467372894287 -0.33167576789855957 12 7 134
0.3709132969379425 0.30916380882263184 -0.28205519914627075 24 6 139
0.42451566457748413 0.31346872448921204 -0.22089700400829315 31 5 142
0.49870896339416504 0.30924591422080994 -0.15433622896671295 31 5 142
0.5190008282661438 0.303956538438797 -0.10221174359321594 39 5 146
0.547635555267334 0.29525646567344666 -0.06455045193433762 43 5 148
0.5709999203681946 0.28963834047317505 -0.044792067259550095 47 4 149
0.6012302041053772 0.2784231901168823 -0.005331467371433973 49 4 150
0.629843533039093 0.2519642114639282 0.12562145292758942 49 4 150
0.6910023093223572 0.19826281070709229 0.2587590515613556 47 4 149
0.6978037357330322 0.13082151114940643 0.3371669352054596 35 5 144
0.6528575420379639 0.0893281102180481 0.44723013043403625 27 6 140
0.6035705804824829 0.06344462186098099 0.486862450838089 31 5 142
0.5686280131340027 0.016276072710752487 0.49604594707489014 78 2 161
0.540320873260498 -0.0017645605839788914 0.5441677570343018 31 5 142
0.5265248417854309 -0.002598208375275135 0.5736548900604248 35 5 144
0.5532890558242798 0.012028743512928486 0.5638735294342041 27 6 140
0.5426211357116699 0.008722077123820782 0.5654809474945068 37 5 145
0.5373368263244629 0.03198185935616493 0.5416309237480164 35 5 144
0.5707087516784668 0.035065408796072006 0.5049324035644531 31 5 142
0.6014843583106995 0.07271185517311096 0.4545188248157501 31 5 142
0.27149584889411926 0.07260261476039886 0.47859710454940796 33 5 143
0.06905723363161087 -0.13880132138729095 0.5777834057807922 223 98 98
0.010558759793639183 -0.3219345808029175 0.5540363788604736 223 98 98
0.20658919215202332 -0.12294002622365952 0.5016285181045532 220 93 102
0.23664766550064087 -0.14553621411323547 0.5423679351806641 221 95 101
0.16404369473457336 -0.1463579386472702 0.5284473299980164 229 108 91
0.16281287372112274 -0.1878025084733963 0.5194091200828552 232 113 88
0.10687249898910522 -0.18480056524276733 0.483662486076355 235 118 84
0.09455954283475876 -0.1861903816461563 0.4406396448612213 234 116 85
0.09296879172325134 -0.20615774393081665 0.419111430644989 234 116 85
0.09333913028240204 -0.21001622080802917 0.41409265995025635 233 114 87
0.09650496393442154 -0.20832891762256622 0.435105562210083 234 115 86
0.14865487813949585 -0.2032281756401062 0.422974556684494 218 90 104
0.16401256620883942 -0.20505864918231964 0.42171043157577515 198 65 124
0.20996198058128357 -0.15515320003032684 0.3924446105957031 184 50 137
0.2714863717556 -0.15318238735198975 0.3805207908153534 170 36 148
0.3299289047718048 -0.11628659069538116 0.39933207631111145 157 24 157
0.3525404930114746 -0.09247768670320511 0.37732937932014465 159 26 155
0.3796199858188629 -0.051785364747047424 0.38039541244506836 160 27 155
0.37010592222213745 -0.028338123112916946 0.37594279646873474 163 29 153
0.40095967054367065 -0.01654442399740219 0.3491203486919403 173 38 146
0.4522345960140228 -0.0151471346616745 0.3683902323246002 185 51 136
0.5138052105903625 0.029543129727244377 0.3774506747722626 132 5 166
0.5373625755310059 0.061910949647426605 0.3854714334011078 162 28 154
0.5569784045219421 0.06985416263341904 0.4001103639602661 154 21 158
0.5476235151290894 0.0793619230389595 0.3941052258014679 174 39 145
0.5952462553977966 0.07932624965906143 0.38323113322257996 173 38 146
0.6125338077545166 0.11245674639940262 0.3837648034095764 175 40 144
0.6212051510810852 0.11322807520627975 0.4152778685092926 188 54 133
0.6187688708305359 0.10673222690820694 0.3951220214366913 190 56 131
0.6634069085121155 0.09636852890253067 0.36054620146751404 196 63 126
0.6926633715629578 0.13739491999149323 0.3809352517127991 195 62 127
0.6858870387077332 0.11786448210477829 0.3706030249595642 194 61 128
0.7355793714523315 0.11571105569601059 0.3478127717971802 193 60 128
0.7523351907730103 0.14451837539672852 0.35775378346443176 190 56 131
0.7316045165061951 0.18598142266273499 0.34780317544937134 185 51 136
0.7537228465080261 0.13780061900615692 0.27657684683799744 174 39 145
0.7587751746177673 0.16839471459388733 0.25717541575431824 174 39 145
0.7697457075119019 0.1732320785522461 0.3009724020957947 174 39 145
0.7317430377006531 0.1484755128622055 0.34948334097862244 172 37 147
0.6907992362976074 0.08544481545686722 0.37413719296455383 175 40 144
0.6757001876831055 0.1033627912402153 0.4099213480949402 175 40 144
0.6766589283943176 0.15123768150806427 0.4013880789279938 174 39 145
0.6948651671409607 0.16511885821819305 0.3624487519264221 168 34 150
0.7072133421897888 0.1657359004020691 0.35189712047576904 181 46 140
0.6909651756286621 0.18565194308757782 0.3953278660774231 190 56 131
0.693176805973053 0.19619536399841309 0.3662227392196655 187 53 134
0.7191744446754456 0.19704771041870117 0.30124714970588684 174 39 145
0.7044585943222046 0.19983267784118652 0.270015686750412 165 31 151
0.7006703615188599 0.2523966133594513 0.2005893737077713 158 25 156
0.6997528076171875 0.270475298166275 0.17179147899150848 160 27 155
0.7248284220695496 0.33140280842781067 0.13878603279590607 157 24 157
0.7341055870056152 0.2965486943721771 0.1230296641588211 134 7 166
0.7237602472305298 0.26694467663764954 0.13160158693790436 126 3 167
0.7125479578971863 0.3138788044452667 0.0905531793832779 127 3 167
0.7119337320327759 0.3131718635559082 0.15182948112487793 129 4 167
0.6921312212944031 0.31646764278411865 0.14824596047401428 129 4 167
0.7181811928749084 0.30886512994766235 0.13121309876441956 118 1 168
0.7181447744369507 0.25121697783470154 0.18828636407852173 104 0 167
0.710827648639679 0.3135703504085541 0.15783043205738068 94 0 165
0.6922736167907715 0.3180371820926666 0.07748766988515854 97 0 166
0.6417089700698853 0.33232414722442627 0.09568357467651367 123 2 168
0.5963159799575806 0.3730494976043701 -0.016069555655121803 121 1 168
0.5422796607017517 0.3477698564529419 -0.08817602694034576 118 1 168
0.531258225440979 0.3234771192073822 -0.08116454631090164 112 0 168
0.515529990196228 0.3098596930503845 -0.027655500918626785 115 0 168
0.5558131337165833 0.3046422302722931 -0.05443093553185463 133 6 166
0.4982464909553528 0.3085884749889374 -0.0979652851819992 136 7 165
0.5088400840759277 0.30967435240745544 -0.13501517474651337 142 12 164
0.5245751738548279 0.2950730323791504 -0.15917037427425385 151 19 160
0.5015266537666321 0.2970876693725586 -0.10398853570222855 142 12 164
0.5516189336776733 0.2930600941181183 -0.04482899233698845 130 4 167
0.5452895164489746 0.3171751797199249 0.02893291972577572 140 10 164
0.610211193561554 0.3131534457206726 -0.0074356356635689735 139 9 164
0.49135491251945496 0.22882181406021118 -0.09965980798006058 134 7 166
0.35647937655448914 0.28918951749801636 -0.2552815079689026 203 71 119
0.13461092114448547 0.21675364673137665 -0.40763840079307556 208 77 115
0.016866495832800865 0.22843872010707855 -0.4014962315559387 219 91 103
0.014341908507049084 0.23693041503429413 -0.36102181673049927 223 97 99
-0.01678323745727539 0.22729304432868958 -0.3604004979133606 230 109 90
-0.050204142928123474 0.21819059550762177 -0.3544609546661377 232 112 89
-0.04889171943068504 0.2158585786819458 -0.3483653962612152 231 110 90
-0.07047110795974731 0.2090996652841568 -0.3448588252067566 224 100 97
-0.07363218814134598 0.21940483152866364 -0.354827880859375 197 64 125
-0.0754619762301445 0.19827601313591003 -0.3228195905685425 208 77 115
-0.06568863987922668 0.2196892648935318 -0.33848002552986145 215 86 108
-0.06958995014429092 0.21181130409240723 -0.3092804551124573 187 53 134
-0.07107626646757126 0.21619094908237457 -0.30206772685050964 190 56 131
-0.09818912297487259 0.21452270448207855 -0.3455851972103119 188 54 133
-0.13244009017944336 0.19947321712970734 -0.37398624420166016 186 52 135
-0.1666170209646225 0.183615043759346 -0.37376806139945984 229 108 91
-0.18024970591068268 0.1575252115726471 -0.3666518032550812 235 118 84
-0.17520898580551147 0.1272939145565033 -0.3131159543991089 234 116 85
-0.20847094058990479 0.13209055364131927 -0.29201096296310425 227 104 94
-0.23647594451904297 0.12356851249933243 -0.24885518848896027 231 110 90
-0.2397971749305725 0.12735995650291443 -0.20449291169643402 234 116 85
-0.19322873651981354 0.09358160942792892 -0.15888577699661255 237 123 81
-0.25526294112205505 0.09376685321331024 -0.11577297002077103 232 112 89
-0.2647324502468109 0.023504626005887985 -0.17152570188045502 223 98 98
-0.2545122504234314 0.008226470090448856 -0.14926861226558685 214 85 109
-0.2377147227525711 0.11844184994697571 -0.04548763111233711 217 89 105
-0.2665696442127228 0.09378970414400101 0.13119302690029144 238 124 80
-0.22193112969398499 0.027039285749197006 0.22664305567741394 224 100 97
-0.1397688388824463 0.0235561802983284 0.386413037776947 226 102 96
0.04866648092865944 -0.031418610364198685 0.5584874749183655 229 108 91
0.17971502244472504 -0.11045434325933456 0.5646713972091675 227 103 95
0.12125834077596664 -0.0875411182641983 0.516660213470459 226 102 96
0.010649817064404488 -0.11071185022592545 0.47424623370170593 209 78 114
0.029665682464838028 -0.11856198310852051 0.4165061116218567 222 96 100
-0.11984026432037354 -0.06528429687023163 0.1362687647342682 218 90 104
-0.3260034918785095 -0.11266328394412994 -0.04765763133764267 203 71 119
-0.5284759402275085 -0.13945171236991882 -0.06246137246489525 198 65 124
-0.49672257900238037 -0.16066181659698486 -0.05920640006661415 215 87 107
-0.4785321354866028 -0.09568191319704056 -0.03328023850917816 187 53 134
-0.35390329360961914 -0.036369048058986664 -0.038213565945625305 187 53 134
-0.4168042838573456 -0.0904788002371788 0.04089536517858505 185 51 136
-0.48722636699676514 -0.14422954618930817 0.04755432903766632 186 52 135
-0.5259888768196106 -0.08208586275577545 -0.034866150468587875 222 96 100
-0.40570497512817383 -0.06985010206699371 -0.08870387822389603 208 77 115
-0.3921825587749481 0.005104053299874067 -0.09372415393590927 205 73 117
-0.3832569718360901 -0.004109649918973446 -0.16313616931438446 193 60 128
-0.4715288579463959 -0.04511724412441254 -0.14608655869960785 193 60 128
-0.4921269118785858 -0.11483205854892731 -0.09522213041782379 197 64 125
-0.5536907911300659 -0.10202392190694809 -0.0376325286924839 199 66 123
-0.4528437852859497 -0.1262659728527069 -0.02587803080677986 201 69 121
-0.4342312216758728 -0.057234082370996475 -0.05078432336449623 202 70 120
-0.3405497372150421 -0.03777937591075897 -0.17323490977287292 204 72 118
-0.40905436873435974 -0.011752085760235786 -0.22083480656147003 204 72 118
-0.4460998475551605 -0.00411025807261467 -0.2400827407836914 202 70 120
-0.5120852589607239 -0.019914908334612846 -0.2340400665998459 198 65 124
-0.5819272994995117 -0.09052623808383942 -0.198187455534935 200 68 122
-0.5899152755737305 -0.11286663264036179 -0.2383836805820465 199 66 123
-0.5584924817085266 -0.10146082937717438 -0.28505903482437134 195 62 127
-0.5537015199661255 -0.05678259953856468 -0.26225796341896057 193 60 128
-0.5489300489425659 -0.047647085040807724 -0.2316371649503708 193 60 128
-0.524141252040863 -0.07897961884737015 -0.2060539275407791 194 61 128
-0.5032314658164978 -0.05024980381131172 -0.181818887591362 192 59 129
-0.4520179033279419 -0.018630461767315865 -0.21175728738307953 193 60 128
-0.4251645505428314 0.013109044171869755 -0.26144644618034363 193 60 128
-0.3892473578453064 0.004011434968560934 -0.3008389472961426 194 61 128
-0.3662359118461609 0.024806536734104156 -0.29593202471733093 195 62 127
-0.38534554839134216 0.03958502411842346 -0.26052480936050415 195 62 127
-0.449491411447525 0.020498264580965042 -0.2637169361114502 189 55 132
-0.503264307975769 -0.09020794183015823 -0.2521495223045349 177 43 143
-0.5506976246833801 -0.08256348222494125 -0.2168046534061432 176 42 143
-0.48634573817253113 -0.0873621329665184 -0.14252784848213196 168 34 150
-0.45595261454582214 -0.05863311141729355 -0.054853297770023346 167 33 151
-0.3371747136116028 -0.060602761805057526 -0.09124217182397842 165 31 151
-0.3308814465999603 -0.04075245186686516 -0.10529318451881409 164 30 152
-0.308653324842453 -0.01879815012216568 -0.08381074666976929 167 33 151
-0.29865798354148865 -0.050902582705020905 -0.0578790009021759 170 36 148
-0.2771066427230835 -0.052879318594932556 0.011679070070385933 174 39 145
-0.26762646436691284 -0.050623126327991486 0.04104072228074074 172 37 147
-0.21404314041137695 -0.0026782467029988766 0.060046762228012085 170 36 148
-0.26222190260887146 -0.010625088587403297 0.06284274160861969 181 46 140
-0.24554450809955597 -0.03906749188899994 0.037229690700769424 202 70 120
-0.3009853661060333 -0.017480354756116867 0.02274591661989689 196 63 126
-0.24263063073158264 -0.002906104316934943 0.08226244151592255 193 60 128
-0.16704770922660828 -0.038521524518728256 0.10103057324886322 197 64 125
-0.12375862896442413 -0.003251319518312812 0.07416831701993942 201 69 121
-0.10879229754209518 0.041532695293426514 0.09185488522052765 203 71 119
-0.038200292736291885 0.05851434916257858 0.09475930035114288 214 85 109
0.020073983818292618 0.09096705168485641 0.08719669282436371 215 86 108
0.053000807762145996 0.07817292213439941 0.14285938441753387 223 97 99
0.03466922417283058 0.0758947879076004 0.16529132425785065 228 106 93
0.023394139483571053 0.08176002651453018 0.11193671822547913 232 113 88
0.05933988466858864 0.1167682558298111 0.1227584183216095 235 118 84
0.14250457286834717 0.14163626730442047 0.16460762917995453 240 128 77
0.1802164614200592 0.16971932351589203 0.10910522937774658 215 87 107
0.1619962900876999 0.1881609857082367 0.04507424309849739 221 95 101
0.2001173049211502 0.1993216723203659 0.017800722271203995 227 104 94
0.1879139542579651 0.1911381483078003 -0.021580321714282036 243 134 73
0.1704920381307602 0.1493646502494812 -0.0545143224298954 239 125 79
0.05984606221318245 0.1456279456615448 -0.06386453658342361 244 137 71
0.07878000289201736 0.09279920905828476 -0.09984297305345535 230 109 90
-0.005501656327396631 0.04944346100091934 -0.07146480679512024 228 106 93
-0.087945356965065 0.00020300361211411655 -0.04248146340250969 229 108 91
-0.16857734322547913 -0.006541992072016001 -0.0038679656572639942 220 94 102
-0.1676909327507019 -0.04060973599553108 0.015836570411920547 239 125 79
-0.2120184600353241 -0.017433449625968933 0.03176218643784523 246 143 67
-0.20095805823802948 -0.04953642934560776 0.07124287635087967 223 97 99
-0.200313001871109 -0.034906432032585144 0.13510584831237793 243 134 73
-0.15950191020965576 -0.024210426956415176 0.17226652801036835 248 152 62
-0.11655013263225555 0.0004364278574939817 0.16354264318943024 253 176 48
-0.06111543998122215 -0.00641148816794157 0.11424797773361206 253 179 46
-0.0375211164355278 0.011833307333290577 0.08715298771858215 251 162 56
-0.10025166720151901 0.044054992496967316 0.0802602469921112 253 182 45
-0.09452696144580841 0.02670549973845482 0.12559521198272705 252 172 50
0.08695065230131149 0.01801728829741478 0.22738347947597504 249 154 60
0.24150504171848297 0.06456908583641052 0.369840145111084 253 179 46
0.4134485423564911 0.07187317311763763 0.42666372656822205 252 169 52
0.44242754578590393 0.0704539343714714 0.4663540720939636 253 188 42
0.46427056193351746 0.04502881318330765 0.48677411675453186 253 176 48
0.5217479467391968 0.051533207297325134 0.5635290741920471 253 188 42
0.5602257251739502 0.07808827608823776 0.5361353158950806 252 203 37
0.5886049866676331 0.046508755534887314 0.49512073397636414 251 208 36
0.6146042346954346 0.05726232752203941 0.44912856817245483 244 234 38
0.6415867805480957 0.08991709351539612 0.4143514037132263 242 240 38
0.6089125275611877 0.1267886906862259 0.43012699484825134 240 246 35
0.5800751447677612 0.10525832325220108 0.47072675824165344 245 231 38
0.594469428062439 0.10819157212972641 0.5175794959068298 244 234 38
0.6263265609741211 0.11132539808750153 0.5079934597015381 245 231 38
0.6621643900871277 0.1212710589170456 0.46570974588394165 248 223 36
0.6625514626502991 0.12021256983280182 0.4424651861190796 253 196 39
0.6993523240089417 0.11139672994613647 0.3974412977695465 253 193 40
0.7410915493965149 0.152262881398201 0.32957687973976135 251 164 54
0.7260053753852844 0.17590898275375366 0.2594110667705536 253 181 45
0.6729263663291931 0.16484437882900238 0.16228845715522766 252 169 52
0.6389838457107544 0.21833178400993347 0.14151111245155334 252 199 38
0.7006908059120178 0.22748057544231415 0.1898089349269867 253 175 49
0.7983380556106567 0.24641306698322296 0.22087635099887848 248 152 62
0.8201791048049927 0.23914414644241333 0.22151288390159607 253 179 46
0.8221215009689331 0.22056721150875092 0.2013799250125885 252 201 38
0.8103200793266296 0.2228434979915619 0.13717646896839142 250 159 58
0.7975918650627136 0.19092409312725067 0.12374770641326904 252 172 50
0.7519043684005737 0.16621467471122742 0.14913298189640045 252 170 51
0.6919623017311096 0.14085352420806885 0.12577097117900848 253 179 46
0.5968445539474487 0.10564541816711426 0.08972617983818054 253 196 39
0.5399776697158813 0.08526357263326645 0.08943118155002594 251 209 36
0.4726548194885254 0.07584166526794434 0.045108821243047714 253 195 40
0.4618675708770752 0.06876407563686371 0.024044374004006386 253 192 41
0.47708913683891296 0.08750079572200775 0.04347465932369232 250 214 36
0.4682252109050751 0.08252305537462234 0.07120560109615326 252 199 38
0.422798216342926 0.03466270491480827 0.08542347699403763 253 179 46
0.39186960458755493 0.04011072218418121 0.08161036670207977 252 170 51
0.37164855003356934 0.023868337273597717 0.09257181733846664 253 192 41
0.33388465642929077 0.019977271556854248 0.09357532858848572 253 182 45
0.3075870871543884 -0.015842504799365997 0.10197366774082184 242 133 74
0.26177912950515747 -0.031189776957035065 0.10910018533468246 243 134 73
0.2302776426076889 -0.03370538726449013 0.0891290083527565 248 152 62
0.20759281516075134 -0.04118478298187256 0.06655900925397873 249 154 60
0.1740114688873291 -0.04264660179615021 0.04002416878938675 250 156 59
0.1478414535522461 -0.0438082292675972 0.024783411994576454 251 162 56
0.1414671391248703 -0.04669351130723953 0.02199803665280342 244 138 71
0.1393786072731018 -0.037146568298339844 0.016660723835229874 244 137 71
0.13407589495182037 -0.044228289276361465 0.025185612961649895 242 133 74
0.1313360333442688 -0.03921334072947502 0.024821065366268158 243 135 72
0.1272273063659668 -0.0388677716255188 0.021843375638127327 244 138 71
0.13577961921691895 -0.0334056131541729 0.021731451153755188 249 154 60
0.15200331807136536 -0.028553372249007225 0.02581646852195263 248 152 62
0.15867829322814941 -0.023306379094719887 0.03503412753343582 252 204 37
0.16420814394950867 -0.024172894656658173 0.0450720451772213 12 7 134
0.17091988027095795 -0.029449695721268654 0.05011804774403572 247 226 37
0.1703025996685028 -0.03415335714817047 0.05455861613154411 19 6 137
0.18190932273864746 -0.0411553718149662 0.06020244210958481 19 6 137
0.19711627066135406 -0.02673019841313362 0.06337129324674606 29 6 141
0.2018837183713913 -0.03102889657020569 0.07620006799697876 31 5 142
0.2029048651456833 -0.02879028208553791 0.08298806846141815 43 5 148
0.21997737884521484 -0.03116024285554886 0.08704651892185211 49 4 150
0.23397190868854523 -0.02921229414641857 0.09238734096288681 240 245 37
0.2515304386615753 -0.02920343168079853 0.10801555961370468 240 245 37
0.2736024260520935 -0.02180432714521885 0.1126571074128151 247 224 36
0.29082873463630676 -0.02388639561831951 0.12657330930233002 59 3 154
0.30401843786239624 -0.022521348670125008 0.14263896644115448 244 234 38
0.3034041225910187 -0.028559071943163872 0.15649451315402985 243 236 38
0.3030528128147125 -0.022098856046795845 0.14804379642009735 253 188 42
0.2956148087978363 -0.019465958699584007 0.13985788822174072 253 192 41
0.289253294467926 -0.03930037468671799 0.15030783414840698 253 185 43
0.2718104124069214 -0.03473866358399391 0.15455125272274017 243 238 38
0.2668629586696625 -0.03101074881851673 0.15494391322135925 233 114 87
0.24513202905654907 -0.04018499329686165 0.16079600155353546 252 169 52
0.24105337262153625 -0.039573438465595245 0.1541403979063034 246 145 66
0.24197138845920563 -0.03631605952978134 0.13028132915496826 250 157 58
0.2747744023799896 -0.038943711668252945 0.10611836612224579 248 152 62
0.29499784111976624 -0.026070088148117065 0.1099570244550705 249 153 61
0.296553373336792 -0.031668342649936676 0.11593059450387955 248 150 63
0.29205015301704407 -0.03088274970650673 0.08827047049999237 246 145 66
0.2997680902481079 -0.022001445293426514 0.06569111347198486 245 139 70
0.30976933240890503 -0.019549869000911713 0.06774072349071503 241 130 76
0.34918561577796936 0.007319319993257523 0.044957466423511505 243 134 73
0.35416606068611145 0.028821589425206184 0.026963448151946068 246 143 67
0.3769381642341614 0.01551130972802639 0.04324284940958023 243 135 72
0.40645450353622437 0.052617114037275314 0.07308372855186462 233 114 87
0.3886929750442505 0.04722063988447189 0.0837605893611908 223 97 99
0.35473373532295227 0.02626781351864338 0.08356636017560959 219 91 103
0.3475218415260315 0.014303450472652912 0.10312774032354355 223 97 99
0.3264990746974945 0.004363122396171093 0.1092597246170044 226 102 96
0.3035401999950409 -0.002583990339189768 0.10954467207193375 233 114 87
0.2656131386756897 -0.026906168088316917 0.09386840462684631 236 119 84
0.2426542490720749 -0.030029261484742165 0.07450251281261444 242 133 74
0.2598895728588104 -0.03142090141773224 0.08502179384231567 244 137 71
0.2631143629550934 -0.03161841258406639 0.10171867907047272 207 75 116
0.2967028021812439 -0.03807502239942551 0.11346238851547241 209 78 114
0.3221968412399292 -0.010245488956570625 0.14073297381401062 208 77 115
0.3392395079135895 -0.0056661260314285755 0.17487439513206482 200 68 122
0.36144593358039856 -0.011724256910383701 0.1851206123828888 197 64 125
0.3483048975467682 -0.011904914863407612 0.19994395971298218 193 60 128
0.3272143602371216 -0.038060083985328674 0.20288951694965363 196 63 126
0.331268846988678 -0.02170422673225403 0.1790120005607605 194 61 128
0.32910284399986267 -0.05230347812175751 0.20864839851856232 195 62 127
0.31928884983062744 -0.051926251500844955 0.24746909737586975 183 48 138
0.3882335126399994 -0.034511253237724304 0.2896817922592163 188 54 133
0.40796491503715515 -0.005854918621480465 0.30438360571861267 189 55 132
0.42325159907341003 -0.04665179178118706 0.348434716463089 187 53 134
0.4184994697570801 -0.05210461840033531 0.37242594361305237 180 45 141
0.4483101963996887 -0.01714481972157955 0.35581645369529724 184 50 137
0.43311700224876404 -0.014351307414472103 0.36251312494277954 181 46 140
0.4185927212238312 -0.018826737999916077 0.36290645599365234 172 37 147
0.40507060289382935 -0.039767373353242874 0.35651978850364685 170 36 148
0.39136984944343567 -0.033438876271247864 0.3409983515739441 169 35 149
0.3774050772190094 -0.030523786321282387 0.3274669051170349 168 34 150
0.3865892291069031 -0.019980045035481453 0.31766319274902344 170 36 148
0.4100895822048187 0.0032389939296990633 0.2868783473968506 185 51 136
0.4370224177837372 0.03275090083479881 0.24395836889743805 202 70 120
0.49003955721855164 0.06753257662057877 0.22898995876312256 208 77 115
0.5237330198287964 0.07581272721290588 0.20139776170253754 223 97 99
0.5029351115226746 0.09157805889844894 0.1889539211988449 229 108 91
0.5165817141532898 0.08465716987848282 0.1888236701488495 236 120 83
0.5364131927490234 0.10241569578647614 0.16666744649410248 236 120 83
0.5199660658836365 0.11726325005292892 0.15000773966312408 248 152 62
0.5374939441680908 0.11478211730718613 0.14930328726768494 248 149 64
0.5380116701126099 0.11895942687988281 0.14726373553276062 246 145 66
0.5599139928817749 0.11564920097589493 0.16288615763187408 246 142 68
0.5824522376060486 0.13593755662441254 0.16214323043823242 246 145 66
0.5724017024040222 0.11486415565013885 0.20390933752059937 246 143 67
0.5862007141113281 0.10961201786994934 0.24043545126914978 246 143 67
0.5452234148979187 0.1065356507897377 0.2367398887872696 244 138 71
0.5327345728874207 0.0737304538488388 0.26685240864753723 245 139 70
0.4686567187309265 0.03765897825360298 0.3004085123538971 246 145 66
0.4396705627441406 0.008381887339055538 0.28299975395202637 225 101 96
0.3883446455001831 -0.015104496851563454 0.28039437532424927 253 184 44
0.3411816954612732 -0.04200911894440651 0.2831898033618927 251 209 36
0.2889818847179413 -0.06659654527902603 0.253879576921463 250 213 36
0.24060501158237457 -0.08734112977981567 0.21051909029483795 252 203 37
0.23532631993293762 -0.0914308950304985 0.18169525265693665 245 233 38
0.19840024411678314 -0.08277864009141922 0.16223075985908508 246 228 37
0.1693294197320938 -0.07382860034704208 0.13063906133174896 240 245 37
0.15622206032276154 -0.06330190598964691 0.08266499638557434 240 245 37
0.15479280054569244 -0.05219358205795288 0.044616006314754486 16 7 135
0.16249264776706696 -0.049504607915878296 0.03310943394899368 19 6 137
0.1681205779314041 -0.043135564774274826 0.04296610504388809 37 5 145
0.19095516204833984 -0.03017420507967472 0.04700246453285217 27 6 140
0.20092134177684784 -0.02506300061941147 0.04948769509792328 51 4 151
0.20788554847240448 -0.028772879391908646 0.049784641712903976 35 5 144
0.20872221887111664 -0.02832786925137043 0.04563671723008156 31 5 142
0.2067880779504776 -0.02769380994141102 0.03666490688920021 27 6 140
0.2211972028017044 -0.024880750104784966 0.018998611718416214 24 6 139
0.2441066950559616 -0.012393465265631676 0.009917141869664192 76 2 161
0.2624305784702301 -0.016071254387497902 0.0049530514515936375 79 2 162
0.25936809182167053 -0.0013304103631526232 0.007067456375807524 66 3 157
0.2557982802391052 -0.0004909159615635872 0.023512080311775208 81 1 162
0.22664578258991241 -0.019061289727687836 0.03210189938545227 82 1 163
0.16311058402061462 -0.025453822687268257 0.015138757415115833 87 1 164
0.1403745859861374 -0.02470664121210575 -0.026596440002322197 92 0 165
0.08535456657409668 -0.027201106771826744 -0.04842681065201759 92 0 165
0.04023042321205139 -0.06512097269296646 -0.05230075493454933 90 0 165
-0.025664323940873146 -0.07444825023412704 -0.0682125985622406 92 0 165
-0.04629460722208023 -0.08074940741062164 -0.07366933673620224 89 1 164
-0.0648694559931755 -0.09360720962285995 -0.08914018422365189 87 1 164
-0.08977549523115158 -0.10326579958200455 -0.11149495095014572 73 2 159
-0.12129774689674377 -0.10527502000331879 -0.13752153515815735 79 2 162
-0.1536581665277481 -0.0833362564444542 -0.16586120426654816 74 2 160
-0.20018258690834045 -0.10286206007003784 -0.17622405290603638 71 2 159
-0.221873477101326 -0.11165949702262878 -0.16805501282215118 76 2 161
-0.24669316411018372 -0.12036190181970596 -0.1547686904668808 73 2 159
-0.24595265090465546 -0.1342611163854599 -0.14545106887817383 63 3 156
-0.2572265565395355 -0.13936734199523926 -0.14096830785274506 31 5 142
-0.2623423933982849 -0.13223358988761902 -0.15490886569023132 43 5 148
-0.24349749088287354 -0.10730338841676712 -0.18971678614616394 241 243 38
-0.28081610798835754 -0.09988798201084137 -0.23016244173049927 21 6 138
-0.28899312019348145 -0.1004934012889862 -0.2408229261636734 43 5 148
-0.2930326759815216 -0.09501015394926071 -0.2375098466873169 51 4 151
-0.32764509320259094 -0.08804574608802795 -0.23158244788646698 51 4 151
-0.3593771159648895 -0.10819822549819946 -0.2106354683637619 37 5 145
-0.39482128620147705 -0.1275094896554947 -0.19942638278007507 41 5 147
-0.3855890929698944 -0.12519879639148712 -0.1727200150489807 54 4 152
-0.4176709055900574 -0.15325641632080078 -0.15231439471244812 43 5 148
-0.424470454454422 -0.12120767682790756 -0.20007072389125824 54 4 152
-0.45949316024780273 -0.12192537635564804 -0.26212114095687866 74 2 160
-0.46665579080581665 -0.1608654409646988 -0.27651873230934143 84 1 163
-0.4719596207141876 -0.11195838451385498 -0.30634230375289917 58 4 154
-0.4736078083515167 -0.10477906465530396 -0.3622293174266815 56 4 153
-0.4686857759952545 -0.09588197618722916 -0.3781377673149109 59 3 154
-0.4637279510498047 -0.10603813081979752 -0.3951665461063385 47 4 149
-0.4230804145336151 -0.09985782206058502 -0.3911484181880951 54 4 152
-0.41044747829437256 -0.09001118689775467 -0.39372724294662476 71 2 159
-0.395408034324646 -0.07872118800878525 -0.3976387083530426 71 2 159
-0.402164101600647 -0.0907232016324997 -0.3184497654438019 78 2 161
-0.38274258375167847 -0.1362936645746231 -0.22888654470443726 74 2 160
-0.3960060775279999 -0.1234690397977829 -0.22535431385040283 73 2 159
-0.3730502426624298 -0.13422152400016785 -0.23022012412548065 78 2 161
-0.3794785439968109 -0.11089982092380524 -0.26224786043167114 82 1 163
-0.38334521651268005 -0.10865622758865356 -0.2873910665512085 79 2 162
