ply
format ascii 1.0
element vertex 709
property float x
property float y
property float z
property uchar red
property uchar green
property uchar blue
end_header
-0.14580576121807098 -0.9857826232910156 -0.08350706845521927 0 0 255
-0.07836715131998062 -0.9966240525245667 -0.024474164471030235 0 0 255
-0.049775030463933945 -0.998722493648529 -0.008712677285075188 0 0 255
0.0010260601993650198 -0.9999937415122986 0.003373375628143549 0 0 255
-0.024381542578339577 -0.9996358752250671 0.011557288467884064 0 0 255
-0.044619329273700714 -0.9988662600517273 -0.016590507701039314 0 0 255
-0.02964070439338684 -0.9995198249816895 0.009028911590576172 0 0 255
-0.11184357851743698 -0.9936609864234924 0.011344357393682003 0 0 255
-0.14776022732257843 -0.9889944791793823 0.007539636921137571 0 0 255
-0.12595684826374054 -0.9920114278793335 0.006936126854270697 0 0 255
-0.045326072722673416 -0.9982640743255615 0.037607330828905106 0 0 255
-0.038976166397333145 -0.9991621971130371 0.012482588179409504 0 0 255
-0.0671006366610527 -0.9977083802223206 -0.008684046566486359 0 0 255
-0.0923723429441452 -0.9951878190040588 -0.03268976882100105 0 0 255
-0.09955783188343048 -0.9939042925834656 -0.047354985028505325 0 0 255
-0.10427263379096985 -0.994183361530304 -0.02695588394999504 0 0 255
-0.07488556206226349 -0.9970842599868774 0.014670602045953274 0 0 255
-0.15596945583820343 -0.9873153567314148 0.029698790982365608 0 0 255
-0.22920511662960052 -0.9725093841552734 0.04111601784825325 0 0 255
-0.314758837223053 -0.94572913646698 0.08076644688844681 0 0 255
-0.3844285309314728 -0.9165835976600647 0.10995074361562729 0 0 255
-0.4477202892303467 -0.8770945072174072 0.17393046617507935 0 0 255
-0.48409613966941833 -0.8578829169273376 0.1723015159368515 0 0 255
-0.4329855740070343 -0.8903555870056152 0.14067837595939636 0 0 255
-0.3004084527492523 -0.9097370505332947 0.2865888774394989 0 0 255
-0.21881996095180511 -0.9090537428855896 0.3545971214771271 0 0 255
-0.32055556774139404 -0.9129367470741272 0.25256815552711487 0 0 255
-0.04004873335361481 -0.9719901084899902 0.2315846085548401 0 0 255
0.0763484388589859 -0.9762730002403259 0.20263724029064178 0 0 255
0.16346974670886993 -0.9735769033432007 0.159454345703125 0 0 255
0.22080540657043457 -0.9669588804244995 0.12741854786872864 0 0 255
0.2466718554496765 -0.959934413433075 0.13296236097812653 0 0 255
0.25234705209732056 -0.9593820571899414 0.12612339854240417 0 0 255
0.2566413879394531 -0.9601982831954956 0.11024649441242218 0 0 255
0.258257657289505 -0.956733226776123 0.1340319961309433 0 0 255
0.22853028774261475 -0.9645949602127075 0.1316455602645874 0 0 255
0.203027606010437 -0.9693199992179871 0.1385592520236969 0 0 255
0.18134529888629913 -0.9793358445167542 0.08952734619379044 0 0 255
0.19423846900463104 -0.9744137525558472 0.11308977007865906 0 0 255
0.19432075321674347 -0.967377245426178 0.16254401206970215 0 0 255
0.15522491931915283 -0.966693639755249 0.2034912109375 0 0 255
0.14387176930904388 -0.9763239622116089 0.16153180599212646 0 0 255
0.13248752057552338 -0.9783983826637268 0.15869350731372833 0 0 255
0.15058186650276184 -0.9779421091079712 0.14475548267364502 0 0 255
0.18466641008853912 -0.9701658487319946 0.15708765387535095 0 0 255
0.16596923768520355 -0.9732488393783569 0.1588740199804306 0 0 255
0.16138236224651337 -0.9771473407745361 0.13834291696548462 0 0 255
0.16860105097293854 -0.9762353301048279 0.1361558884382248 0 0 255
0.16298405826091766 -0.9751273393630981 0.1502091884613037 0 0 255
0.1873830258846283 -0.9712284803390503 0.14697878062725067 0 0 255
0.2436179667711258 -0.963940441608429 0.1070939376950264 0 0 255
0.1987839937210083 -0.9741683602333069 0.10714950412511826 0 0 255
0.24312476813793182 -0.9661174416542053 0.0866461917757988 0 0 255
0.17482340335845947 -0.9831532835960388 0.053351785987615585 0 0 255
0.13103631138801575 -0.9866596460342407 0.09660332649946213 0 0 255
-0.020437711849808693 -0.9953553676605225 0.09407506138086319 0 0 255
-0.08635176718235016 -0.995419979095459 0.04101730138063431 0 0 255
-0.15504449605941772 -0.9805743098258972 0.1201472207903862 0 0 255
-0.20129026472568512 -0.9742920994758606 0.10117855668067932 0 0 255
-0.3386463522911072 -0.9390610456466675 -0.059017300605773926 0 0 255
-0.4810226559638977 -0.8590670228004456 -0.1749887317419052 0 0 255
-0.45803603529930115 -0.8613097071647644 -0.21988287568092346 0 0 255
-0.5930312871932983 -0.7598671317100525 -0.2663000822067261 0 0 255
-0.8512251973152161 -0.47725796699523926 -0.21826709806919098 0 0 255
-0.9649612903594971 -0.21782836318016052 -0.1462891548871994 0 0 255
-0.979343056678772 -0.18053953349590302 0.0910634770989418 0 0 255
-0.9928736686706543 0.032497480511665344 0.11465554684400558 0 0 255
-0.9952449202537537 0.024454103782773018 0.09428369998931885 0 0 255
-0.9850768446922302 0.1699126958847046 0.027447888627648354 0 0 255
-0.9876092076301575 0.10836659371852875 0.1135108694434166 0 0 255
-0.9856165647506714 0.13173340260982513 0.1058601588010788 0 0 255
-0.966670572757721 0.18916401267051697 0.1725253313779831 0 0 255
-0.9057556390762329 0.4002634286880493 0.13926906883716583 0 0 255
-0.785988450050354 0.5801793932914734 0.21357400715351105 0 0 255
-0.32306969165802 0.9427498579025269 0.08275699615478516 0 0 255
-0.16585713624954224 0.9823978543281555 -0.0859408900141716 0 0 255
-0.31165578961372375 0.9499320983886719 0.022352207452058792 0 0 255
-0.4218915104866028 0.905938982963562 0.035806890577077866 0 0 255
-0.4411933124065399 0.8956393599510193 0.0563797652721405 0 0 255
-0.5340641736984253 0.8321635127067566 0.14926230907440186 0 0 255
-0.5640056729316711 0.8063017129898071 0.1782558113336563 0 0 255
-0.706966757774353 0.6382989883422852 0.30458566546440125 0 0 255
-0.7515408396720886 0.6035849452018738 0.26621726155281067 0 0 255
-0.7287563681602478 0.6090481281280518 0.3130088448524475 0 0 255
-0.7539410591125488 0.604816734790802 0.25645601749420166 0 0 255
-0.7772036790847778 0.5569127202033997 0.2929207980632782 0 0 255
-0.7729739546775818 0.5785949230194092 0.26026731729507446 0 0 255
-0.7473310232162476 0.624255359172821 0.22759965062141418 0 0 255
-0.7486748099327087 0.6252902746200562 0.22022251784801483 0 0 255
-0.734526515007019 0.6529466509819031 0.18474681675434113 0 0 255
-0.7215187549591064 0.6751742362976074 0.15346144139766693 0 0 255
-0.7479866147041321 0.6506779193878174 0.13089792430400848 0 0 255
-0.7220524549484253 0.6819619536399841 0.1164826974272728 0 0 255
-0.6715989708900452 0.7344784140586853 0.09744826704263687 0 0 255
-0.6778853535652161 0.7224550247192383 0.13612531125545502 0 0 255
-0.6675353646278381 0.7344333529472351 0.12249141186475754 0 0 255
-0.6699885725975037 0.7285691499710083 0.14248573780059814 0 0 255
-0.6943336129188538 0.7087518572807312 0.12478581815958023 0 0 255
-0.7050452828407288 0.7008959650993347 0.10796269029378891 0 0 255
-0.7225757241249084 0.6806166172027588 0.12101767212152481 0 0 255
-0.7208748459815979 0.6797576546669006 0.13516274094581604 0 0 255
-0.7153407335281372 0.6888560652732849 0.1173241063952446 0 0 255
-0.7166957855224609 0.6857677102088928 0.12676705420017242 0 0 255
-0.7043476700782776 0.7013055086135864 0.10984101891517639 0 0 255
-0.6908517479896545 0.7194600105285645 0.07142186909914017 0 0 255
-0.6700357794761658 0.7392751574516296 0.06726348400115967 0 0 255
-0.6628856658935547 0.7448635101318359 0.07590147107839584 0 0 255
-0.6734954118728638 0.7374145984649658 0.05122094601392746 0 0 255
-0.6820632219314575 0.7299817800521851 0.04377641901373863 0 0 255
-0.6870917677879333 0.7237737774848938 0.06368951499462128 0 0 255
-0.6870346665382385 0.7252779006958008 0.04421989247202873 0 0 255
-0.6902320981025696 0.7210270166397095 0.06082548201084137 0 0 255
-0.6921071410179138 0.7184461951255798 0.0694461241364479 0 0 255
-0.695729672908783 0.715812087059021 0.05977694317698479 0 0 255
-0.6940415501594543 0.7173914909362793 0.06046346202492714 0 0 255
-0.70846027135849 0.7038328647613525 0.0519920252263546 0 0 255
-0.7205492258071899 0.6909680962562561 0.05806856229901314 0 0 255
-0.7363978624343872 0.6710790395736694 0.08585542440414429 0 0 255
-0.7318991422653198 0.6740795969963074 0.09970107674598694 0 0 255
-0.7492718696594238 0.6557825803756714 0.09241720288991928 0 0 255
-0.7590951323509216 0.6372900009155273 0.13280050456523895 0 0 255
-0.7624636888504028 0.6293551921844482 0.15020377933979034 0 0 255
-0.7704324126243591 0.6164261102676392 0.16264264285564423 0 0 255
-0.796153724193573 0.5759302973747253 0.18558970093727112 0 0 255
-0.805560827255249 0.549976646900177 0.22044827044010162 0 0 255
-0.8324066996574402 0.5121476650238037 0.21166934072971344 0 0 255
-0.8539217710494995 0.47714176774024963 0.20773395895957947 0 0 255
-0.8638456463813782 0.45697033405303955 0.21201129257678986 0 0 255
-0.878952145576477 0.4322192072868347 0.20156805217266083 0 0 255
-0.8850231170654297 0.41478830575942993 0.21138733625411987 0 0 255
-0.8843168020248413 0.42191237211227417 0.19993412494659424 0 0 255
-0.9121233224868774 0.3760063052177429 0.16324922442436218 0 0 255
-0.9188706874847412 0.3609086573123932 0.159441277384758 0 0 255
-0.9356275796890259 0.28700903058052063 0.20549196004867554 0 0 255
-0.9571664333343506 0.19102999567985535 0.21757739782333374 0 0 255
-0.9535747766494751 0.21379773318767548 0.21209821105003357 0 0 255
-0.9604735970497131 0.1945016235113144 0.199147030711174 0 0 255
-0.9662104845046997 0.200028657913208 0.16255995631217957 0 0 255
-0.9451269507408142 0.28431662917137146 0.1609322875738144 0 0 255
-0.9405864477157593 0.2820661962032318 0.1890389323234558 0 0 255
-0.9523207545280457 0.25545546412467957 0.16681642830371857 0 0 255
-0.9490793347358704 0.27712899446487427 0.14982657134532928 0 0 255
-0.9573477506637573 0.2523396611213684 0.1407480239868164 0 0 255
-0.9658756256103516 0.2317194938659668 0.11571677029132843 0 0 255
-0.9592050313949585 0.2557533085346222 0.12048213928937912 0 0 255
-0.9623094201087952 0.24861197173595428 0.11023923754692078 0 0 255
-0.9666556119918823 0.2409602254629135 0.08669007569551468 0 0 255
-0.9614508748054504 0.2614811956882477 0.0850878655910492 0 0 255
-0.951772153377533 0.29720085859298706 0.07616705447435379 0 0 255
-0.9361350536346436 0.34890249371528625 0.043797578662633896 0 0 255
-0.9441847801208496 0.3248733580112457 0.05452019348740578 0 0 255
-0.9585191011428833 0.27366334199905396 0.07968353480100632 0 0 255
-0.9685415029525757 0.23322078585624695 0.08680641651153564 0 0 255
-0.9791886210441589 0.18679748475551605 0.07934955507516861 0 0 255
-0.9866959452629089 0.15254347026348114 0.0562279112637043 0 0 255
-0.9767302870750427 0.07244820147752762 0.2018643319606781 0 0 255
-0.9728369116783142 0.14544740319252014 0.1800927221775055 0 0 255
-0.9495920538902283 0.26066869497299194 0.17414578795433044 0 0 255
-0.9257937669754028 0.3374529778957367 0.17038580775260925 0 0 255
-0.9443570971488953 0.2814474105834961 0.17022588849067688 0 0 255
-0.8823347687721252 0.44866064190864563 0.14208829402923584 0 0 255
-0.8073371648788452 0.5446038246154785 0.22718596458435059 0 0 255
-0.5372117161750793 0.8334879875183105 0.129233717918396 0 0 255
-0.4981027841567993 0.7918359637260437 0.35339704155921936 0 0 255
-0.5419566035270691 0.7695217728614807 0.3378154933452606 0 0 255
0.20083867013454437 0.9509355425834656 -0.23534107208251953 0 0 255
0.36890214681625366 0.4577251970767975 -0.8089492321014404 0 0 255
-0.8508111238479614 0.44894102215766907 -0.2730792760848999 0 0 255
0.5920639634132385 0.7084314823150635 -0.38416799902915955 0 0 255
0.9773967266082764 -0.15639755129814148 0.1422511488199234 0 0 255
0.8190341591835022 -0.529549241065979 0.22081854939460754 0 0 255
0.7054442167282104 -0.7056010961532593 0.06689944118261337 0 0 255
0.49790245294570923 -0.8642569184303284 0.07178446650505066 0 0 255
0.14479616284370422 -0.9606225490570068 0.23714619874954224 0 0 255
0.13509318232536316 -0.9854440093040466 0.10319790244102478 0 0 255
0.18250054121017456 -0.9502525925636292 0.25241541862487793 0 0 255
0.12409494817256927 -0.8844524025917053 0.44982701539993286 0 0 255
0.1795424520969391 -0.8434972763061523 0.5062379240989685 0 0 255
0.20204198360443115 -0.8442898988723755 0.496340274810791 0 0 255
0.20841749012470245 -0.8492128849029541 0.4851800501346588 0 0 255
0.24702854454517365 -0.8452996611595154 0.4737566411495209 0 0 255
0.2277086079120636 -0.8469746708869934 0.4803985357284546 0 0 255
0.20338879525661469 -0.8463583588600159 0.4922505021095276 0 0 255
0.22207902371883392 -0.8212321996688843 0.525603175163269 0 0 255
0.22973623871803284 -0.7963848114013672 0.5594572424888611 0 0 255
0.16437126696109772 -0.8319201469421387 0.5299913883209229 0 0 255
0.07707466185092926 -0.8345736861228943 0.5454779267311096 0 0 255
0.02636396884918213 -0.8224169611930847 0.5682739615440369 0 0 255
0.07659317553043365 -0.8134287595748901 0.5765995979309082 0 0 255
0.06266845017671585 -0.8221509456634521 0.5658095479011536 0 0 255
0.11696980148553848 -0.8650128245353699 0.48792508244514465 0 0 255
0.13385798037052155 -0.8546828031539917 0.5015968084335327 0 0 255
0.1564185917377472 -0.8130926489830017 0.5607260465621948 0 0 255
-0.012498872354626656 -0.9188866019248962 0.3943237364292145 0 0 255
-0.06067772954702377 -0.9062752723693848 0.4183100163936615 0 0 255
-0.015382274985313416 -0.9177272319793701 0.3969132602214813 0 0 255
-0.055763475596904755 -0.9122301936149597 0.4058651328086853 0 0 255
-0.021632274612784386 -0.917384684085846 0.39741337299346924 0 0 255
0.014415978454053402 -0.9203221797943115 0.3908954858779907 0 0 255
0.013762237504124641 -0.9272664785385132 0.374148964881897 0 0 255
0.03561822697520256 -0.9353445172309875 0.351940393447876 0 0 255
0.017309758812189102 -0.9493359327316284 0.3137860596179962 0 0 255
0.0005618711584247649 -0.9571373462677002 0.2896338999271393 0 0 255
0.01566077582538128 -0.9617547392845154 0.2734638750553131 0 0 255
0.03764907270669937 -0.9659654498100281 0.2559167444705963 0 0 255
0.13855059444904327 -0.9607573747634888 0.24031001329421997 0 0 255
0.06791508197784424 -0.9695221185684204 0.2354026436805725 0 0 255
0.1026773527264595 -0.9774128794670105 0.18471971154212952 0 0 255
0.1678626537322998 -0.9668388366699219 0.19247017800807953 0 0 255
0.1375056356191635 -0.9773622751235962 0.1607951819896698 0 0 255
0.10975595563650131 -0.9846673607826233 0.1355866938829422 0 0 255
0.1124168410897255 -0.9858806133270264 0.12410374730825424 0 0 255
0.0814640000462532 -0.9916404485702515 0.10006367415189743 0 0 255
0.06915751844644547 -0.9943338632583618 0.08072961121797562 0 0 255
0.05062767118215561 -0.9951755404472351 0.08403825014829636 0 0 255
0.11949357390403748 -0.9883933663368225 0.09380748122930527 0 0 255
0.18224593997001648 -0.9760915040969849 0.1184561550617218 0 0 255
0.1731661558151245 -0.974600613117218 0.14201100170612335 0 0 255
0.2706737816333771 -0.9537404179573059 0.13082444667816162 0 0 255
0.3013227880001068 -0.9326426386833191 0.19844980537891388 0 0 255
0.37796810269355774 -0.8939492106437683 0.24082139134407043 0 0 255
0.40566447377204895 -0.866538405418396 0.2907704710960388 0 0 255
0.448936402797699 -0.836796760559082 0.31341227889060974 0 0 255
0.4382512867450714 -0.8468747735023499 0.30122894048690796 0 0 255
0.44516655802726746 -0.8413020372390747 0.3066554367542267 0 0 255
0.35583317279815674 -0.882687509059906 0.3069942593574524 0 0 255
0.29137328267097473 -0.910687267780304 0.29283151030540466 0 0 255
0.2772963047027588 -0.904973030090332 0.3226926922798157 0 0 255
0.31684598326683044 -0.8874409198760986 0.3347494602203369 0 0 255
0.22269175946712494 -0.741339921951294 0.6331062316894531 0 0 255
-0.1891365647315979 -0.8638982176780701 0.46680524945259094 0 0 255
-0.4208832383155823 -0.8557003736495972 0.30105501413345337 0 0 255
-0.25830578804016113 -0.7617394328117371 0.5941643118858337 0 0 255
-0.5344343781471252 -0.7440555095672607 0.40095055103302 0 0 255
-0.6213934421539307 -0.6390021443367004 0.45337238907814026 0 0 255
-0.5840061902999878 -0.6232192516326904 0.5201292634010315 0 0 255
-0.5903178453445435 -0.6154547333717346 0.522245466709137 0 0 255
-0.5640060305595398 -0.6528457403182983 0.5056576132774353 0 0 255
-0.5280548334121704 -0.669276237487793 0.5227115750312805 0 0 255
-0.5179383754730225 -0.6832775473594666 0.5146569013595581 0 0 255
-0.5072098970413208 -0.6907718181610107 0.5153372883796692 0 0 255
-0.49954959750175476 -0.6716167330741882 0.547157347202301 0 0 255
-0.48871567845344543 -0.683566689491272 0.5421195030212402 0 0 255
-0.494373083114624 -0.6641924977302551 0.5607527494430542 0 0 255
-0.4693671762943268 -0.6714149713516235 0.5734948515892029 0 0 255
-0.49343928694725037 -0.6400024890899658 0.5889943838119507 0 0 255
-0.48019611835479736 -0.6407738924026489 0.5990162491798401 0 0 255
-0.4919474124908447 -0.6365084052085876 0.5940073728561401 0 0 255
-0.4952518045902252 -0.625983715057373 0.602387011051178 0 0 255
-0.5000371932983398 -0.6121317744255066 0.6125826239585876 0 0 255
-0.5159719586372375 -0.6056029796600342 0.6058200597763062 0 0 255
-0.49748659133911133 -0.6266064643859863 0.5998928546905518 0 0 255
-0.43628963828086853 -0.6611160635948181 0.6103906631469727 0 0 255
-0.41077134013175964 -0.6839032769203186 0.6029454469680786 0 0 255
-0.3940347135066986 -0.6919723749160767 0.6049056649208069 0 0 255
-0.4221365451812744 -0.6923885941505432 0.5851485133171082 0 0 255
-0.469007670879364 -0.6670815348625183 0.5788212418556213 0 0 255
-0.4906049370765686 -0.6319910287857056 0.5999118089675903 0 0 255
-0.48733028769493103 -0.5981082320213318 0.6362199187278748 0 0 255
-0.5106091499328613 -0.5827360153198242 0.6322159767150879 0 0 255
-0.5038511157035828 -0.5802269577980042 0.6398990750312805 0 0 255
-0.5321505665779114 -0.5453640222549438 0.6476062536239624 0 0 255
-0.5623258948326111 -0.5076489448547363 0.6527496576309204 0 0 255
-0.5744858980178833 -0.4913567900657654 0.6546254754066467 0 0 255
-0.6152905225753784 -0.44994890689849854 0.64727383852005 0 0 255
-0.6311668157577515 -0.4330228567123413 0.6435213685035706 0 0 255
-0.6199825406074524 -0.4433005154132843 0.6473842859268188 0 0 255
-0.6275285482406616 -0.426696240901947 0.6512588858604431 0 0 255
-0.6427069306373596 -0.4235074818134308 0.6384115219116211 0 0 255
-0.6315879821777344 -0.4453684985637665 0.6346207857131958 0 0 255
-0.6053495407104492 -0.46534180641174316 0.6457622647285461 0 0 255
-0.5912420153617859 -0.474265456199646 0.6523075699806213 0 0 255
-0.5842030644416809 -0.505145251750946 0.6352440714836121 0 0 255
-0.5857834219932556 -0.5239971876144409 0.6182918548583984 0 0 255
-0.578197717666626 -0.5378544330596924 0.6135144233703613 0 0 255
-0.5804315805435181 -0.5432078242301941 0.6066502332687378 0 0 255
-0.5678629875183105 -0.5719924569129944 0.5919089913368225 0 0 255
-0.564154326915741 -0.5782948136329651 0.5893259644508362 0 0 255
-0.5701469779014587 -0.5624386072158813 0.5988281965255737 0 0 255
-0.5836905241012573 -0.5552138686180115 0.5924888253211975 0 0 255
-0.612730085849762 -0.5436862111091614 0.573556661605835 0 0 255
-0.6224331259727478 -0.5383365750312805 0.5681292414665222 0 0 255
-0.636911153793335 -0.5132318139076233 0.5752716064453125 0 0 255
-0.6463090181350708 -0.4844595193862915 0.5895622372627258 0 0 255
-0.6589111685752869 -0.46444395184516907 0.5917160511016846 0 0 255
-0.6494397521018982 -0.4577753245830536 0.6071818470954895 0 0 255
-0.6459947228431702 -0.4534999132156372 0.6140265464782715 0 0 255
-0.6587476134300232 -0.4259355366230011 0.620185911655426 0 0 255
-0.6695517301559448 -0.3874377906322479 0.6337132453918457 0 0 255
-0.6843156814575195 -0.35646581649780273 0.6361163854598999 0 0 255
-0.695472240447998 -0.33559858798980713 0.6353676915168762 0 0 255
-0.6933614611625671 -0.3429374098777771 0.633753776550293 0 0 255
-0.6833818554878235 -0.3464033305644989 0.6426459550857544 0 0 255
-0.6892537474632263 -0.33065247535705566 0.644669234752655 0 0 255
-0.6999827027320862 -0.3081280291080475 0.6442681550979614 0 0 255
-0.710379421710968 -0.29125693440437317 0.6407265067100525 0 0 255
-0.7083958983421326 -0.27180981636047363 0.6513789892196655 0 0 255
-0.711821973323822 -0.2513103783130646 0.6558600664138794 0 0 255
-0.7163172364234924 -0.24439585208892822 0.65357506275177 0 0 255
-0.7117856740951538 -0.23855926096439362 0.660643994808197 0 0 255
-0.7177250981330872 -0.2473534345626831 0.650912344455719 0 0 255
-0.7185642719268799 -0.2428903579711914 0.6516667604446411 0 0 255
-0.7181034088134766 -0.21748234331607819 0.6610817313194275 0 0 255
-0.7036999464035034 -0.1865183264017105 0.6855779886245728 0 0 255
-0.7197809815406799 -0.15859512984752655 0.6758423447608948 0 0 255
-0.7435940504074097 -0.163809135556221 0.648254930973053 0 0 255
-0.7491617202758789 -0.14274249970912933 0.6468239426612854 0 0 255
-0.745079517364502 -0.12987717986106873 0.6542081832885742 0 0 255
-0.7403990626335144 -0.12737508118152618 0.659988522529602 0 0 255
-0.7468364834785461 -0.11470788717269897 0.6550399661064148 0 0 255
-0.7496592998504639 -0.12187506258487701 0.650505542755127 0 0 255
-0.7539195418357849 -0.0993332713842392 0.6494137644767761 0 0 255
-0.7487034797668457 -0.10704293847084045 0.6542055606842041 0 0 255
-0.7478033304214478 -0.12720751762390137 0.6516199111938477 0 0 255
-0.742776095867157 -0.16124814748764038 0.6498327255249023 0 0 255
-0.7379493117332458 -0.17988614737987518 0.6504397392272949 0 0 255
-0.7475889921188354 -0.17788375914096832 0.6398968696594238 0 0 255
-0.7493647933006287 -0.18221251666545868 0.6365933418273926 0 0 255
-0.7615994811058044 -0.15688177943229675 0.6287721395492554 0 0 255
-0.7577710747718811 -0.15305781364440918 0.6343157291412354 0 0 255
-0.739622175693512 -0.16153939068317413 0.6533483862876892 0 0 255
-0.7522701621055603 -0.13430099189281464 0.6450215578079224 0 0 255
-0.7493709921836853 -0.146974116563797 0.6456327438354492 0 0 255
-0.7408987879753113 -0.14499236643314362 0.6557791233062744 0 0 255
-0.7441193461418152 -0.1503516286611557 0.6509076356887817 0 0 255
-0.7348136901855469 -0.14793585240840912 0.6619395017623901 0 0 255
-0.7301020622253418 -0.14449627697467804 0.6678861379623413 0 0 255
-0.7333499193191528 -0.1558302938938141 0.6617512702941895 0 0 255
-0.7219289541244507 -0.15571732819080353 0.6742185950279236 0 0 255
-0.7324517965316772 -0.13536937534809113 0.6672253012657166 0 0 255
-0.7253220081329346 -0.1247103363275528 0.6770193576812744 0 0 255
-0.7179292440414429 -0.12078506499528885 0.6855570673942566 0 0 255
-0.7184315919876099 -0.11685707420110703 0.685711681842804 0 0 255
-0.7180009484291077 -0.0934087485074997 0.6897458434104919 0 0 255
-0.7034884095191956 -0.10166990011930466 0.7033969759941101 0 0 255
-0.7060561776161194 -0.11084380000829697 0.6994271278381348 0 0 255
-0.6947548389434814 -0.13129746913909912 0.7071610689163208 0 0 255
-0.7012302875518799 -0.1307985931634903 0.7008337378501892 0 0 255
-0.69113689661026 -0.16490009427070618 0.7036601901054382 0 0 255
-0.6586229801177979 -0.21851272881031036 0.7200472354888916 0 0 255
-0.6511528491973877 -0.2470492571592331 0.7176117300987244 0 0 255
-0.657767653465271 -0.2784969210624695 0.6998436450958252 0 0 255
-0.6376230120658875 -0.32448238134384155 0.6986759305000305 0 0 255
-0.6501513123512268 -0.32661354541778564 0.6860224604606628 0 0 255
-0.6475316882133484 -0.34347832202911377 0.680239200592041 0 0 255
-0.6591920256614685 -0.34426775574684143 0.6685398817062378 0 0 255
-0.6420994400978088 -0.3570692837238312 0.6783876419067383 0 0 255
-0.650586724281311 -0.36010292172431946 0.6686275005340576 0 0 255
-0.6458104252815247 -0.3832610249519348 0.6603332161903381 0 0 255
-0.635470986366272 -0.43308478593826294 0.639229416847229 0 0 255
-0.618914783000946 -0.4632193148136139 0.634328305721283 0 0 255
-0.6314774751663208 -0.47859737277030945 0.6100661158561707 0 0 255
-0.6480433940887451 -0.4719845652580261 0.5977208614349365 0 0 255
-0.6556732058525085 -0.4513567388057709 0.6052848100662231 0 0 255
-0.6757715940475464 -0.44090917706489563 0.5907045602798462 0 0 255
-0.6624137759208679 -0.46586284041404724 0.5866683721542358 0 0 255
-0.6519246101379395 -0.484483003616333 0.5833271145820618 0 0 255
-0.643750011920929 -0.48247256875038147 0.5939748883247375 0 0 255
-0.624675989151001 -0.49278169870376587 0.6057608127593994 0 0 255
-0.6274434924125671 -0.49849194288253784 0.598180890083313 0 0 255
-0.6183427572250366 -0.4990747272968292 0.6071051359176636 0 0 255
-0.6278655529022217 -0.5069106817245483 0.5906152725219727 0 0 255
-0.5944260954856873 -0.5443055629730225 0.5919367074966431 0 0 255
-0.594960629940033 -0.5412448048591614 0.5942019820213318 0 0 255
-0.5965476036071777 -0.5418351888656616 0.5920689702033997 0 0 255
-0.5890647172927856 -0.5542097687721252 0.5880938172340393 0 0 255
-0.5749994516372681 -0.5763223171234131 0.5807135701179504 0 0 255
-0.5309452414512634 -0.6061000823974609 0.5922329425811768 0 0 255
-0.5076528191566467 -0.65743088722229 0.5568421483039856 0 0 255
-0.5119656324386597 -0.6864748597145081 0.5163753628730774 0 0 255
-0.4989006221294403 -0.6929993629455566 0.5204325914382935 0 0 255
-0.46474701166152954 -0.6913999915122986 0.5531512498855591 0 0 255
-0.4222218990325928 -0.7189140915870667 0.5521695613861084 0 0 255
-0.37317317724227905 -0.7659862637519836 0.5234565734863281 0 0 255
-0.3495177626609802 -0.7981587648391724 0.49069342017173767 0 0 255
-0.3773326575756073 -0.7808235883712769 0.4979303479194641 0 0 255
-0.3766114413738251 -0.7738144397735596 0.5092887282371521 0 0 255
-0.38969630002975464 -0.7687459588050842 0.5071157217025757 0 0 255
-0.38978615403175354 -0.7767780423164368 0.4946540296077728 0 0 255
-0.36589065194129944 -0.8154650926589966 0.44848722219467163 0 0 255
-0.35794559121131897 -0.8280206918716431 0.4315745532512665 0 0 255
-0.36373239755630493 -0.8174998164176941 0.44653424620628357 0 0 255
-0.40745386481285095 -0.7867001295089722 0.4637717604637146 0 0 255
-0.43316206336021423 -0.7575499415397644 0.48835307359695435 0 0 255
-0.49901753664016724 -0.7244622111320496 0.47553756833076477 0 0 255
-0.5017699003219604 -0.736592710018158 0.4534953534603119 0 0 255
-0.49929383397102356 -0.7311240434646606 0.4649335741996765 0 0 255
-0.5059125423431396 -0.7173642516136169 0.4790000915527344 0 0 255
-0.49202972650527954 -0.7341824769973755 0.4678490459918976 0 0 255
-0.5027607083320618 -0.7452115416526794 0.4380541145801544 0 0 255
-0.4612398147583008 -0.7685202360153198 0.44343504309654236 0 0 255
-0.4797516167163849 -0.7459203600883484 0.4619969129562378 0 0 255
-0.4197691082954407 -0.756462574005127 0.501555860042572 0 0 255
-0.37784385681152344 -0.814547598361969 0.4401662051677704 0 0 255
-0.4072781503200531 -0.818840742111206 0.40450504422187805 0 0 255
-0.44845515489578247 -0.8076682686805725 0.38283151388168335 0 0 255
-0.46971824765205383 -0.7692738771438599 0.433107852935791 0 0 255
-0.506230354309082 -0.7402836680412292 0.44239237904548645 0 0 255
-0.6228023171424866 -0.6298820972442627 0.46407511830329895 0 0 255
-0.6861579418182373 -0.5917601585388184 0.42309239506721497 0 0 255
-0.7248336672782898 -0.5321046710014343 0.43758514523506165 0 0 255
-0.8082653284072876 -0.3994091749191284 0.4326423704624176 0 0 255
-0.8098207712173462 -0.41216593980789185 0.4175039827823639 0 0 255
-0.772837221622467 -0.4537998139858246 0.4436083436012268 0 0 255
-0.7578122615814209 -0.49899062514305115 0.42039135098457336 0 0 255
-0.7503029108047485 -0.5249497890472412 0.4018372595310211 0 0 255
-0.7451866865158081 -0.5403539538383484 0.3907870054244995 0 0 255
-0.7224968075752258 -0.5461317300796509 0.42395591735839844 0 0 255
-0.7159423828125 -0.5391479730606079 0.44356051087379456 0 0 255
-0.7103648781776428 -0.5284289717674255 0.46491342782974243 0 0 255
-0.7221164107322693 -0.5129903554916382 0.46410003304481506 0 0 255
-0.7087336778640747 -0.5184885263442993 0.4783996641635895 0 0 255
-0.7099165916442871 -0.526211142539978 0.46810275316238403 0 0 255
-0.7228989601135254 -0.5124209523200989 0.4635103642940521 0 0 255
-0.7388126850128174 -0.4963825047016144 0.4558071792125702 0 0 255
-0.7255962491035461 -0.5266520380973816 0.4428856372833252 0 0 255
-0.7144889235496521 -0.5459734797477722 0.4375140964984894 0 0 255
-0.6834156513214111 -0.5952478647232056 0.4226381182670593 0 0 255
-0.6688417792320251 -0.608863353729248 0.42653971910476685 0 0 255
-0.6650644540786743 -0.6260877847671509 0.40706688165664673 0 0 255
-0.5918717980384827 -0.7131301164627075 0.37567707896232605 0 0 255
-0.6047733426094055 -0.7215536832809448 0.3370600640773773 0 0 255
-0.6021410226821899 -0.7383803129196167 0.3036786913871765 0 0 255
-0.5596988797187805 -0.78504878282547 0.26539716124534607 0 0 255
-0.5732201933860779 -0.7796617150306702 0.2520838677883148 0 0 255
-0.5774486660957336 -0.7833741903305054 0.2299518883228302 0 0 255
-0.5915517210960388 -0.7783010005950928 0.21050895750522614 0 0 255
-0.6112082004547119 -0.7674078345298767 0.19367468357086182 0 0 255
-0.675909161567688 -0.7274991869926453 0.11786307394504547 0 0 255
-0.6736469268798828 -0.7347789406776428 0.07936995476484299 0 0 255
-0.6905489563941956 -0.7211237549781799 0.05588104948401451 0 0 255
-0.72275710105896 -0.6885358095169067 0.0595029853284359 0 0 255
-0.7336828112602234 -0.6722360253334045 0.09903578460216522 0 0 255
-0.6559980511665344 -0.7490073442459106 0.09302958101034164 0 0 255
-0.6334537863731384 -0.7629208564758301 0.12918224930763245 0 0 255
-0.6543087959289551 -0.755967915058136 0.019812360405921936 0 0 255
-0.6665502190589905 -0.7432460188865662 0.05741146579384804 0 0 255
-0.6945475339889526 -0.7101904153823853 0.11503568291664124 0 0 255
-0.7213676571846008 -0.6915289759635925 0.03763576224446297 0 0 255
-0.72945237159729 -0.6746966242790222 0.1126214787364006 0 0 255
-0.7060721516609192 -0.7025222182273865 0.08902046829462051 0 0 255
-0.6603131294250488 -0.7486805319786072 0.05885633826255798 0 0 255
-0.5994217395782471 -0.8004077672958374 -0.006400086916983128 0 0 255
-0.5096250772476196 -0.8597347140312195 -0.03374091908335686 0 0 255
-0.44935229420661926 -0.8933417201042175 -0.004795355722308159 0 0 255
-0.3458826243877411 -0.9338688850402832 -0.09085294604301453 0 0 255
-0.2818996012210846 -0.9550135731697083 -0.09209639579057693 0 0 255
-0.18842126429080963 -0.9778323769569397 -0.09132975339889526 0 0 255
-0.19265910983085632 -0.9783980250358582 -0.07496584206819534 0 0 255
-0.231529101729393 -0.9625117778778076 -0.1412990540266037 0 0 255
-0.1905069351196289 -0.9593373537063599 -0.20827597379684448 0 0 255
-0.24020762741565704 -0.9597784280776978 -0.14534662663936615 0 0 255
-0.28165122866630554 -0.9390629529953003 -0.19706189632415771 0 0 255
-0.31230467557907104 -0.9319970011711121 -0.18397650122642517 0 0 255
-0.31857359409332275 -0.9234810471534729 -0.21376068890094757 0 0 255
-0.31194865703582764 -0.8944376111030579 -0.3204208016395569 0 0 255
-0.1892051100730896 -0.8623355031013489 -0.4696583151817322 0 0 255
-0.07957469671964645 -0.8607805371284485 -0.5027174353599548 0 0 255
0.06934674084186554 -0.7880878448486328 -0.6116441488265991 0 0 255
0.01732752099633217 -0.8021121621131897 -0.5969219207763672 0 0 255
0.021801665425300598 -0.7598333358764648 -0.6497523188591003 0 0 255
0.019671520218253136 -0.797018826007843 -0.6036338806152344 0 0 255
-0.02126123569905758 -0.7256686091423035 -0.6877157688140869 0 0 255
-0.17689573764801025 -0.7167813777923584 -0.6744867563247681 0 0 255
-0.3237130641937256 -0.5780434608459473 -0.7490497827529907 0 0 255
-0.1482042819261551 -0.5778067111968994 -0.8026050925254822 0 0 255
-0.37317320704460144 -0.47190263867378235 -0.7987801432609558 0 0 255
-0.649994432926178 -0.25725772976875305 -0.715070366859436 0 0 255
-0.6325250864028931 -0.17888937890529633 -0.7535984516143799 0 0 255
-0.6534563302993774 -0.2286759465932846 -0.721596896648407 0 0 255
-0.7480713129043579 -0.25330743193626404 -0.6133716106414795 0 0 255
-0.6806627511978149 -0.10666951537132263 -0.724789559841156 0 0 255
-0.8136661648750305 -0.20508557558059692 -0.5439552664756775 0 0 255
-0.7186822891235352 -0.11698340624570847 -0.6854273080825806 0 0 255
-0.7599727511405945 -0.03413614258170128 -0.6490578651428223 0 0 255
-0.765607476234436 -0.08588319271802902 -0.6375493407249451 0 0 255
-0.6454566717147827 -0.25776296854019165 -0.7189881205558777 0 0 255
-0.5940198302268982 -0.15710952877998352 -0.7889594435691833 0 0 255
-0.49122026562690735 -0.03357047587633133 -0.8703882098197937 0 0 255
-0.5817931294441223 -0.010212237946689129 -0.8132726550102234 0 0 255
-0.6468997001647949 0.165805384516716 -0.7443314790725708 0 0 255
-0.6844470500946045 0.24338190257549286 -0.6872389912605286 0 0 255
-0.7421836853027344 0.27551257610321045 -0.6109470129013062 0 0 255
-0.604303240776062 0.4179026782512665 -0.6783620119094849 0 0 255
-0.6109899282455444 0.39681676030158997 -0.6850020289421082 0 0 255
-0.5833275318145752 0.4488668143749237 -0.6769399046897888 0 0 255
-0.5526134967803955 0.45420435070991516 -0.6987965703010559 0 0 255
-0.605380117893219 0.4719892740249634 -0.6408907771110535 0 0 255
-0.5382073521614075 0.6075498461723328 -0.5841371417045593 0 0 255
-0.6243754029273987 0.5771169662475586 -0.5263947248458862 0 0 255
-0.5468285083770752 0.6667497158050537 -0.5063827037811279 0 0 255
-0.5439380407333374 0.6110970973968506 -0.5750580430030823 0 0 255
-0.5442595481872559 0.60077965259552 -0.5855300426483154 0 0 255
-0.5735255479812622 0.6335166692733765 -0.519350528717041 0 0 255
-0.7603039145469666 0.4284193515777588 -0.4882569909095764 0 0 255
-0.7140007615089417 0.4514845907688141 -0.5351304411888123 0 0 255
-0.7590501308441162 0.30485785007476807 -0.5752430558204651 0 0 255
-0.7870754599571228 0.13334102928638458 -0.602272629737854 0 0 255
-0.7927104830741882 -0.07994353026151657 -0.6043336391448975 0 0 255
-0.7812460660934448 -0.22183188796043396 -0.5834767818450928 0 0 255
-0.7980791926383972 -0.08904252201318741 -0.5959370732307434 0 0 255
-0.7570961117744446 -0.09782969206571579 -0.6459372639656067 0 0 255
-0.6122090220451355 -0.20751124620437622 -0.7629804611206055 0 0 255
-0.4637894332408905 -0.14650088548660278 -0.873748779296875 0 0 255
-0.36627212166786194 -0.2556924819946289 -0.8946877121925354 0 0 255
-0.05979222059249878 -0.3690635859966278 -0.9274789094924927 0 0 255
0.29019254446029663 -0.43940725922584534 -0.8501232266426086 0 0 255
0.3219454884529114 -0.5866879820823669 -0.7430668473243713 0 0 255
0.4747299551963806 -0.5945644378662109 -0.6489410400390625 0 0 255
0.45827892422676086 -0.5224372148513794 -0.7190547585487366 0 0 255
0.6297026872634888 -0.3691205680370331 -0.6835382580757141 0 0 255
0.5111268162727356 0.04646869748830795 -0.8582482933998108 0 0 255
0.22765828669071198 0.28987404704093933 -0.9295939207077026 0 0 255
0.15522587299346924 0.6453134417533875 -0.7479810118675232 0 0 255
0.30403801798820496 0.6399928331375122 -0.7056699395179749 0 0 255
0.5851787328720093 0.4301806688308716 -0.6873939037322998 0 0 255
0.634148895740509 0.4709930419921875 -0.6132053136825562 0 0 255
0.6388288140296936 0.4539668560028076 -0.6211375594139099 0 0 255
0.662668764591217 0.4354413151741028 -0.6093118786811829 0 0 255
0.618789553642273 0.44460776448249817 -0.6476291418075562 0 0 255
0.5530930757522583 0.4663028120994568 -0.6903981566429138 0 0 255
0.5637233257293701 0.5037432312965393 -0.654567539691925 0 0 255
0.5657405257225037 0.5247395038604736 -0.6360709071159363 0 0 255
0.6350876092910767 0.5102643370628357 -0.579908549785614 0 0 255
0.6619309782981873 0.4685220718383789 -0.5850934982299805 0 0 255
0.7567896842956543 0.3325038552284241 -0.562770426273346 0 0 255
0.7300585508346558 0.1856696754693985 -0.6576787233352661 0 0 255
0.8460720181465149 0.17895027995109558 -0.502134382724762 0 0 255
0.8823716044425964 0.04885068163275719 -0.4680107533931732 0 0 255
0.8779649138450623 0.06368399411439896 -0.4744700789451599 0 0 255
0.8595672845840454 0.03553372249007225 -0.5097856521606445 0 0 255
0.8468247652053833 0.12171744555234909 -0.5177573561668396 0 0 255
0.855516254901886 0.24799638986587524 -0.45452141761779785 0 0 255
0.8029765486717224 0.3383471369743347 -0.49066272377967834 0 0 255
0.791715145111084 0.43265220522880554 -0.4312761723995209 0 0 255
0.7600077390670776 0.5490717887878418 -0.3477190434932709 0 0 255
0.8108837604522705 0.4824410080909729 -0.33123740553855896 0 0 255
0.8817138075828552 0.36947134137153625 -0.2933798134326935 0 0 255
0.9294558763504028 0.24267148971557617 -0.27788904309272766 0 0 255
0.896581768989563 0.3704855442047119 -0.242655411362648 0 0 255
0.890765905380249 0.34867703914642334 -0.29147976636886597 0 0 255
0.8472476601600647 0.38976240158081055 -0.3609108328819275 0 0 255
0.8215734958648682 0.41421449184417725 -0.3917185664176941 0 0 255
0.7308188676834106 0.5551251173019409 -0.39716488122940063 0 0 255
0.6603797674179077 0.6268754005432129 -0.4134317934513092 0 0 255
0.5895411968231201 0.7131931185722351 -0.37920546531677246 0 0 255
0.5094000101089478 0.7605043649673462 -0.4026718735694885 0 0 255
0.4634368121623993 0.8157477378845215 -0.3460952639579773 0 0 255
0.5805022716522217 0.736496090888977 -0.34726157784461975 0 0 255
0.6423086524009705 0.6842576265335083 -0.34529855847358704 0 0 255
0.6474782824516296 0.6498829126358032 -0.3980252742767334 0 0 255
0.5059437155723572 0.7614609003067017 -0.4052138328552246 0 0 255
0.36835283041000366 0.8233230710029602 -0.43180474638938904 0 0 255
0.3019040822982788 0.8810673952102661 -0.3641071915626526 0 0 255
0.2301599681377411 0.9175524711608887 -0.32422804832458496 0 0 255
0.14630302786827087 0.9304383993148804 -0.33597588539123535 0 0 255
0.07688025385141373 0.9273391366004944 -0.3662397265434265 0 0 255
-0.0022994070313870907 0.9502571225166321 -0.3114580810070038 0 0 255
0.11220690608024597 0.9356266856193542 -0.3346823453903198 0 0 255
0.1914748102426529 0.9158748388290405 -0.35286059975624084 0 0 255
0.15550462901592255 0.9097435474395752 -0.3849479854106903 0 0 255
0.13727602362632751 0.913530707359314 -0.38290587067604065 0 0 255
0.1837884485721588 0.898806631565094 -0.3979552984237671 0 0 255
0.2916609048843384 0.8764939308166504 -0.38300439715385437 0 0 255
0.31726229190826416 0.8503400087356567 -0.4198410212993622 0 0 255
0.40696415305137634 0.8063055276870728 -0.4292454123497009 0 0 255
0.4164225459098816 0.7851362824440002 -0.45842471718788147 0 0 255
0.28051796555519104 0.8359030485153198 -0.47177934646606445 0 0 255
0.2862018942832947 0.8750467896461487 -0.39036089181900024 0 0 255
0.3319613039493561 0.8606593012809753 -0.38609224557876587 0 0 255
0.32576417922973633 0.826041579246521 -0.45992720127105713 0 0 255
0.28983962535858154 0.8384445905685425 -0.461523175239563 0 0 255
0.22439610958099365 0.8797959089279175 -0.41905319690704346 0 0 255
0.23305591940879822 0.9019650816917419 -0.3635161519050598 0 0 255
0.33552664518356323 0.8737062811851501 -0.3522203862667084 0 0 255
0.4366781413555145 0.808301568031311 -0.39491868019104004 0 0 255
0.41761258244514465 0.7599568367004395 -0.49806156754493713 0 0 255
0.2926485538482666 0.811211347579956 -0.5062540173530579 0 0 255
0.17323996126651764 0.885931670665741 -0.43024763464927673 0 0 255
0.161946102976799 0.89278244972229 -0.4203723967075348 0 0 255
0.25163888931274414 0.9169818758964539 -0.30955129861831665 0 0 255
0.41514307260513306 0.8167925477027893 -0.40063217282295227 0 0 255
0.45817437767982483 0.7778477072715759 -0.4301503300666809 0 0 255
0.43079036474227905 0.7834382653236389 -0.4479329586029053 0 0 255
0.3252107799053192 0.8234298229217529 -0.4649745225906372 0 0 255
0.2834298312664032 0.8695293664932251 -0.40445783734321594 0 0 255
0.22676092386245728 0.8565194606781006 -0.46363118290901184 0 0 255
0.15113750100135803 0.8870221972465515 -0.43629008531570435 0 0 255
0.1420661062002182 0.9013071060180664 -0.4092220664024353 0 0 255
0.10281135141849518 0.9074187874794006 -0.40745654702186584 0 0 255
-2.114112976414617e-05 0.9423864483833313 -0.3345261812210083 0 0 255
0.05498092994093895 0.9271057844161987 -0.37074512243270874 0 0 255
0.07541360706090927 0.9210968017578125 -0.3819599449634552 0 0 255
0.04804738983511925 0.9154835939407349 -0.3994763195514679 0 0 255
0.052912384271621704 0.9220507144927979 -0.3834354281425476 0 0 255
0.060751307755708694 0.9438555836677551 -0.32472434639930725 0 0 255
0.03621319681406021 0.9630687832832336 -0.2668090760707855 0 0 255
0.034161511808633804 0.9623245000839233 -0.26974910497665405 0 0 255
-0.04176052659749985 0.9619690775871277 -0.2699471712112427 0 0 255
-0.13597260415554047 0.9460723996162415 -0.2940380573272705 0 0 255
-0.15988701581954956 0.958572506904602 -0.2357432246208191 0 0 255
-0.16215595602989197 0.9596163034439087 -0.2298738658428192 0 0 255
-0.11874367296695709 0.9704084992408752 -0.21025517582893372 0 0 255
-0.1891641616821289 0.9634680151939392 -0.18959523737430573 0 0 255
-0.20825634896755219 0.960436224937439 -0.18490931391716003 0 0 255
-0.17960208654403687 0.9723238945007324 -0.1494300812482834 0 0 255
-0.1903049498796463 0.9768701195716858 -0.09751267731189728 0 0 255
-0.2017165571451187 0.976008951663971 -0.08195692300796509 0 0 255
-0.24638493359088898 0.9690691828727722 -0.014121674932539463 0 0 255
-0.23711533844470978 0.9714626669883728 -0.006040024571120739 0 0 255
-0.24499952793121338 0.9683805704116821 -0.04705655574798584 0 0 255
-0.21964900195598602 0.9697041511535645 -0.10690239071846008 0 0 255
-0.139389768242836 0.9828596711158752 -0.12065418809652328 0 0 255
-0.1569865643978119 0.9816010594367981 -0.10869516432285309 0 0 255
-0.16471758484840393 0.9784373044967651 -0.12461332976818085 0 0 255
-0.08251817524433136 0.9886892437934875 -0.1252368539571762 0 0 255
-0.0783364474773407 0.9839017987251282 -0.16062584519386292 0 0 255
-0.0817646011710167 0.981908917427063 -0.17079046368598938 0 0 255
-0.07141254097223282 0.9851769804954529 -0.15596957504749298 0 0 255
-0.09809626638889313 0.9849161505699158 -0.14253856241703033 0 0 255
-0.10016772896051407 0.985622763633728 -0.13606716692447662 0 0 255
-0.1372673064470291 0.9866957068443298 -0.08711642771959305 0 0 255
-0.12089554220438004 0.9861290454864502 -0.11372742801904678 0 0 255
-0.15564051270484924 0.9802052974700928 -0.12236618995666504 0 0 255
-0.15451739728450775 0.9792011976242065 -0.13148914277553558 0 0 255
-0.13466084003448486 0.9847127795219421 -0.11048658192157745 0 0 255
-0.1479710191488266 0.9799913763999939 -0.1331222951412201 0 0 255
-0.14895866811275482 0.9776813387870789 -0.14815711975097656 0 0 255
-0.13592563569545746 0.9771829843521118 -0.16321046650409698 0 0 255
-0.10616365820169449 0.9785137176513672 -0.17674899101257324 0 0 255
-0.06714662909507751 0.9786467552185059 -0.19427266716957092 0 0 255
-0.052774667739868164 0.9804099798202515 -0.18976609408855438 0 0 255
-0.05712730064988136 0.9807982444763184 -0.1864706426858902 0 0 255
-0.06441379338502884 0.982853353023529 -0.17277203500270844 0 0 255
-0.0400545671582222 0.9838162064552307 -0.17464567720890045 0 0 255
-0.030341915786266327 0.9830894470214844 -0.18059509992599487 0 0 255
-0.07002553343772888 0.985179603099823 -0.15658138692378998 0 0 255
-0.08433959633111954 0.9855544567108154 -0.1468646377325058 0 0 255
-0.06668296456336975 0.9884811639785767 -0.13586147129535675 0 0 255
-0.05317884311079979 0.9902493953704834 -0.1287562996149063 0 0 255
-0.01395464688539505 0.9890477061271667 -0.14693498611450195 0 0 255
0.0019267855677753687 0.9911877512931824 -0.13245034217834473 0 0 255
0.028226440772414207 0.9906024932861328 -0.13382847607135773 0 0 255
0.04931841790676117 0.991767406463623 -0.11817430704832077 0 0 255
0.08644427359104156 0.9863608479499817 -0.1400701105594635 0 0 255
0.12341180443763733 0.9813839197158813 -0.14715737104415894 0 0 255
0.13674107193946838 0.9794262051582336 -0.14841210842132568 0 0 255
0.1627662479877472 0.9733594655990601 -0.16148845851421356 0 0 255
0.16551555693149567 0.9760557413101196 -0.1411374807357788 0 0 255
0.1847568303346634 0.9690370559692383 -0.16380520164966583 0 0 255
0.18660388886928558 0.9686375856399536 -0.16407360136508942 0 0 255
0.194154292345047 0.9685420393943787 -0.15566161274909973 0 0 255
0.1977969855070114 0.9676159024238586 -0.15683050453662872 0 0 255
0.2133590281009674 0.9629752039909363 -0.164792999625206 0 0 255
0.21659770607948303 0.9619354009628296 -0.16663026809692383 0 0 255
0.19759385287761688 0.9677709937095642 -0.15612807869911194 0 0 255
0.19660653173923492 0.9667478203773499 -0.16353797912597656 0 0 255
0.1821766197681427 0.9721612930297852 -0.14735688269138336 0 0 255
0.15529640018939972 0.9802118539810181 -0.12275099754333496 0 0 255
0.10601806640625 0.9888304471969604 -0.10475913435220718 0 0 255
0.04275576025247574 0.994071900844574 -0.09996393322944641 0 0 255
0.012357278726994991 0.9941299557685852 -0.10748444497585297 0 0 255
-0.006164507009088993 0.9970798492431641 -0.07611684501171112 0 0 255
-0.018897389993071556 0.997144341468811 -0.07311592251062393 0 0 255
-0.07409534603357315 0.9958369731903076 -0.05309055373072624 0 0 255
-0.05550878867506981 0.9973198771476746 -0.04766305163502693 0 0 255
-0.033065084367990494 0.9967640042304993 -0.07326821982860565 0 0 255
-0.03729519620537758 0.9976831078529358 -0.05689747631549835 0 0 255
-0.008533749729394913 0.9977735280990601 -0.06614506244659424 0 0 255
-0.045538634061813354 0.9971407055854797 -0.06030484288930893 0 0 255
0.020931893959641457 0.997871994972229 -0.06175201013684273 0 0 255
-0.022996803745627403 0.9987238049507141 -0.044966015964746475 0 0 255
-0.03472860902547836 0.9973975419998169 -0.06318245083093643 0 0 255
-0.006445589475333691 0.9983163475990295 -0.05764348432421684 0 0 255
0.022027956321835518 0.9985268712043762 -0.04958737641572952 0 0 255
0.03769509494304657 0.9970362186431885 -0.0670657679438591 0 0 255
0.06684508919715881 0.9950776100158691 -0.07315932959318161 0 0 255
0.0862908884882927 0.9918986558914185 -0.09322532266378403 0 0 255
0.05874817445874214 0.9967519044876099 -0.055083997547626495 0 0 255
0.08232271671295166 0.9964324235916138 -0.01858729124069214 0 0 255
0.13315996527671814 0.9907324314117432 -0.026791973039507866 0 0 255
0.13859649002552032 0.9902438521385193 0.014424304477870464 0 0 255
0.10033626854419708 0.9945712089538574 -0.027582727372646332 0 0 255
0.048745159059762955 0.998537540435791 -0.02337951585650444 0 0 255
0.055335670709609985 0.9981947541236877 0.02334863878786564 0 0 255
0.1302843987941742 0.9903712272644043 0.046805888414382935 0 0 255
0.1428760588169098 0.98971027135849 0.007746395654976368 0 0 255
0.042349785566329956 0.9988276362419128 -0.02344590611755848 0 0 255
0.09312158077955246 0.9956243634223938 -0.007773237768560648 0 0 255
0.00829178374260664 0.9995214343070984 0.029801640659570694 0 0 255
0.023311804980039597 0.999061107635498 0.03651786223053932 0 0 255
0.1089777946472168 0.9913341403007507 0.07335185259580612 0 0 255
0.182046577334404 0.9830077290534973 0.023558516055345535 0 0 255
0.21092304587364197 0.976822018623352 -0.036472100764513016 0 0 255
0.17901013791561127 0.9833838939666748 0.030189577490091324 0 0 255
0.035271018743515015 0.9951689839363098 0.09162222594022751 0 0 255
-0.0017502614064142108 0.9993870854377747 0.034963496029376984 0 0 255
0.006041269749403 0.9977567791938782 0.06666930764913559 0 0 255
0.08564828336238861 0.9916704297065735 0.09619836509227753 0 0 255
0.11301257461309433 0.9919083714485168 0.05784295126795769 0 0 255
0.17838910222053528 0.9829259514808655 0.045098140835762024 0 0 255
0.21718166768550873 0.9747648239135742 0.051630910485982895 0 0 255
0.32220980525016785 0.9442669749259949 0.0673854723572731 0 0 255
0.4252431094646454 0.9047010540962219 -0.026159092783927917 0 0 255
0.4199070930480957 0.9069861769676208 -0.03246769681572914 0 0 255
0.3781908452510834 0.9249629378318787 -0.037620168179273605 0 0 255
0.39851781725883484 0.9159911870956421 -0.046300776302814484 0 0 255
0.3278544545173645 0.943057119846344 0.05616792291402817 0 0 255
0.3934572637081146 0.918213427066803 0.045557714998722076 0 0 255
