ply
format ascii 1.0
element vertex 709
property float x
property float y
property float z
property uchar red
property uchar green
property uchar blue
end_header
-0.726698100566864 0.5825105309486389 -0.3641308844089508 0 0 255
-0.6495161652565002 0.5702885985374451 -0.5028913021087646 0 0 255
-0.43211251497268677 0.6625248789787292 -0.611832857131958 0 0 255
-0.4005579650402069 0.6094667315483093 -0.6841809153556824 0 0 255
-0.38014739751815796 0.5840303897857666 -0.7172144055366516 0 0 255
-0.3782096803188324 0.5985572934150696 -0.7061774730682373 0 0 255
-0.4264354407787323 0.5801385045051575 -0.6939683556556702 0 0 255
-0.45533332228660583 0.6178262829780579 -0.6410633325576782 0 0 255
-0.556447446346283 0.5510371923446655 -0.6218715906143188 0 0 255
-0.5818677544593811 0.5420721769332886 -0.6062901020050049 0 0 255
-0.6098089814186096 0.5500205755233765 -0.5706228017807007 0 0 255
-0.6063370108604431 0.5651220083236694 -0.5594573616981506 0 0 255
-0.6241819858551025 0.5453314781188965 -0.5594733357429504 0 0 255
-0.6192464828491211 0.563642680644989 -0.5466633439064026 0 0 255
-0.6242008209228516 0.4913611114025116 -0.6074022650718689 0 0 255
-0.6147229075431824 0.5098186731338501 -0.6018310785293579 0 0 255
-0.5619251132011414 0.560104489326477 -0.6087060570716858 0 0 255
-0.592157781124115 0.519191563129425 -0.6162704825401306 0 0 255
-0.6212335228919983 0.4975060522556305 -0.6054391860961914 0 0 255
-0.6006091237068176 0.5310429334640503 -0.5977141261100769 0 0 255
-0.6183992624282837 0.4690639078617096 -0.6305246949195862 0 0 255
-0.725823700428009 0.38009315729141235 -0.5733316540718079 0 0 255
-0.799511730670929 0.2886493504047394 -0.5267471671104431 0 0 255
-0.9014973640441895 0.3148064613342285 -0.2969839572906494 0 0 255
-0.9178306460380554 0.2857140004634857 -0.275598406791687 0 0 255
-0.8924224376678467 0.33542853593826294 -0.3017779290676117 0 0 255
-0.8898576498031616 0.31114745140075684 -0.33367738127708435 0 0 255
-0.9447745084762573 0.280221551656723 -0.16993212699890137 0 0 255
-0.9962686896324158 0.07331986725330353 -0.045528843998909 0 0 255
-0.9591431617736816 0.1725638061761856 0.22420108318328857 0 0 255
-0.990664005279541 0.13528960943222046 -0.016779324039816856 0 0 255
-0.8743013143539429 0.45487770438194275 -0.16936203837394714 0 0 255
-0.8281683921813965 0.5265067219734192 -0.1921662837266922 0 0 255
-0.939989447593689 0.33640262484550476 -0.05703601986169815 0 0 255
-0.9214136004447937 0.38318952918052673 -0.06451904028654099 0 0 255
-0.8965486288070679 0.4175213575363159 -0.14790675044059753 0 0 255
-0.8406381011009216 0.5126579999923706 -0.17466895282268524 0 0 255
-0.8678456544876099 0.4552266001701355 -0.19902949035167694 0 0 255
-0.8585954308509827 0.4627307653427124 -0.22066758573055267 0 0 255
-0.8372125625610352 0.47923463582992554 -0.26345619559288025 0 0 255
-0.8447588086128235 0.4889577627182007 -0.2174922525882721 0 0 255
-0.8778221607208252 0.45662131905555725 -0.14465518295764923 0 0 255
-0.9052484631538391 0.40064242482185364 -0.14146001636981964 0 0 255
-0.898323118686676 0.4361092448234558 -0.05314416065812111 0 0 255
-0.9123229384422302 0.40668582916259766 -0.04768219217658043 0 0 255
-0.9204099178314209 0.38372477889060974 -0.0748397633433342 0 0 255
-0.9304035902023315 0.3645670413970947 -0.0379481241106987 0 0 255
-0.9148622751235962 0.40187084674835205 -0.03907356038689613 0 0 255
-0.8846127986907959 0.45724496245384216 -0.0915825143456459 0 0 255
-0.7777344584465027 0.616123616695404 -0.1245824545621872 0 0 255
-0.9996005296707153 -0.02503124624490738 -0.013125893659889698 0 0 255
-0.6848012208938599 0.5707413554191589 -0.4531022310256958 0 0 255
-0.8138125538825989 0.28100770711898804 -0.5086685419082642 0 0 255
-0.313848078250885 0.4217425286769867 -0.8506660461425781 0 0 255
-0.18944613635540009 0.193468376994133 -0.9626423120498657 0 0 255
-0.15056367218494415 0.2687520682811737 -0.9513689279556274 0 0 255
-0.2007119357585907 0.29914113879203796 -0.9328607320785522 0 0 255
-0.1586456149816513 0.30018556118011475 -0.9405956864356995 0 0 255
-0.1606197953224182 0.30564308166503906 -0.938500702381134 0 0 255
-0.18509992957115173 0.29761770367622375 -0.936569094657898 0 0 255
-0.2137921154499054 0.25387367606163025 -0.9433139562606812 0 0 255
-0.072337806224823 0.0005720950430259109 -0.9973799586296082 0 0 255
0.08426911383867264 0.15885570645332336 -0.9836989641189575 0 0 255
-0.04147488623857498 0.026040269061923027 -0.9988001585006714 0 0 255
0.22026266157627106 0.3268762528896332 -0.9190409779548645 0 0 255
0.4155271649360657 -0.25105229020118713 -0.8742481470108032 0 0 255
0.009030885994434357 -0.4302250146865845 -0.902676522731781 0 0 255
-0.27322065830230713 -0.8285609483718872 -0.4887096881866455 0 0 255
-0.3875698745250702 -0.8207940459251404 -0.4196268618106842 0 0 255
-0.44905078411102295 -0.8289699554443359 -0.33340999484062195 0 0 255
-0.4597238600254059 -0.7601833343505859 -0.4591025710105896 0 0 255
-0.5019847750663757 -0.7525774240493774 -0.42619073390960693 0 0 255
-0.6410266757011414 -0.7389436364173889 -0.2074780911207199 0 0 255
-0.6358376145362854 -0.7716809511184692 0.014798964373767376 0 0 255
-0.5054625272750854 -0.8610590696334839 -0.05554111301898956 0 0 255
0.5388111472129822 -0.7804791331291199 -0.317072331905365 0 0 255
0.8214613795280457 -0.30410900712013245 -0.48240938782691956 0 0 255
0.949630856513977 -0.033016104251146317 -0.3116266429424286 0 0 255
0.7883419394493103 -0.06086297705769539 -0.6122193932533264 0 0 255
0.8136365413665771 -0.15210004150867462 -0.5611250400543213 0 0 255
0.7831478118896484 -0.14554761350154877 -0.6045621633529663 0 0 255
0.7695295214653015 -0.19362489879131317 -0.6085504293441772 0 0 255
0.771314263343811 -0.20504258573055267 -0.6025212407112122 0 0 255
0.7437981367111206 -0.2528694272041321 -0.618725597858429 0 0 255
0.7682213187217712 -0.2700362801551819 -0.5804449915885925 0 0 255
0.7927939891815186 -0.24623367190361023 -0.557536244392395 0 0 255
0.7982409596443176 -0.2121618688106537 -0.5637364387512207 0 0 255
0.775108814239502 -0.23009274899959564 -0.5884416103363037 0 0 255
0.760253369808197 -0.2674795389175415 -0.5920047163963318 0 0 255
0.7120150923728943 -0.3325917422771454 -0.618398904800415 0 0 255
0.7298461198806763 -0.4127945005893707 -0.5449087023735046 0 0 255
0.7482656240463257 -0.5210369825363159 -0.4106324315071106 0 0 255
0.7412434816360474 -0.6189374923706055 -0.2597585916519165 0 0 255
0.6860582232475281 -0.7183735370635986 -0.11516810953617096 0 0 255
0.7160544395446777 -0.6972251534461975 -0.03381039574742317 0 0 255
0.6874445080757141 -0.7250218987464905 0.04199128597974777 0 0 255
0.6660802364349365 -0.7399390935897827 0.0939536914229393 0 0 255
0.5984968543052673 -0.7860364317893982 0.1547524482011795 0 0 255
0.5703904628753662 -0.7998194694519043 0.18693184852600098 0 0 255
0.5511618852615356 -0.8063579201698303 0.21449360251426697 0 0 255
0.5402042865753174 -0.8033068180084229 0.2507537007331848 0 0 255
0.5423325300216675 -0.801354706287384 0.2524007558822632 0 0 255
0.5177667737007141 -0.8106223344802856 0.27351245284080505 0 0 255
0.5012611150741577 -0.810370147228241 0.30337679386138916 0 0 255
0.46186479926109314 -0.8248327374458313 0.32608562707901 0 0 255
0.44517096877098083 -0.8332432508468628 0.3279155194759369 0 0 255
0.43727147579193115 -0.8369057178497314 0.32921481132507324 0 0 255
0.38714224100112915 -0.8486682772636414 0.3603929281234741 0 0 255
0.38480469584465027 -0.8844863772392273 0.26383575797080994 0 0 255
0.5474883317947388 -0.7620382905006409 0.34576597809791565 0 0 255
0.2824268341064453 -0.8949288129806519 0.34545257687568665 0 0 255
0.17441675066947937 -0.8764684796333313 0.4487559497356415 0 0 255
-0.03838898986577988 -0.8283659815788269 0.5588703751564026 0 0 255
-0.058288443833589554 -0.8508070707321167 0.5222353935241699 0 0 255
-0.04991589114069939 -0.8394506573677063 0.5411386489868164 0 0 255
-0.02654939889907837 -0.8451799154281616 0.5338221192359924 0 0 255
0.012074329890310764 -0.8451426029205322 0.5344045758247375 0 0 255
-0.04706503078341484 -0.8514513373374939 0.5223173499107361 0 0 255
-0.013550898991525173 -0.8434383869171143 0.5370550751686096 0 0 255
-0.024317199364304543 -0.8388587236404419 0.5438058376312256 0 0 255
-0.0458737351000309 -0.8233981728553772 0.5656067728996277 0 0 255
-0.07149764895439148 -0.823370635509491 0.5629820823669434 0 0 255
-0.08788511157035828 -0.81643146276474 0.5707152485847473 0 0 255
-0.12027042359113693 -0.8125898241996765 0.5702917575836182 0 0 255
-0.14480435848236084 -0.8012983202934265 0.5804762840270996 0 0 255
-0.17776808142662048 -0.7906935811042786 0.5858346223831177 0 0 255
-0.22664117813110352 -0.775807797908783 0.5888599157333374 0 0 255
-0.3112158477306366 -0.7423292994499207 0.5933733582496643 0 0 255
-0.3521348834037781 -0.7394834756851196 0.5737291574478149 0 0 255
-0.3551022410392761 -0.714576244354248 0.6027297973632812 0 0 255
-0.39756640791893005 -0.7067245841026306 0.5852190852165222 0 0 255
-0.40704065561294556 -0.7140041589736938 0.5696631073951721 0 0 255
-0.4191940426826477 -0.7072148323059082 0.5693183541297913 0 0 255
-0.43473172187805176 -0.7130480408668518 0.5500643849372864 0 0 255
-0.45212116837501526 -0.7101040482521057 0.539758026599884 0 0 255
-0.4544244706630707 -0.7161988615989685 0.5296769142150879 0 0 255
-0.41533422470092773 -0.7373887300491333 0.5326868295669556 0 0 255
-0.37625712156295776 -0.7724214196205139 0.5116598010063171 0 0 255
-0.319869726896286 -0.8039832711219788 0.5012925267219543 0 0 255
-0.3051906228065491 -0.8207762837409973 0.48289239406585693 0 0 255
-0.25452810525894165 -0.8300307393074036 0.4962503910064697 0 0 255
-0.2147076278924942 -0.8337150812149048 0.5087433457374573 0 0 255
-0.2069062739610672 -0.8374627232551575 0.5058121681213379 0 0 255
-0.23054777085781097 -0.8268288969993591 0.5130319595336914 0 0 255
-0.2108907848596573 -0.8219878077507019 0.5290189981460571 0 0 255
-0.21690617501735687 -0.8191118836402893 0.5310437083244324 0 0 255
-0.20351536571979523 -0.8169917464256287 0.5395422577857971 0 0 255
-0.21634826064109802 -0.812235951423645 0.5417251586914062 0 0 255
-0.2106044739484787 -0.8103682994842529 0.5467623472213745 0 0 255
-0.21221452951431274 -0.8037670254707336 0.555808961391449 0 0 255
-0.19178055226802826 -0.800788164138794 0.5674139261245728 0 0 255
-0.18996109068393707 -0.806118905544281 0.5604347586631775 0 0 255
-0.19326679408550262 -0.8022681474685669 0.5648130774497986 0 0 255
-0.1716403216123581 -0.8087337017059326 0.5625739693641663 0 0 255
-0.17566150426864624 -0.8209945559501648 0.5432412028312683 0 0 255
-0.1522735059261322 -0.8240980505943298 0.5455962419509888 0 0 255
-0.17417679727077484 -0.8190356492996216 0.5466654896736145 0 0 255
-0.18933752179145813 -0.8097521662712097 0.5553852319717407 0 0 255
-0.21963940560817719 -0.8117160797119141 0.5411796569824219 0 0 255
-0.20971903204917908 -0.8025525808334351 0.5585044622421265 0 0 255
-0.22187353670597076 -0.8116495013237 0.5403676629066467 0 0 255
-0.22179734706878662 -0.8247786164283752 0.5201405882835388 0 0 255
-0.21769391000270844 -0.8222886919975281 0.5257858037948608 0 0 255
-0.2059200406074524 -0.818672239780426 0.5360715985298157 0 0 255
-0.19629567861557007 -0.8212503790855408 0.5357385873794556 0 0 255
-0.22420738637447357 -0.7963630557060242 0.5617268085479736 0 0 255
-0.262966513633728 -0.7837345004081726 0.5626800656318665 0 0 255
-0.25913578271865845 -0.7771626710891724 0.5734692215919495 0 0 255
-0.28079214692115784 -0.7814429998397827 0.557227611541748 0 0 255
-0.29322338104248047 -0.7590643167495728 0.581241250038147 0 0 255
-0.32070600986480713 -0.7459717392921448 0.5836726427078247 0 0 255
-0.3390641510486603 -0.7201367020606995 0.6053416728973389 0 0 255
-0.39904022216796875 -0.6982178092002869 0.5943558812141418 0 0 255
-0.42868414521217346 -0.6775572299957275 0.5976170301437378 0 0 255
-0.4490179419517517 -0.6761081218719482 0.5841752886772156 0 0 255
-0.4542420506477356 -0.703244149684906 0.5469111204147339 0 0 255
-0.4336923062801361 -0.7386059165000916 0.5161126255989075 0 0 255
-0.4185207784175873 -0.7413971424102783 0.5245670676231384 0 0 255
-0.4175868034362793 -0.7208463549613953 0.5531742572784424 0 0 255
-0.41853874921798706 -0.7177821397781372 0.5564297437667847 0 0 255
-0.43048423528671265 -0.7233370542526245 0.5398766994476318 0 0 255
-0.4294866621494293 -0.7289071083068848 0.5331375002861023 0 0 255
-0.4190918207168579 -0.7163229584693909 0.5578919649124146 0 0 255
-0.42887359857559204 -0.7239906787872314 0.5402822494506836 0 0 255
-0.4469635784626007 -0.690586268901825 0.5686072111129761 0 0 255
-0.44593575596809387 -0.6628240942955017 0.6015027165412903 0 0 255
-0.46110668778419495 -0.6685526967048645 0.583453357219696 0 0 255
-0.45905524492263794 -0.6823338270187378 0.5689365267753601 0 0 255
-0.43685072660446167 -0.6815229058265686 0.5871013402938843 0 0 255
-0.42964327335357666 -0.6723538637161255 0.6027826070785522 0 0 255
-0.40570682287216187 -0.6878570914268494 0.601875901222229 0 0 255
-0.37947845458984375 -0.7058589458465576 0.5981298685073853 0 0 255
-0.3809308409690857 -0.694593071937561 0.610272228717804 0 0 255
-0.3811129331588745 -0.695637583732605 0.6089674234390259 0 0 255
-0.35547757148742676 -0.6899202466011047 0.6305915713310242 0 0 255
-0.3366259038448334 -0.6940001845359802 0.6364328265190125 0 0 255
-0.3449307978153229 -0.706822395324707 0.6175960898399353 0 0 255
-0.4563995599746704 -0.6206115484237671 0.6376055479049683 0 0 255
-0.5882077217102051 -0.40911826491355896 0.6975916028022766 0 0 255
-0.6812187433242798 -0.4703836739063263 0.5609636902809143 0 0 255
-0.7375376224517822 -0.473580002784729 0.48141470551490784 0 0 255
-0.7181495428085327 -0.5585591793060303 0.4150577783584595 0 0 255
-0.691771924495697 -0.5931217670440674 0.411895751953125 0 0 255
-0.6667758822441101 -0.6114773154258728 0.426034539937973 0 0 255
-0.6683850884437561 -0.5883405208587646 0.455100953578949 0 0 255
-0.6637857556343079 -0.5964908003807068 0.4512064754962921 0 0 255
-0.6679816842079163 -0.5939091444015503 0.4484109580516815 0 0 255
-0.6733080148696899 -0.5941985845565796 0.43998223543167114 0 0 255
-0.6547448635101318 -0.6347818374633789 0.4103182554244995 0 0 255
-0.6604688167572021 -0.6372935175895691 0.39703649282455444 0 0 255
-0.6602744460105896 -0.6072699427604675 0.4418833553791046 0 0 255
-0.6432161331176758 -0.6067185401916504 0.4670819044113159 0 0 255
-0.6484352946281433 -0.6024097800254822 0.46543973684310913 0 0 255
-0.6405383348464966 -0.6208439469337463 0.45195522904396057 0 0 255
-0.6515382528305054 -0.6226598620414734 0.43335050344467163 0 0 255
-0.6484096050262451 -0.6281827688217163 0.43005967140197754 0 0 255
-0.6347043514251709 -0.605547308921814 0.48006561398506165 0 0 255
-0.639649510383606 -0.5889437198638916 0.4939572811126709 0 0 255
-0.6246877908706665 -0.5988656878471375 0.50112384557724 0 0 255
-0.6068379878997803 -0.615670919418335 0.502689778804779 0 0 255
-0.5821624398231506 -0.6458020806312561 0.4939904510974884 0 0 255
-0.5742703676223755 -0.6460559368133545 0.5028174519538879 0 0 255
-0.5680002570152283 -0.6461461186408997 0.5097752213478088 0 0 255
-0.5684940814971924 -0.6657562255859375 0.48330435156822205 0 0 255
-0.5634956359863281 -0.6796450018882751 0.4696332812309265 0 0 255
-0.5487640500068665 -0.7022503614425659 0.4535444676876068 0 0 255
-0.5644118785858154 -0.7080105543136597 0.4244527816772461 0 0 255
-0.5239202976226807 -0.7059221863746643 0.47663554549217224 0 0 255
-0.5450137257575989 -0.6669518947601318 0.5080700516700745 0 0 255
-0.5434963703155518 -0.7038702964782715 0.4573601484298706 0 0 255
-0.5453193187713623 -0.7060307264328003 0.4518267810344696 0 0 255
-0.5567845106124878 -0.7063233852386475 0.43714794516563416 0 0 255
-0.5590238571166992 -0.6990549564361572 0.4458862543106079 0 0 255
-0.5885833501815796 -0.6733640432357788 0.4473817050457001 0 0 255
-0.5282965302467346 -0.7542836666107178 0.38981905579566956 0 0 255
-0.4453909695148468 -0.8049958944320679 0.3919292986392975 0 0 255
-0.5326015949249268 -0.8463155627250671 0.009242146275937557 0 0 255
-0.5496838688850403 -0.6412702798843384 -0.5353690385818481 0 0 255
-0.7394781112670898 -0.3616141974925995 -0.5678091049194336 0 0 255
-0.690579354763031 0.37292996048927307 -0.6196962594985962 0 0 255
-0.6963625550270081 0.42092883586883545 -0.5812901258468628 0 0 255
-0.5897338390350342 0.5702792406082153 -0.5718352198600769 0 0 255
-0.5691972374916077 0.5934773087501526 -0.5690335631370544 0 0 255
-0.5609491467475891 0.561908483505249 -0.6079431772232056 0 0 255
-0.47759079933166504 0.6561087369918823 -0.5843186974525452 0 0 255
-0.4916752278804779 0.6593499183654785 -0.5687821507453918 0 0 255
-0.4847049117088318 0.5638197064399719 -0.6687065958976746 0 0 255
-0.3352968692779541 0.7468240261077881 -0.5743082761764526 0 0 255
-0.2515099346637726 0.5222934484481812 -0.8148326873779297 0 0 255
0.3817043900489807 0.6829311847686768 -0.622821569442749 0 0 255
0.26770666241645813 0.3726036250591278 -0.8885378837585449 0 0 255
0.25416895747184753 0.41989845037460327 -0.8712539076805115 0 0 255
0.049617085605859756 0.489963561296463 -0.870329737663269 0 0 255
0.029813025146722794 0.5232502818107605 -0.8516574501991272 0 0 255
0.07462507486343384 0.5408146977424622 -0.8378248810768127 0 0 255
0.07010779529809952 0.5444953441619873 -0.8358287215232849 0 0 255
0.20065024495124817 0.5406302213668823 -0.8169812560081482 0 0 255
0.2222629189491272 0.49242642521858215 -0.841495931148529 0 0 255
0.2451137900352478 0.4742572605609894 -0.845576286315918 0 0 255
0.1620413362979889 0.4693300724029541 -0.8680276274681091 0 0 255
0.1636505126953125 0.49918386340141296 -0.8509019017219543 0 0 255
0.13800112903118134 0.5590642094612122 -0.8175591826438904 0 0 255
0.19314931333065033 0.5925707817077637 -0.782018780708313 0 0 255
0.190353661775589 0.7279417514801025 -0.6586853265762329 0 0 255
0.36500245332717896 0.8180209398269653 0.4445390999317169 0 0 255
-0.7980524301528931 -0.5870223045349121 0.13607782125473022 0 0 255
-0.7224785089492798 0.5340094566345215 -0.43915683031082153 0 0 255
-0.5698664784431458 0.6564530730247498 -0.49428901076316833 0 0 255
-0.15687359869480133 0.6313671469688416 -0.7594512104988098 0 0 255
0.10064134001731873 0.5222442150115967 -0.8468366861343384 0 0 255
0.11801538616418839 0.4895012378692627 -0.863979697227478 0 0 255
0.08056002110242844 0.5555168986320496 -0.8275936245918274 0 0 255
0.15304043889045715 0.5487130880355835 -0.821883499622345 0 0 255
0.18642230331897736 0.4893878698348999 -0.8519073724746704 0 0 255
0.16690653562545776 0.47811129689216614 -0.8622944951057434 0 0 255
0.02858501672744751 0.39972183108329773 -0.9161906838417053 0 0 255
0.12977178394794464 0.1900881826877594 -0.9731524586677551 0 0 255
0.16409176588058472 0.35983359813690186 -0.9184735417366028 0 0 255
-0.23571985960006714 0.33294275403022766 -0.9130089282989502 0 0 255
-0.17654463648796082 0.026020387187600136 -0.9839486479759216 0 0 255
-0.04062874987721443 0.2972884178161621 -0.9539229273796082 0 0 255
0.2150205671787262 0.12080506235361099 -0.969109058380127 0 0 255
0.3037109375 0.03390100970864296 -0.9521608948707581 0 0 255
0.38317573070526123 0.005256988573819399 -0.9236605167388916 0 0 255
0.24796490371227264 -0.09099794179201126 -0.9644858241081238 0 0 255
0.21645653247833252 -0.13326124846935272 -0.9671545624732971 0 0 255
0.17437323927879333 -0.19510973989963531 -0.965156078338623 0 0 255
0.43168070912361145 -0.20757873356342316 -0.8778170347213745 0 0 255
0.10394398868083954 -0.5350136160850525 -0.8384247422218323 0 0 255
-0.4098849892616272 -0.17393667995929718 -0.8953994512557983 0 0 255
-0.3739977478981018 -0.6922048926353455 -0.6172341704368591 0 0 255
0.25802990794181824 -0.3815569579601288 -0.8876006007194519 0 0 255
0.569587230682373 -0.2411259561777115 -0.7857663035392761 0 0 255
0.525580644607544 -0.10777851939201355 -0.843889057636261 0 0 255
0.7148334980010986 -0.3873550593852997 -0.5822106003761292 0 0 255
0.753832221031189 -0.48043587803840637 -0.4482390582561493 0 0 255
0.2593117356300354 -0.8251899480819702 -0.501815676689148 0 0 255
-0.3890226185321808 -0.9056046009063721 0.16894324123859406 0 0 255
-0.905707061290741 -0.20129357278347015 -0.3730624318122864 0 0 255
-0.8516563773155212 0.23301519453525543 -0.4694521725177765 0 0 255
-0.3753068447113037 0.2054751068353653 -0.9038388729095459 0 0 255
-0.7070621848106384 0.1587681621313095 -0.6890977621078491 0 0 255
-0.8158414363861084 0.22473448514938354 -0.5328200459480286 0 0 255
-0.8722710609436035 0.3745088577270508 -0.31446194648742676 0 0 255
-0.9197708368301392 0.3370930850505829 -0.20097213983535767 0 0 255
-0.9417046308517456 0.31466180086135864 -0.11908171325922012 0 0 255
-0.9543720483779907 0.2977280020713806 -0.023065485060214996 0 0 255
-0.9446350932121277 0.32812264561653137 -9.193710866384208e-06 0 0 255
-0.9409399032592773 0.32188650965690613 0.10498154908418655 0 0 255
-0.9330788850784302 0.34238821268081665 0.11015462130308151 0 0 255
-0.9330701231956482 0.3390447795391083 0.12011947482824326 0 0 255
-0.9369295239448547 0.23344159126281738 0.26013100147247314 0 0 255
-0.9069122076034546 0.13240386545658112 0.39997434616088867 0 0 255
-0.9067913293838501 0.1224459633231163 0.4034061133861542 0 0 255
-0.8625233769416809 0.0753127932548523 0.5003812909126282 0 0 255
-0.9112966656684875 0.023000622168183327 0.4111073315143585 0 0 255
-0.9052662253379822 0.04527021199464798 0.4224259853363037 0 0 255
-0.9090393781661987 0.21560873091220856 0.3565954566001892 0 0 255
-0.9164793491363525 0.24109026789665222 0.31928202509880066 0 0 255
-0.936522364616394 0.20915111899375916 0.2813924252986908 0 0 255
-0.9238957762718201 0.3295574188232422 0.19444440305233002 0 0 255
-0.9269872307777405 0.3146953582763672 0.20411142706871033 0 0 255
-0.9292737245559692 0.35206499695777893 0.11180643737316132 0 0 255
-0.9532078504562378 0.3022109866142273 -0.007954905740916729 0 0 255
-0.9434739351272583 0.33144301176071167 0.001581698888912797 0 0 255
-0.9611936807632446 0.2746923863887787 0.02551213651895523 0 0 255
-0.9671975374221802 0.24406054615974426 0.0704512819647789 0 0 255
-0.9875304102897644 0.047257184982299805 0.15016813576221466 0 0 255
-0.9960976243019104 0.011472213082015514 0.08750934153795242 0 0 255
-0.9879858493804932 0.010828254744410515 0.15416443347930908 0 0 255
-0.9803200364112854 0.16860313713550568 0.10269208252429962 0 0 255
-0.9934408664703369 0.1143430545926094 -0.001013576635159552 0 0 255
-0.9799141883850098 0.07352172583341599 -0.1853720098733902 0 0 255
-0.931736409664154 0.3082394003868103 -0.19197848439216614 0 0 255
-0.5736560225486755 0.19692662358283997 -0.7950714826583862 0 0 255
-0.5865965485572815 0.25483542680740356 -0.7687414288520813 0 0 255
0.4450448453426361 0.7175908088684082 -0.5357223153114319 0 0 255
0.5420191287994385 0.48743706941604614 -0.6845585703849792 0 0 255
0.37986335158348083 0.21782737970352173 -0.8990300297737122 0 0 255
0.8139209747314453 0.07871062308549881 -0.575619101524353 0 0 255
0.878814697265625 0.11927934736013412 -0.46201419830322266 0 0 255
0.9326658248901367 -0.19126254320144653 -0.30586478114128113 0 0 255
0.9201599359512329 -0.19795531034469604 -0.3378154933452606 0 0 255
0.9080370664596558 -0.15664790570735931 -0.3884972929954529 0 0 255
0.8980269432067871 -0.20093075931072235 -0.3913750946521759 0 0 255
0.8685049414634705 -0.20736223459243774 -0.4502221941947937 0 0 255
0.914358377456665 -0.08738131821155548 -0.3953647017478943 0 0 255
0.8928175568580627 0.002822649898007512 -0.45040959119796753 0 0 255
0.9025916457176208 -0.09122386574745178 -0.4207213819026947 0 0 255
0.9275932312011719 -0.08996578305959702 -0.3625974953174591 0 0 255
0.9211985468864441 -0.1172279641032219 -0.37101316452026367 0 0 255
0.948474109172821 -0.13067439198493958 -0.2886541485786438 0 0 255
0.9340934753417969 -0.19334198534488678 -0.30014684796333313 0 0 255
0.9687654972076416 -0.10691851377487183 -0.22374506294727325 0 0 255
0.9405393600463867 -0.14443594217300415 -0.3074475824832916 0 0 255
0.9467431306838989 -0.12373150140047073 -0.29726749658584595 0 0 255
0.9480904936790466 -0.18178433179855347 -0.26091936230659485 0 0 255
0.9516898393630981 -0.16579493880271912 -0.2584543228149414 0 0 255
0.950996458530426 -0.14680366218090057 -0.27212947607040405 0 0 255
0.9206674098968506 -0.2164912074804306 -0.32481229305267334 0 0 255
0.9339109063148499 -0.13042901456356049 -0.3328641355037689 0 0 255
0.9477546811103821 -0.15622839331626892 -0.27812543511390686 0 0 255
0.8979471325874329 -0.1589340716600418 -0.4104033410549164 0 0 255
0.8568494915962219 -0.10893464833498001 -0.5039267539978027 0 0 255
0.8301010131835938 -0.14161887764930725 -0.5393296480178833 0 0 255
0.8399408459663391 -0.14113354682922363 -0.5240043997764587 0 0 255
0.9034936428070068 -0.03760005161166191 -0.4269489049911499 0 0 255
0.9340308308601379 -0.1549968421459198 -0.3218110501766205 0 0 255
0.919283390045166 -0.15000607073307037 -0.3638903498649597 0 0 255
0.9600449204444885 -0.15441347658634186 -0.2333887666463852 0 0 255
0.9534808993339539 -0.19429618120193481 -0.23048454523086548 0 0 255
0.9679369330406189 -0.24672704935073853 0.04715704545378685 0 0 255
0.9804580807685852 0.11845500022172928 0.15706823766231537 0 0 255
0.9117909669876099 0.4061448276042938 0.06069273501634598 0 0 255
0.9944766163825989 0.07924621552228928 -0.06882014870643616 0 0 255
0.9613726735115051 -0.25463610887527466 0.1045139878988266 0 0 255
0.864345371723175 -0.42594248056411743 0.26735764741897583 0 0 255
0.90009605884552 -0.3885047733783722 0.1972082108259201 0 0 255
0.890582799911499 -0.4127410054206848 0.19106857478618622 0 0 255
0.9337934255599976 -0.3341968357563019 0.1278371959924698 0 0 255
0.9579274654388428 -0.2857992649078369 0.026343073695898056 0 0 255
0.9359349012374878 -0.34820279479026794 0.052731066942214966 0 0 255
0.8922749757766724 -0.4158030152320862 0.17593544721603394 0 0 255
0.8974618315696716 -0.41623207926750183 0.1459905356168747 0 0 255
0.9317905306816101 -0.35535362362861633 0.0740952342748642 0 0 255
0.8929303884506226 -0.4403555393218994 0.09360703080892563 0 0 255
0.8974647521972656 -0.42866119742393494 0.10395506024360657 0 0 255
0.9509251117706299 -0.26914411783218384 0.15265235304832458 0 0 255
0.976203203201294 -0.20618727803230286 0.06718713045120239 0 0 255
0.9811064004898071 -0.19058667123317719 -0.03327042981982231 0 0 255
0.9554830193519592 -0.29378068447113037 -0.027297159656882286 0 0 255
0.950365424156189 -0.31103959679603577 -0.007735600229352713 0 0 255
0.9726473093032837 -0.21441864967346191 -0.08934127539396286 0 0 255
0.967578649520874 -0.1675364375114441 -0.1890055239200592 0 0 255
0.9483094215393066 -0.1902879774570465 -0.25396788120269775 0 0 255
0.9521839618682861 0.014090104959905148 -0.30520012974739075 0 0 255
0.9078816175460815 -0.08266092091798782 -0.4109964370727539 0 0 255
0.9195765256881714 -0.054995302110910416 -0.3890431225299835 0 0 255
0.9198760986328125 -0.12551751732826233 -0.37158238887786865 0 0 255
0.9395334720611572 -0.09508655965328217 -0.3289914131164551 0 0 255
0.9112342000007629 -0.1740346997976303 -0.37331509590148926 0 0 255
0.9470489621162415 -0.07062554359436035 -0.313225656747818 0 0 255
0.9835947155952454 -0.14685963094234467 -0.10475542396306992 0 0 255
0.9461724758148193 -0.20404815673828125 -0.2512410283088684 0 0 255
0.9196395874023438 -0.08390641212463379 -0.3836961090564728 0 0 255
0.8938474655151367 -0.29257136583328247 -0.33976271748542786 0 0 255
0.902470052242279 -0.3240422308444977 -0.2838035523891449 0 0 255
0.9203841686248779 -0.2962927520275116 -0.25515398383140564 0 0 255
0.9115822315216064 -0.3602220118045807 -0.1981361359357834 0 0 255
0.9353464841842651 -0.30762994289398193 -0.1746158003807068 0 0 255
0.9374215602874756 -0.2650780975818634 -0.22577503323554993 0 0 255
0.9304518699645996 -0.27152544260025024 -0.24603521823883057 0 0 255
0.9367620944976807 -0.278321236371994 -0.21216513216495514 0 0 255
0.9393408298492432 -0.2201266586780548 -0.26302677392959595 0 0 255
0.9178711175918579 -0.2050265520811081 -0.3398188352584839 0 0 255
0.916462242603302 -0.21546456217765808 -0.3371528089046478 0 0 255
0.9089451432228088 -0.31231236457824707 -0.276187926530838 0 0 255
0.9062629342079163 -0.3812079131603241 -0.18266911804676056 0 0 255
0.9129455089569092 -0.3377186059951782 -0.22907754778862 0 0 255
0.8993575572967529 -0.37330007553100586 -0.22760283946990967 0 0 255
0.9043518900871277 -0.3799290657043457 -0.19442614912986755 0 0 255
0.8823014497756958 -0.4495052695274353 -0.13960348069667816 0 0 255
0.8519241213798523 -0.5084831714630127 -0.12518064677715302 0 0 255
0.8247748613357544 -0.5295327305793762 -0.19834685325622559 0 0 255
0.8437573909759521 -0.5149083137512207 -0.15146929025650024 0 0 255
0.8354678153991699 -0.5471261143684387 -0.05144452303647995 0 0 255
0.8497223854064941 -0.5252927541732788 -0.04515988007187843 0 0 255
0.8659172058105469 -0.47860080003738403 -0.14535672962665558 0 0 255
0.8867099285125732 -0.418527215719223 -0.1964193433523178 0 0 255
0.8865078091621399 -0.4574953317642212 -0.06929594278335571 0 0 255
0.8709379434585571 -0.48635515570640564 -0.07018457353115082 0 0 255
0.8424394130706787 -0.5320114493370056 -0.08520379662513733 0 0 255
0.8084170818328857 -0.585927426815033 -0.0561324805021286 0 0 255
0.8753370046615601 -0.4834992289543152 -0.003682325128465891 0 0 255
0.8270047903060913 -0.5615772008895874 0.02634449675679207 0 0 255
0.8174507021903992 -0.5751842856407166 0.030616093426942825 0 0 255
0.8184646368026733 -0.5745365619659424 0.004835786763578653 0 0 255
0.8250028491020203 -0.5553426742553711 0.10471262782812119 0 0 255
0.8377716541290283 -0.5239863991737366 0.15354715287685394 0 0 255
0.8262566328048706 -0.5260581374168396 0.20140227675437927 0 0 255
0.8395191431045532 -0.5403650403022766 0.056685544550418854 0 0 255
0.8616815805435181 -0.5060949325561523 0.037050701677799225 0 0 255
0.8560412526130676 -0.5106321573257446 0.08030039072036743 0 0 255
0.8616577982902527 -0.49147579073905945 0.12648098170757294 0 0 255
0.8993671536445618 -0.4145375192165375 0.1389150768518448 0 0 255
0.9080853462219238 -0.41204801201820374 0.07481665164232254 0 0 255
0.9207949638366699 -0.3820067346096039 0.07878788560628891 0 0 255
0.8937093615531921 -0.4285230338573456 0.13285931944847107 0 0 255
0.8769252300262451 -0.46917182207107544 0.10430643707513809 0 0 255
0.8492826819419861 -0.521350085735321 0.08314482867717743 0 0 255
0.8508209586143494 -0.49964046478271484 0.1626751571893692 0 0 255
0.8699554800987244 -0.48304930329322815 0.09920071065425873 0 0 255
0.9163979887962341 -0.39570191502571106 0.060288168489933014 0 0 255
0.8990769386291504 -0.4302981197834015 0.08064910024404526 0 0 255
0.9747124910354614 -0.22211240231990814 0.02452896721661091 0 0 255
0.9538864493370056 -0.29045382142066956 0.07574567198753357 0 0 255
0.9453661441802979 -0.27132755517959595 0.18073225021362305 0 0 255
0.886577844619751 -0.4125775396823883 0.20918799936771393 0 0 255
0.8895652890205383 -0.3652484118938446 0.27434858679771423 0 0 255
0.8045657873153687 -0.5062315464019775 0.31048914790153503 0 0 255
0.8653727173805237 -0.44525450468063354 0.22995303571224213 0 0 255
0.8125817775726318 -0.4669228196144104 0.34884655475616455 0 0 255
0.8297325372695923 -0.46265965700149536 0.3122337758541107 0 0 255
0.7869282364845276 -0.49537092447280884 0.36790159344673157 0 0 255
0.7105371356010437 -0.6101796627044678 0.3504537045955658 0 0 255
0.7047768235206604 -0.6066820025444031 0.36773157119750977 0 0 255
0.6691651940345764 -0.6350210309028625 0.38596147298812866 0 0 255
0.607213020324707 -0.6777420043945312 0.4146784543991089 0 0 255
0.6066206693649292 -0.7787892818450928 0.15968234837055206 0 0 255
0.6704676747322083 -0.7387434840202332 0.06878331303596497 0 0 255
0.701889157295227 -0.7019482254981995 0.12091425806283951 0 0 255
0.7358682751655579 -0.6677536964416504 0.11226242780685425 0 0 255
0.7439290881156921 -0.6649841666221619 0.06607208400964737 0 0 255
0.7433416843414307 -0.66411954164505 -0.07992664724588394 0 0 255
0.7722514271736145 -0.6280816793441772 -0.09561020880937576 0 0 255
0.5140104293823242 -0.8060673475265503 0.29334068298339844 0 0 255
0.1654052883386612 -0.9231378436088562 0.34706994891166687 0 0 255
-0.48349621891975403 -0.866664469242096 0.12297981977462769 0 0 255
-0.3331795930862427 -0.940593957901001 0.06537898629903793 0 0 255
-0.4957026541233063 -0.8315762281417847 0.2505192756652832 0 0 255
-0.3637276589870453 0.8976835012435913 -0.24872978031635284 0 0 255
-0.7903238534927368 -0.2809849679470062 -0.5444590449333191 0 0 255
-0.7686616778373718 -0.5530728101730347 -0.3213558793067932 0 0 255
-0.5594714879989624 -0.6058990955352783 -0.565577507019043 0 0 255
-0.6618416905403137 -0.5988619327545166 -0.4509212076663971 0 0 255
-0.6696690917015076 -0.5681410431861877 -0.47828754782676697 0 0 255
-0.6459065079689026 -0.5056211948394775 -0.5719719529151917 0 0 255
-0.6116568446159363 -0.41579973697662354 -0.6730427145957947 0 0 255
-0.472334086894989 -0.4960007667541504 -0.7286177277565002 0 0 255
-0.5107942819595337 -0.40706509351730347 -0.75722336769104 0 0 255
-0.28647467494010925 -0.24682028591632843 -0.9257494807243347 0 0 255
-0.1879895180463791 -0.10418659448623657 -0.9766294360160828 0 0 255
0.1240721121430397 -0.5367143154144287 -0.8345920443534851 0 0 255
-0.29969266057014465 0.014113763347268105 -0.9539313912391663 0 0 255
-0.3414295017719269 0.45626941323280334 -0.8217323422431946 0 0 255
-0.44036439061164856 0.5075819492340088 -0.740567147731781 0 0 255
-0.35792237520217896 0.47862645983695984 -0.8017532825469971 0 0 255
-0.42384815216064453 0.4675121605396271 -0.775748074054718 0 0 255
-0.3778153359889984 0.49056828022003174 -0.785237729549408 0 0 255
-0.3998936414718628 0.5220027565956116 -0.7533910870552063 0 0 255
-0.42910417914390564 0.46177130937576294 -0.7762969136238098 0 0 255
-0.3666868209838867 0.47027257084846497 -0.8027356863021851 0 0 255
-0.3980593681335449 0.45242223143577576 -0.7980369329452515 0 0 255
-0.3372819721698761 0.5012182593345642 -0.7968820929527283 0 0 255
-0.3785785734653473 0.4977060854434967 -0.7803633213043213 0 0 255
-0.464915007352829 0.45150408148765564 -0.7615760564804077 0 0 255
-0.5816060900688171 0.3894220292568207 -0.714202344417572 0 0 255
-0.6486828327178955 0.35992854833602905 -0.6705684065818787 0 0 255
-0.79993736743927 0.3339799642562866 -0.4985555410385132 0 0 255
-0.9315216541290283 0.20572106540203094 -0.299910306930542 0 0 255
-0.4384233057498932 0.19061250984668732 -0.8783233165740967 0 0 255
0.07709699869155884 -0.050523560494184494 -0.995742678642273 0 0 255
0.8204395174980164 -0.02909252792596817 -0.5709927082061768 0 0 255
0.7639737725257874 -0.21906627714633942 -0.6069217920303345 0 0 255
0.9809947609901428 -0.13723979890346527 -0.13716638088226318 0 0 255
0.8794593214988708 -0.18406888842582703 -0.4389418065547943 0 0 255
0.9197131395339966 -0.1031397208571434 -0.37880077958106995 0 0 255
0.862025797367096 -0.07369894534349442 -0.501477837562561 0 0 255
0.8384355902671814 0.049378663301467896 -0.5427591800689697 0 0 255
0.8267937302589417 -0.02400217391550541 -0.561992883682251 0 0 255
0.8319664597511292 -0.09563101828098297 -0.5465222597122192 0 0 255
0.7814015746116638 -0.17727024853229523 -0.5983200669288635 0 0 255
0.7918400764465332 -0.2077217549085617 -0.5743178129196167 0 0 255
0.8309803009033203 -0.30374398827552795 -0.46605944633483887 0 0 255
0.83771812915802 -0.434710830450058 -0.3305371403694153 0 0 255
0.721968948841095 -0.6285259127616882 -0.2893373668193817 0 0 255
0.6692399382591248 -0.6798872947692871 -0.2997853457927704 0 0 255
0.6432673335075378 -0.7154238820075989 -0.2727191746234894 0 0 255
0.8023525476455688 -0.5376562476158142 -0.2591453492641449 0 0 255
0.6545780897140503 -0.6230818033218384 -0.4281315505504608 0 0 255
0.7243125438690186 -0.608855664730072 -0.3235211968421936 0 0 255
0.25899752974510193 -0.8843353390693665 -0.3884216248989105 0 0 255
0.7295595407485962 -0.6613931655883789 0.17407460510730743 0 0 255
-0.012540384195744991 -0.7090198397636414 0.7050769925117493 0 0 255
-0.11159965395927429 0.1369689255952835 0.9842687845230103 0 0 255
-0.44382181763648987 0.1073572114109993 0.8896610140800476 0 0 255
-0.2841443717479706 0.45492082834243774 0.8439840078353882 0 0 255
-0.24457252025604248 0.4698910415172577 0.8481666445732117 0 0 255
-0.10897770524024963 0.48586514592170715 0.8672133088111877 0 0 255
-0.03505106270313263 0.42353320121765137 0.9052022099494934 0 0 255
-0.03401390463113785 0.3413068652153015 0.939336359500885 0 0 255
-0.03297680243849754 0.38607683777809143 0.9218770265579224 0 0 255
0.019417501986026764 0.35595759749412537 0.9343003630638123 0 0 255
0.05498252809047699 0.3316538333892822 0.9417975544929504 0 0 255
0.06731496006250381 0.3186681866645813 0.9454730153083801 0 0 255
0.1506803184747696 0.27971580624580383 0.9481849074363708 0 0 255
0.12309376895427704 0.18476124107837677 0.9750441908836365 0 0 255
0.14232225716114044 0.1444011777639389 0.9792307019233704 0 0 255
0.09974370151758194 0.09930387884378433 0.9900453686714172 0 0 255
0.1436103731393814 0.04111626744270325 0.9887797832489014 0 0 255
0.1407873034477234 -0.03588739410042763 0.989389181137085 0 0 255
0.16548706591129303 -0.014385228976607323 0.9861070513725281 0 0 255
0.16857779026031494 -0.030377307906746864 0.985220193862915 0 0 255
0.1948806792497635 -0.005117235239595175 0.9808135628700256 0 0 255
0.2068336308002472 0.014115055091679096 0.9782742857933044 0 0 255
0.22053498029708862 0.062855064868927 0.9733516573905945 0 0 255
0.24168169498443604 0.05260954424738884 0.9689283967018127 0 0 255
0.3072874844074249 0.12224848568439484 0.9437317848205566 0 0 255
0.28041112422943115 0.0519573912024498 0.9584727883338928 0 0 255
0.31198495626449585 0.06070985645055771 0.9481453895568848 0 0 255
0.3177885413169861 0.02691243588924408 0.947779655456543 0 0 255
0.3045474588871002 0.004134315066039562 0.9524881839752197 0 0 255
0.35228458046913147 0.03439625725150108 0.9352606534957886 0 0 255
0.28027650713920593 0.04529038444161415 0.9588502645492554 0 0 255
0.25221821665763855 0.11252769827842712 0.9611053466796875 0 0 255
0.24969768524169922 0.19317828118801117 0.948858916759491 0 0 255
0.2698724865913391 0.24616049230098724 0.9308995008468628 0 0 255
0.4124164581298828 0.23766353726387024 0.8794479370117188 0 0 255
0.3990054428577423 0.28963854908943176 0.8700023889541626 0 0 255
0.3355640470981598 0.3545960485935211 0.8727303743362427 0 0 255
0.3332608938217163 0.3826594948768616 0.861689567565918 0 0 255
0.3575025498867035 0.4219353199005127 0.8331641554832458 0 0 255
0.3195781111717224 0.40333229303359985 0.8574338555335999 0 0 255
0.19348560273647308 0.3903255760669708 0.9001162648200989 0 0 255
0.13121919333934784 0.34957534074783325 0.9276736974716187 0 0 255
0.049704063683748245 0.3138144314289093 0.9481825232505798 0 0 255
0.0681719183921814 0.26445630192756653 0.961985170841217 0 0 255
-0.004797313828021288 0.3082284927368164 0.9513002038002014 0 0 255
0.03582588955760002 0.30780407786369324 0.9507750272750854 0 0 255
0.0554133765399456 0.34290599822998047 0.9377339482307434 0 0 255
0.01718512922525406 0.321788489818573 0.9466556310653687 0 0 255
-0.004512799438089132 0.3415181338787079 0.9398643970489502 0 0 255
-0.047254204750061035 0.3832871913909912 0.9224196672439575 0 0 255
-0.062735415995121 0.43430760502815247 0.8985773324966431 0 0 255
-0.10708145052194595 0.4780653119087219 0.8717724084854126 0 0 255
-0.08654170483350754 0.5143105983734131 0.853226363658905 0 0 255
-0.14203797280788422 0.5201724171638489 0.8421673774719238 0 0 255
-0.18304738402366638 0.5189464092254639 0.8349780440330505 0 0 255
-0.15543735027313232 0.6143192052841187 0.7735962867736816 0 0 255
-0.137298583984375 0.6759952902793884 0.7240023612976074 0 0 255
-0.197917640209198 0.6429497599601746 0.7398947477340698 0 0 255
-0.27272823452949524 0.7175465226173401 0.6408948302268982 0 0 255
-0.30409011244773865 0.8153568506240845 0.49266865849494934 0 0 255
-0.28050899505615234 0.8800368905067444 0.383209764957428 0 0 255
-0.3172403872013092 0.8874239325523376 0.3344208002090454 0 0 255
-0.33152100443840027 0.8630619049072266 0.38107484579086304 0 0 255
-0.4191156327724457 0.8119409084320068 0.40631774067878723 0 0 255
-0.4361378252506256 0.7811941504478455 0.446676105260849 0 0 255
-0.42640700936317444 0.7814483046531677 0.45553871989250183 0 0 255
-0.324348509311676 0.8014566898345947 0.5024591088294983 0 0 255
-0.3398958444595337 0.775527834892273 0.5320031642913818 0 0 255
-0.276218980550766 0.8020631670951843 0.5295260548591614 0 0 255
-0.24941962957382202 0.8197907209396362 0.515492856502533 0 0 255
-0.2962445914745331 0.810173749923706 0.5058236718177795 0 0 255
-0.22038912773132324 0.8271207809448242 0.5170104503631592 0 0 255
-0.2541417181491852 0.7993369698524475 0.5444927215576172 0 0 255
-0.25675949454307556 0.7962022423744202 0.5478470921516418 0 0 255
-0.2356848418712616 0.7821916937828064 0.5767397880554199 0 0 255
-0.2036384642124176 0.762368381023407 0.6142684817314148 0 0 255
-0.19309711456298828 0.7869237065315247 0.5860584378242493 0 0 255
-0.22048601508140564 0.8070777654647827 0.5477330684661865 0 0 255
-0.2258213311433792 0.8144418001174927 0.5344991087913513 0 0 255
-0.2531498670578003 0.8151013851165771 0.521080493927002 0 0 255
-0.29877153038978577 0.81590735912323 0.4950058162212372 0 0 255
-0.3404526114463806 0.819388210773468 0.4611886739730835 0 0 255
-0.36609548330307007 0.8192638754844666 0.44133973121643066 0 0 255
0.8102986812591553 0.46834567189216614 0.352233350276947 255 127 0
0.7972529530525208 0.4956119954586029 0.3446108102798462 255 127 0
0.7948212623596191 0.45939740538597107 0.3965011537075043 255 127 0
0.8562162518501282 0.3347437381744385 0.3934975266456604 255 127 0
0.8943989872932434 0.25525301694869995 0.3672824203968048 255 127 0
0.9127835035324097 0.262759268283844 0.31270405650138855 255 127 0
0.9055778384208679 0.2747373878955841 0.3231842517852783 255 127 0
0.9113914370536804 0.27944061160087585 0.30212342739105225 255 127 0
0.9506116509437561 0.16511952877044678 0.2628171145915985 255 127 0
0.9529436230659485 0.14226680994033813 0.2676911950111389 255 127 0
0.959432065486908 0.04664921388030052 0.2780539095401764 255 127 0
0.9623520374298096 0.0492449589073658 0.2673078179359436 255 127 0
0.7281082272529602 -0.47481557726860046 0.4943770468235016 255 127 0
0.6836413741111755 -0.5764138102531433 0.44764000177383423 255 127 0
-0.9787396192550659 -0.03297169506549835 -0.20243887603282928 255 127 0
-0.8768131732940674 0.4118548631668091 0.24814143776893616 255 127 0
-0.8746306896209717 0.4236096739768982 0.2357456088066101 255 127 0
-0.7747257947921753 0.5933405756950378 0.21851064264774323 255 127 0
-0.7752636075019836 0.5743439793586731 0.26286011934280396 255 127 0
-0.7480531334877014 0.6265873908996582 0.2186429798603058 255 127 0
-0.7681385278701782 0.5753694772720337 0.28091490268707275 255 127 0
-0.7746371030807495 0.5755797624588013 0.2620024085044861 255 127 0
-0.7392699718475342 0.6208251118659973 0.2608756422996521 255 127 0
-0.7425543665885925 0.6112359166145325 0.27386781573295593 255 127 0
-0.737288236618042 0.6227032542228699 0.2620050013065338 255 127 0
-0.7180437445640564 0.6097534894943237 0.3355799615383148 255 127 0
-0.7441197037696838 0.5879375338554382 0.3171992897987366 255 127 0
-0.6925494074821472 0.6340199708938599 0.3440842628479004 255 127 0
-0.7191587090492249 0.6054186820983887 0.3409969210624695 255 127 0
-0.7013195157051086 0.6358576416969299 0.32223567366600037 255 127 0
-0.7191838026046753 0.6106042265892029 0.3315677344799042 255 127 0
-0.7326483130455017 0.6046240925788879 0.31249985098838806 255 127 0
-0.7552966475486755 0.5712540149688721 0.32124093174934387 255 127 0
-0.7855530977249146 0.539773166179657 0.3025743365287781 255 127 0
-0.8117743730545044 0.5394229888916016 0.2237076461315155 255 127 0
-0.8222993612289429 0.5260584950447083 0.21699348092079163 255 127 0
-0.8645840287208557 0.46158304810523987 0.19858410954475403 255 127 0
-0.8884068727493286 0.4414456784725189 0.12593196332454681 255 127 0
-0.9188384413719177 0.38224899768829346 0.09809022396802902 255 127 0
-0.9381252527236938 0.3437515199184418 0.041901979595422745 255 127 0
-0.9637337923049927 0.2622573971748352 0.04937838017940521 255 127 0
-0.9540602564811707 0.2950466573238373 0.05212007835507393 255 127 0
-0.9467737078666687 0.30906498432159424 0.08999146521091461 255 127 0
-0.9558941721916199 0.27696719765663147 0.09775281697511673 255 127 0
-0.9567709565162659 0.27897241711616516 0.08224155753850937 255 127 0
-0.9580843448638916 0.2810555696487427 0.05551772192120552 255 127 0
-0.9460471868515015 0.3156651556491852 0.07314454764127731 255 127 0
-0.9132820963859558 0.38526225090026855 0.1322452574968338 255 127 0
-0.770733654499054 0.6047064065933228 0.20074796676635742 255 127 0
-0.8975384831428528 0.42409583926200867 0.12069544196128845 255 127 0
0.032494526356458664 0.9357609152793884 0.3511348366737366 255 127 0
-0.2357986569404602 0.44685056805610657 0.8629736304283142 255 127 0
0.015805358067154884 0.7952156662940979 0.6061205863952637 255 127 0
0.10705680400133133 0.7864223718643188 0.6083409190177917 255 127 0
0.15637759864330292 0.8112994432449341 0.5633286833763123 255 127 0
0.2011970430612564 0.7817087173461914 0.5902976393699646 255 127 0
0.2411702573299408 0.7619474530220032 0.6010598540306091 255 127 0
0.32866954803466797 0.7438929677009583 0.5818930864334106 255 127 0
0.3619160056114197 0.7330940961837769 0.5758383870124817 255 127 0
0.34596094489097595 0.7205366492271423 0.6009474992752075 255 127 0
0.3480210304260254 0.7074863910675049 0.6150971055030823 255 127 0
0.3737570643424988 0.6809065341949463 0.6298189163208008 255 127 0
0.36189109086990356 0.70538729429245 0.6094781756401062 255 127 0
0.37448373436927795 0.708838701248169 0.5977538228034973 255 127 0
0.4187082052230835 0.6589478254318237 0.6248769760131836 255 127 0
0.3705194294452667 0.7011139988899231 0.6092243790626526 255 127 0
0.38877245783805847 0.6626980900764465 0.6400681734085083 255 127 0
0.4125240445137024 0.6594141721725464 0.6284878253936768 255 127 0
0.39353105425834656 0.6783832907676697 0.6204267144203186 255 127 0
0.4223392903804779 0.6794159412384033 0.6000195145606995 255 127 0
0.44907331466674805 0.6674488186836243 0.5940078496932983 255 127 0
0.5016996264457703 0.653204619884491 0.5671166181564331 255 127 0
0.5054125189781189 0.6525098085403442 0.5646141171455383 255 127 0
0.49357834458351135 0.6420362591743469 0.5866599678993225 255 127 0
0.5114098191261292 0.6184664964675903 0.5966230630874634 255 127 0
0.5447912812232971 0.5996723771095276 0.5861701965332031 255 127 0
0.5201286673545837 0.615156352519989 0.5924937725067139 255 127 0
0.5587498545646667 0.6193518042564392 0.5515450239181519 255 127 0
0.5117067098617554 0.632787823677063 0.5811504125595093 255 127 0
0.4980819821357727 0.6625394821166992 0.5594245791435242 255 127 0
0.5521596670150757 0.6162139177322388 0.5616049766540527 255 127 0
0.5428776741027832 0.6156708598136902 0.5711683630943298 255 127 0
0.5520422458648682 0.5924803018569946 0.5866995453834534 255 127 0
0.5763598084449768 0.5531429648399353 0.6015332937240601 255 127 0
0.524030327796936 0.5944814085960388 0.6099048852920532 255 127 0
0.4524981379508972 0.6738744378089905 0.5840707421302795 255 127 0
0.43820440769195557 0.6732825636863708 0.5955395698547363 255 127 0
0.36252617835998535 0.7233375310897827 0.5876712799072266 255 127 0
0.39407670497894287 0.7267230153083801 0.5626519918441772 255 127 0
0.3535614311695099 0.7615253925323486 0.543206512928009 255 127 0
0.36195847392082214 0.7547726035118103 0.5470871329307556 255 127 0
0.42041894793510437 0.7159643769264221 0.5573534369468689 255 127 0
0.4583170711994171 0.6859296560287476 0.5651954412460327 255 127 0
