ply
format ascii 1.0
element vertex 713
property float x
property float y
property float z
property uchar red
property uchar green
property uchar blue
end_header
0.637025773525238 0.5638415813446045 0.5256242752075195 0 0 255
0.6148895025253296 0.6008036136627197 0.5108286142349243 0 0 255
0.6153036952018738 0.619873583316803 0.48698872327804565 0 0 255
0.5924283862113953 0.651893675327301 0.4733533263206482 0 0 255
0.5958383083343506 0.6582055687904358 0.46015453338623047 0 0 255
0.5764773488044739 0.6515288949012756 0.49313679337501526 0 0 255
0.5521669983863831 0.6701207756996155 0.49603405594825745 0 0 255
0.5332279801368713 0.7091805338859558 0.4612275958061218 0 0 255
0.5317481160163879 0.6774898171424866 0.5081844925880432 0 0 255
0.5517481565475464 0.6515089273452759 0.5206823945045471 0 0 255
0.6374536156654358 0.44410547614097595 0.6296215057373047 0 0 255
0.6878659725189209 0.3599476218223572 0.630299985408783 0 0 255
0.6057752966880798 0.05128651484847069 0.79398113489151 0 0 255
0.523810863494873 -0.030949357897043228 0.8512722253799438 0 0 255
0.5728497505187988 -0.003390811150893569 0.8196534514427185 0 0 255
0.6406059265136719 -0.005448175594210625 0.767850399017334 0 0 255
0.6867483258247375 -0.0018814817303791642 0.7268928289413452 0 0 255
0.7044951319694519 -0.004852223210036755 0.7096923589706421 0 0 255
0.7256903052330017 -0.059126462787389755 0.6854761838912964 0 0 255
0.6866554021835327 -0.08247394114732742 0.7222896814346313 0 0 255
0.7116478085517883 -0.08058150112628937 0.6978997588157654 0 0 255
0.720771312713623 -0.0827435627579689 0.6882167458534241 0 0 255
0.7804206609725952 -0.004039139486849308 0.625241756439209 0 0 255
0.8163245320320129 -0.003085341304540634 0.5775852203369141 0 0 255
0.8184365034103394 -0.002629312686622143 0.5745909810066223 0 0 255
0.8201517462730408 -0.012990927323698997 0.5719984769821167 0 0 255
0.8248851895332336 0.06748979538679123 0.5612571239471436 0 0 255
0.833566427230835 0.12359031289815903 0.5384166836738586 0 0 255
0.8410378694534302 0.18877282738685608 0.5069714784622192 0 0 255
0.8427953720092773 0.23075993359088898 0.48625698685646057 0 0 255
0.8294344544410706 0.2663942575454712 0.4909915030002594 0 0 255
0.8357675671577454 0.3110029995441437 0.45251497626304626 0 0 255
0.831663966178894 0.3679749667644501 0.4158477783203125 0 0 255
0.8469414710998535 0.40199652314186096 0.347978413105011 0 0 255
0.853854775428772 0.4282584488391876 0.2958492636680603 0 0 255
0.8687819838523865 0.42853909730911255 0.2481372356414795 0 0 255
0.8780089020729065 0.3943258821964264 0.2713070511817932 0 0 255
0.8871222734451294 0.3674876093864441 0.2792254388332367 0 0 255
0.8862282633781433 0.34017565846443176 0.3144518733024597 0 0 255
0.8584548234939575 0.34499263763427734 0.379520058631897 0 0 255
0.8431420922279358 0.36756035685539246 0.3924421966075897 0 0 255
0.8410393595695496 0.37655019760131836 0.38841065764427185 0 0 255
0.8561750054359436 0.3753378093242645 0.35508570075035095 0 0 255
0.8571138381958008 0.3907734453678131 0.3356364965438843 0 0 255
0.8556485772132874 0.3921607434749603 0.337750643491745 0 0 255
0.8544202446937561 0.39837202429771423 0.33356523513793945 0 0 255
0.8493477702140808 0.4073140025138855 0.33571362495422363 0 0 255
0.8503059148788452 0.40787792205810547 0.3325890004634857 0 0 255
0.852512001991272 0.46233198046684265 0.24386975169181824 0 0 255
0.8443936705589294 0.48812219500541687 0.22076232731342316 0 0 255
0.8707218170166016 0.4342179000377655 0.23086434602737427 0 0 255
0.881193995475769 0.39599645137786865 0.25823232531547546 0 0 255
0.8948779106140137 0.32965919375419617 0.300862580537796 0 0 255
0.9079276919364929 0.23299942910671234 0.34839415550231934 0 0 255
0.9380282163619995 0.12455038726329803 0.3234039843082428 0 0 255
0.9409343004226685 0.07275353372097015 0.3306804299354553 0 0 255
0.9275444746017456 0.10605592280626297 0.35834822058677673 0 0 255
0.8737491965293884 0.09597672522068024 0.47681325674057007 0 0 255
0.8245214819908142 0.0735333263874054 0.5610321760177612 0 0 255
0.7208381295204163 0.06377731263637543 0.6901628375053406 0 0 255
0.30486786365509033 -0.000607095833402127 0.952394425868988 0 0 255
0.13028456270694733 0.17549444735050201 0.9758214950561523 0 0 255
-0.6582257747650146 0.04039754718542099 0.7517359852790833 0 0 255
-0.9674631357192993 0.017963310703635216 0.25237351655960083 0 0 255
-0.9339175820350647 -0.11635258048772812 0.33802366256713867 0 0 255
-0.9220461249351501 -0.19949191808700562 0.3317136764526367 0 0 255
-0.8963473439216614 -0.3393552303314209 0.2853059768676758 0 0 255
-0.9425198435783386 -0.20459246635437012 0.26419371366500854 0 0 255
-0.9382609128952026 -0.3409635126590729 -0.05839753895998001 0 0 255
-0.9846957325935364 -0.12920071184635162 -0.11696814000606537 0 0 255
-0.9676806330680847 -0.2496463805437088 0.03564881905913353 0 0 255
-0.9401280283927917 -0.3408186733722687 0.0013383447658270597 0 0 255
-0.9764707088470459 -0.21349312365055084 0.030424246564507484 0 0 255
-0.9838144183158875 -0.17057640850543976 -0.05488942191004753 0 0 255
-0.9954365491867065 -0.06936021894216537 -0.06553823500871658 0 0 255
-0.9970057010650635 0.04080270230770111 -0.06568657606840134 0 0 255
-0.9436312317848206 -0.16203166544437408 -0.288627564907074 0 0 255
-0.9029998183250427 -0.36115026473999023 -0.23272687196731567 0 0 255
-0.49124202132225037 -0.7568075060844421 -0.43118876218795776 0 0 255
-0.16318313777446747 -0.9117035865783691 -0.3770516514778137 0 0 255
-0.019298944622278214 -0.9267618060112 -0.37515348196029663 0 0 255
0.1881668120622635 -0.8298254013061523 -0.5253407955169678 0 0 255
0.4394146800041199 -0.6636462807655334 -0.6053828597068787 0 0 255
0.2605544328689575 -0.7827602028846741 -0.5651529431343079 0 0 255
0.017516689375042915 -0.8485189080238342 -0.5288750529289246 0 0 255
-0.22937729954719543 -0.9276120066642761 -0.2948254346847534 0 0 255
-0.27677351236343384 -0.9463105201721191 -0.16701112687587738 0 0 255
-0.40710684657096863 -0.8521289229393005 -0.3288467526435852 0 0 255
-0.5995299220085144 -0.7028248906135559 -0.3828853666782379 0 0 255
-0.7491012215614319 -0.6093864440917969 -0.25979918241500854 0 0 255
-0.795536458492279 -0.6009583473205566 0.07727058231830597 0 0 255
-0.7642359733581543 -0.6408793926239014 0.07222910225391388 0 0 255
-0.7982012629508972 -0.5385595560073853 0.26986703276634216 0 0 255
-0.5425352454185486 -0.5425806045532227 0.6412969827651978 0 0 255
-0.4263465702533722 -0.5549768209457397 0.7143033742904663 0 0 255
-0.45772191882133484 -0.3895602822303772 0.7992079854011536 0 0 255
-0.19484828412532806 -0.3037590980529785 0.9326116442680359 0 0 255
0.009436182677745819 -0.25083646178245544 0.9679834842681885 0 0 255
-0.04688498377799988 -0.169478178024292 0.9844180941581726 0 0 255
0.11749149113893509 -0.07093138992786407 0.9905374646186829 0 0 255
0.519460916519165 0.019045786932110786 0.8542819023132324 0 0 255
0.6924561262130737 0.24211913347244263 0.6796196103096008 0 0 255
0.749299168586731 0.2669922411441803 0.6060246229171753 0 0 255
0.6583854556083679 0.4018726944923401 0.6364172101020813 0 0 255
0.636298656463623 0.5614129900932312 0.5290930867195129 0 0 255
0.35767483711242676 0.7856618165969849 0.5047813057899475 0 0 255
0.43871596455574036 0.8415161371231079 0.3152441084384918 0 0 255
0.7353895306587219 0.6522048115730286 0.18393243849277496 0 0 255
0.8444470763206482 0.49608689546585083 0.2020072042942047 0 0 255
0.8915206789970398 0.33174753189086914 0.30843889713287354 0 0 255
0.8764811158180237 0.24288463592529297 0.415677547454834 0 0 255
0.7730515599250793 0.2079845666885376 0.5992776155471802 0 0 255
0.7020047307014465 -0.11445418745279312 0.7029151320457458 0 0 255
0.25194770097732544 -0.4659876227378845 0.8481614589691162 0 0 255
0.15922194719314575 -0.5782936811447144 0.8001405596733093 0 0 255
-0.10697384178638458 -0.7676728963851929 0.6318504214286804 0 0 255
-0.6024569272994995 -0.49254104495048523 0.6280517578125 0 0 255
-0.5341026186943054 -0.5195190906524658 0.6669589877128601 0 0 255
-0.6160989999771118 -0.4733720123767853 0.6295561790466309 0 0 255
-0.6689479947090149 -0.4910922646522522 0.5579757690429688 0 0 255
-0.744278073310852 -0.5295458436012268 0.40697816014289856 0 0 255
-0.7465998530387878 -0.5652291774749756 0.3508625626564026 0 0 255
-0.6887806057929993 -0.5994713306427002 0.4076952338218689 0 0 255
-0.6948947310447693 -0.6419054865837097 0.324158251285553 0 0 255
-0.7489585280418396 -0.5775894522666931 0.32473310828208923 0 0 255
-0.7793086767196655 -0.4762837886810303 0.4072243571281433 0 0 255
-0.7746617197990417 -0.5850841999053955 0.2399493008852005 0 0 255
-0.8283857703208923 -0.4917438328266144 0.2682630717754364 0 0 255
-0.8504922389984131 -0.4545077085494995 0.26473695039749146 0 0 255
-0.8779223561286926 -0.3129080533981323 0.36240988969802856 0 0 255
-0.9110327959060669 -0.31616559624671936 0.2646857798099518 0 0 255
-0.9013011455535889 -0.41843223571777344 0.11211927235126495 0 0 255
-0.8637749552726746 -0.4790116846561432 0.15633469820022583 0 0 255
-0.7579085230827332 -0.44452962279319763 0.47745996713638306 0 0 255
-0.4793599247932434 -0.7936125993728638 0.37469056248664856 0 0 255
-0.7280475497245789 -0.06735274940729141 0.682209849357605 0 0 255
-0.9584009051322937 0.08409129828214645 0.27275723218917847 0 0 255
-0.7600849270820618 0.6224767565727234 -0.18653053045272827 0 0 255
-0.2742568850517273 0.9479967355728149 -0.16151006519794464 0 0 255
-0.1431719958782196 0.9800903797149658 -0.13756659626960754 0 0 255
-0.13066181540489197 0.9364809989929199 -0.3254701495170593 0 0 255
-0.10212337225675583 0.9222167134284973 -0.37294408679008484 0 0 255
0.1199469342827797 0.8411720395088196 -0.5272971987724304 0 0 255
0.35354307293891907 0.757648766040802 -0.5486125349998474 0 0 255
0.3649638891220093 0.7567893266677856 -0.5422834157943726 0 0 255
0.06835068762302399 0.8018524050712585 -0.5935999751091003 0 0 255
-0.5065800547599792 0.7037741541862488 -0.49807485938072205 0 0 255
-0.4752013385295868 0.7120108604431152 -0.516937255859375 0 0 255
-0.1508844792842865 0.6380226612091064 -0.7550899982452393 0 0 255
0.5601431727409363 0.6603894233703613 -0.5001253485679626 0 0 255
0.7421934604644775 0.6421805620193481 -0.19171059131622314 0 0 255
0.6480491161346436 0.7601501941680908 0.04694667086005211 0 0 255
0.42261579632759094 0.8933842778205872 0.1525132954120636 0 0 255
0.06586593389511108 0.9944215416908264 0.08238665014505386 0 0 255
-0.16702605783939362 0.9835838079452515 -0.06830184161663055 0 0 255
-0.5070527195930481 0.826127827167511 0.2457852065563202 0 0 255
-0.4419723153114319 0.6279283761978149 0.640598475933075 0 0 255
-0.6486853957176208 0.26664069294929504 0.712818443775177 0 0 255
-0.33504191040992737 0.6356706023216248 0.6954637169837952 0 0 255
0.603140115737915 0.5748929381370544 0.5529196858406067 0 0 255
0.5687124729156494 0.6461886763572693 0.5089265704154968 0 0 255
0.13587571680545807 0.8448807597160339 0.5174111723899841 0 0 255
-0.13249260187149048 0.9401689171791077 0.3138920068740845 0 0 255
0.11246269941329956 0.9170723557472229 0.3825315535068512 0 0 255
0.4064004719257355 0.8574202060699463 0.3157043159008026 0 0 255
0.3390178680419922 0.8741846680641174 0.34766077995300293 0 0 255
0.18005861341953278 0.9343045949935913 0.3076586127281189 0 0 255
-0.030665183439850807 0.994940459728241 0.09567229449748993 0 0 255
0.18454091250896454 0.9822543263435364 0.033482227474451065 0 0 255
0.3429066240787506 0.9279288053512573 -0.14616148173809052 0 0 255
0.4018349051475525 0.9122170209884644 -0.07992996275424957 0 0 255
0.46194034814834595 0.875990092754364 0.13875354826450348 0 0 255
0.5424025654792786 0.835089921951294 0.09178411960601807 0 0 255
0.579396665096283 0.8111111521720886 0.07998806983232498 0 0 255
0.5922312140464783 0.7942429184913635 0.1357952505350113 0 0 255
0.5048244595527649 0.846858561038971 0.16728085279464722 0 0 255
0.46887269616127014 0.8620678782463074 0.1923469454050064 0 0 255
0.43701693415641785 0.8503245711326599 0.2931967079639435 0 0 255
0.46228280663490295 0.8458113074302673 0.2662665545940399 0 0 255
0.48867693543434143 0.8468780517578125 0.20974351465702057 0 0 255
0.5811280012130737 0.7882928848266602 0.20219947397708893 0 0 255
0.5951681137084961 0.7626230716705322 0.253339558839798 0 0 255
0.6061124205589294 0.748046338558197 0.27028560638427734 0 0 255
0.6198020577430725 0.7193952202796936 0.31355398893356323 0 0 255
0.6575220823287964 0.6697579622268677 0.3450925648212433 0 0 255
0.6822709441184998 0.6353359818458557 0.36173829436302185 0 0 255
0.46003133058547974 0.7813129425048828 0.4218069314956665 0 0 255
-0.8101460337638855 0.39007025957107544 0.43761682510375977 0 0 255
-0.9649154543876648 -0.06405793130397797 0.25462695956230164 0 0 255
-0.9625189900398254 -0.2046060860157013 0.1780269742012024 0 0 255
-0.949686586856842 -0.281777948141098 0.13673508167266846 0 0 255
-0.9252712726593018 -0.2739877700805664 0.2623045742511749 0 0 255
-0.9478154182434082 -0.13877630233764648 0.2870314121246338 0 0 255
-0.9585457444190979 -0.14252504706382751 0.24673190712928772 0 0 255
-0.9389314651489258 -0.052588459104299545 0.34006211161613464 0 0 255
-0.9334065318107605 -0.010670734569430351 0.358661949634552 0 0 255
-0.8829809427261353 -0.04037237539887428 0.4676695168018341 0 0 255
-0.8839067220687866 -0.015982357785105705 0.4673900008201599 0 0 255
-0.9071201682090759 0.05309811234474182 0.4175087511539459 0 0 255
-0.9408475756645203 -0.06454715132713318 0.33262524008750916 0 0 255
-0.8669283986091614 0.03539365530014038 0.49717435240745544 0 0 255
-0.8449962735176086 -0.07749607414007187 0.5291271805763245 0 0 255
-0.809087336063385 -0.13668668270111084 0.5715717673301697 0 0 255
-0.6338920593261719 -0.3774062693119049 0.6750891208648682 0 0 255
-0.5069226622581482 -0.4089706540107727 0.7587966918945312 0 0 255
-0.4049829840660095 -0.48235762119293213 0.7767366170883179 0 0 255
-0.40854230523109436 -0.5563421845436096 0.7235859036445618 0 0 255
-0.3669493794441223 -0.6297162175178528 0.6846938729286194 0 0 255
-0.22638173401355743 -0.594499945640564 0.77157062292099 0 0 255
-0.04747239500284195 -0.6101219058036804 0.7908840775489807 0 0 255
0.07456200569868088 -0.4974402189254761 0.8642880320549011 0 0 255
0.0915011391043663 -0.5213740468025208 0.8484083414077759 0 0 255
0.2617771625518799 -0.45059579610824585 0.8534847497940063 0 0 255
0.5070479512214661 -0.2695966362953186 0.8186697363853455 0 0 255
0.6124593615531921 -0.00045232122647576034 0.7905020117759705 0 0 255
0.5830322504043579 0.30869752168655396 0.7515180110931396 0 0 255
0.5527990460395813 0.4599991738796234 0.6948482394218445 0 0 255
0.5567043423652649 0.5945153832435608 0.5801997780799866 0 0 255
0.5647915601730347 0.671109139919281 0.4802323579788208 0 0 255
0.5753295421600342 0.6746656894683838 0.46240901947021484 0 0 255
0.5937988758087158 0.6571183800697327 0.4643256962299347 0 0 255
0.5913752317428589 0.6720982789993286 0.445599764585495 0 0 255
0.5845673680305481 0.7143762707710266 0.3846395015716553 0 0 255
0.5557042360305786 0.7239561080932617 0.4087545573711395 0 0 255
0.4876115620136261 0.7697497606277466 0.41197124123573303 0 0 255
0.44149234890937805 0.7976498603820801 0.4109005033969879 0 0 255
0.40487000346183777 0.8278157114982605 0.38833174109458923 0 0 255
0.3587437570095062 0.8770433068275452 0.31952789425849915 0 0 255
0.32705047726631165 0.9181811809539795 0.2235650271177292 0 0 255
0.3140091001987457 0.9418792724609375 0.11942286044359207 0 0 255
0.34845995903015137 0.9202654361724854 0.17800886929035187 0 0 255
0.30405548214912415 0.9180838465690613 0.25430768728256226 0 0 255
0.2161966860294342 0.9208196997642517 0.32457655668258667 0 0 255
0.22628189623355865 0.9126242995262146 0.34046056866645813 0 0 255
0.22747446596622467 0.927524983882904 0.29656851291656494 0 0 255
0.2533617913722992 0.9177770614624023 0.30576616525650024 0 0 255
0.2864243984222412 0.8879523277282715 0.35986363887786865 0 0 255
0.38647353649139404 0.8443098068237305 0.37118619680404663 0 0 255
0.3606926202774048 0.8360183835029602 0.4134901762008667 0 0 255
0.23015154898166656 0.9427242279052734 0.24145667254924774 0 0 255
0.19496317207813263 0.9651781916618347 0.17441445589065552 0 0 255
0.21738943457603455 0.9522976875305176 0.21417494118213654 0 0 255
0.1782500147819519 0.9687851667404175 0.1722853183746338 0 0 255
0.22370323538780212 0.9509175419807434 0.21380530297756195 0 0 255
0.23507161438465118 0.955379068851471 0.17886337637901306 0 0 255
0.10994593799114227 0.9852044582366943 0.1314687430858612 0 0 255
0.10225365310907364 0.994504451751709 0.022476479411125183 0 0 255
0.27310794591903687 0.9615524411201477 0.0287923663854599 0 0 255
0.4503127336502075 0.8841812610626221 0.12426543980836868 0 0 255
0.5906866192817688 0.7770817279815674 0.2173321396112442 0 0 255
0.6468744277954102 0.6954490542411804 0.312896192073822 0 0 255
0.7002997994422913 0.6389104723930359 0.31839224696159363 0 0 255
0.648027777671814 0.705847978591919 0.28607457876205444 0 0 255
0.5992526412010193 0.7216609120368958 0.3465569019317627 0 0 255
0.5496370792388916 0.7548099160194397 0.35799601674079895 0 0 255
0.5465409755706787 0.679588794708252 0.48933830857276917 0 0 255
0.3180634081363678 0.6352571845054626 0.7037641406059265 0 0 255
-0.8862442374229431 0.11769813299179077 0.44801607728004456 0 0 255
-0.8854232430458069 -0.28635820746421814 0.36609381437301636 0 0 255
-0.7339774966239929 -0.6640974879264832 0.14230839908123016 0 0 255
-0.8636199235916138 -0.5008163452148438 -0.05782333388924599 0 0 255
-0.8807225823402405 -0.45128658413887024 0.14376462996006012 0 0 255
-0.9253748655319214 -0.37481749057769775 0.05650918558239937 0 0 255
-0.8640689849853516 -0.4904014468193054 0.11353915184736252 0 0 255
-0.8527120351791382 -0.5085059404373169 0.11959919333457947 0 0 255
-0.8002795577049255 -0.520646870136261 0.29745516180992126 0 0 255
-0.8496436476707458 -0.4325629770755768 0.30165359377861023 0 0 255
-0.8309003114700317 -0.4633401930332184 0.3080916404724121 0 0 255
-0.83418869972229 -0.47924861311912537 0.27285507321357727 0 0 255
-0.8355451226234436 -0.44941678643226624 0.3160518407821655 0 0 255
-0.7971695065498352 -0.49482494592666626 0.34593236446380615 0 0 255
-0.8149292469024658 -0.4885700047016144 0.31175264716148376 0 0 255
-0.7893387675285339 -0.5348334908485413 0.3014920949935913 0 0 255
-0.7628864645957947 -0.5430532097816467 0.35085245966911316 0 0 255
-0.7535021305084229 -0.5740169286727905 0.32052960991859436 0 0 255
-0.7565991282463074 -0.5582513809204102 0.340459942817688 0 0 255
-0.7776565551757812 -0.5778534412384033 0.24766047298908234 0 0 255
-0.7795964479446411 -0.575694739818573 0.24658678472042084 0 0 255
-0.7512733936309814 -0.5860744714736938 0.3034881353378296 0 0 255
-0.8480646014213562 -0.4917813837528229 0.19732609391212463 0 0 255
-0.872645914554596 -0.46306276321411133 0.15511935949325562 0 0 255
-0.9085168242454529 -0.41022440791130066 0.07945512980222702 0 0 255
-0.8971042037010193 -0.42688971757888794 0.11388203501701355 0 0 255
-0.9082225561141968 -0.4155140221118927 0.049798671156167984 0 0 255
-0.9032511115074158 -0.42797455191612244 0.031229622662067413 0 0 255
-0.9138582944869995 -0.3991478979587555 0.07445871084928513 0 0 255
-0.9463960528373718 -0.3225157558917999 0.01783731020987034 0 0 255
-0.9464110136032104 -0.3228340744972229 0.009184540249407291 0 0 255
-0.9498124718666077 -0.311119943857193 0.032568689435720444 0 0 255
-0.9492266178131104 -0.313907653093338 0.020754791796207428 0 0 255
-0.9392774105072021 -0.343052476644516 -0.008537126705050468 0 0 255
-0.9155239462852478 -0.39698323607444763 0.06496301293373108 0 0 255
-0.9132483005523682 -0.3782937228679657 0.15123295783996582 0 0 255
-0.9375636577606201 -0.34387317299842834 0.05220777168869972 0 0 255
-0.8646063804626465 -0.4939456582069397 0.09205158799886703 0 0 255
-0.6616989970207214 -0.7479943037033081 -0.05156474560499191 0 0 255
-0.6844609379768372 -0.7044390439987183 0.18782685697078705 0 0 255
-0.7585068345069885 -0.621777355670929 0.195090651512146 0 0 255
-0.6116076707839966 -0.7155429720878601 0.3375415802001953 0 0 255
-0.44136062264442444 -0.7642343044281006 0.47026246786117554 0 0 255
-0.5057313442230225 -0.7052369117736816 0.496866911649704 0 0 255
-0.5293300151824951 -0.8298795819282532 0.17637920379638672 0 0 255
-0.3688119947910309 -0.8980472087860107 0.23976853489875793 0 0 255
-0.511479914188385 -0.8201811909675598 0.2563028037548065 0 0 255
-0.6177084445953369 -0.7095831036567688 0.3390105366706848 0 0 255
-0.557715117931366 -0.7102557420730591 0.42952364683151245 0 0 255
-0.7754174470901489 -0.5801505446434021 0.2493053823709488 0 0 255
-0.8245044350624084 0.5041089653968811 0.25703415274620056 0 0 255
-0.6847522258758545 0.09942904859781265 0.721961498260498 0 0 255
-0.9550250768661499 -0.2627737522125244 -0.13739368319511414 0 0 255
-0.9822783470153809 -0.16711388528347015 0.08486594259738922 0 0 255
-0.9755809307098389 -0.21217823028564453 0.05676507204771042 0 0 255
-0.9650135040283203 -0.23409691452980042 -0.118099145591259 0 0 255
-0.9940934777259827 0.09414548426866531 -0.05398883298039436 0 0 255
-0.8699062466621399 0.4930582642555237 -0.012519779615104198 0 0 255
-0.36654528975486755 0.8321693539619446 -0.4160994291305542 0 0 255
0.03859970346093178 0.6771314740180969 -0.7348489761352539 0 0 255
0.47067052125930786 0.8215194940567017 -0.321830689907074 0 0 255
0.6914308667182922 0.7074112296104431 -0.1466042697429657 0 0 255
0.6233063340187073 0.7818242311477661 0.015496612526476383 0 0 255
0.6282075643539429 0.7755024433135986 -0.06285914778709412 0 0 255
0.7505543231964111 0.6427042484283447 -0.15362107753753662 0 0 255
0.5945770740509033 0.791096031665802 -0.14368416368961334 0 0 255
0.4641771614551544 0.7761704921722412 -0.42673051357269287 0 0 255
0.51344895362854 0.7820223569869995 -0.3532862067222595 0 0 255
0.5661450028419495 0.7452887296676636 -0.35217124223709106 0 0 255
0.41544198989868164 0.9095108509063721 -0.014066771604120731 0 0 255
-0.299500972032547 0.95182865858078 -0.06573763489723206 0 0 255
0.23744043707847595 0.9213289618492126 -0.3078555464744568 0 0 255
0.6420074701309204 0.7356997132301331 -0.21580614149570465 0 0 255
0.6898977160453796 0.7168358564376831 -0.10093265026807785 0 0 255
0.566841185092926 0.7716785073280334 0.2884500026702881 0 0 255
0.4584489166736603 0.845950722694397 0.27238214015960693 0 0 255
0.10814949870109558 0.994100034236908 0.008289703167974949 0 0 255
-0.0841306522488594 0.979146420955658 -0.18491697311401367 0 0 255
-0.0554807074368 0.9929020404815674 -0.10520199686288834 0 0 255
-0.3062521517276764 0.9167943000793457 0.2563157081604004 0 0 255
-0.5640242099761963 0.3657011389732361 0.7403643727302551 0 0 255
-0.4122563302516937 0.1911102682352066 0.8907983303070068 0 0 255
-0.09379023313522339 0.4628249704837799 0.8814740777015686 0 0 255
0.061333611607551575 0.4104178845882416 0.9098325967788696 0 0 255
0.2576846778392792 0.6033989787101746 0.7546576857566833 0 0 255
0.5722500681877136 0.5141483545303345 0.6388906240463257 0 0 255
0.6508747339248657 0.46302199363708496 0.6016417145729065 0 0 255
0.6625367403030396 0.45820990204811096 0.5925275087356567 0 0 255
0.6902492046356201 0.5117175579071045 0.5115672945976257 0 0 255
0.7940877079963684 0.43308719992637634 0.42645063996315 0 0 255
0.8441406488418579 0.3838915526866913 0.37423762679100037 0 0 255
0.8840031027793884 0.33015668392181396 0.3309608995914459 0 0 255
0.9030302166938782 0.32688668370246887 0.27871420979499817 0 0 255
0.9404163956642151 0.2334279716014862 0.2472415715456009 0 0 255
0.9609706401824951 0.1431732326745987 0.23672103881835938 0 0 255
0.9600340127944946 0.09979847818613052 0.261486291885376 0 0 255
0.9610611200332642 0.057062070816755295 0.2703801393508911 0 0 255
0.9594346880912781 -0.03220752999186516 0.2800852656364441 0 0 255
0.9461112022399902 -0.07912204414606094 0.3140273094177246 0 0 255
0.9126003384590149 -0.15222027897834778 0.3794596195220947 0 0 255
0.8848832249641418 -0.15097709000110626 0.4406673014163971 0 0 255
0.8058457970619202 -0.21736451983451843 0.550786018371582 0 0 255
0.7382030487060547 -0.24713660776615143 0.6276780366897583 0 0 255
0.6469380259513855 -0.3137354552745819 0.6950116753578186 0 0 255
0.1526825726032257 -0.4546508193016052 0.877485454082489 0 0 255
-0.4008180499076843 -0.38225051760673523 0.8326039910316467 0 0 255
-0.6152198910713196 -0.4038054943084717 0.6770861148834229 0 0 255
-0.8556870222091675 -0.3339220881462097 0.39534246921539307 0 0 255
-0.8949637413024902 -0.172342449426651 0.4115069806575775 0 0 255
-0.9173321723937988 -0.2767331600189209 0.2862173616886139 0 0 255
-0.9424444437026978 -0.25813359022140503 0.21252185106277466 0 0 255
-0.9519188404083252 -0.1495809257030487 0.2673499286174774 0 0 255
-0.924468457698822 -0.23243442177772522 0.3022122085094452 0 0 255
-0.9425534009933472 -0.10257261991500854 0.3179180920124054 0 0 255
-0.920875608921051 -0.2517988681793213 0.29763302206993103 0 0 255
-0.9300378561019897 -0.0464039221405983 0.3645220100879669 0 0 255
-0.8312383890151978 -0.11237276345491409 0.5444402694702148 0 0 255
-0.4685195982456207 0.26705625653266907 0.842122495174408 0 0 255
-0.048998791724443436 0.2628728747367859 0.9635854363441467 0 0 255
-0.029480258002877235 0.2105046659708023 0.9771482348442078 0 0 255
0.27329978346824646 0.17497818171977997 0.9458804726600647 0 0 255
0.5930806994438171 0.3817976117134094 0.7088624238967896 0 0 255
0.7432054877281189 0.33082208037376404 0.5815516114234924 0 0 255
0.7349374294281006 0.25910523533821106 0.6266828775405884 0 0 255
0.7027983069419861 0.2864028215408325 0.6511897444725037 0 0 255
0.6736952066421509 0.3711600601673126 0.6390422582626343 0 0 255
0.7242662310600281 0.3419996201992035 0.5987276434898376 0 0 255
0.653262734413147 0.3937545716762543 0.6466878652572632 0 0 255
0.6321702599525452 0.5224222540855408 0.5722200274467468 0 0 255
0.5292792916297913 0.7722398042678833 0.3514384925365448 0 0 255
0.4741613268852234 0.8047648668289185 0.3571057617664337 0 0 255
0.5078078508377075 0.7573467493057251 0.4105570614337921 0 0 255
0.5117350220680237 0.7408854961395264 0.43498948216438293 0 0 255
0.36855313181877136 0.7880343198776245 0.4931231439113617 0 0 255
0.19726470112800598 0.8383530378341675 0.5081839561462402 0 0 255
0.23686863481998444 0.7733899354934692 0.5880147218704224 0 0 255
-0.2272312343120575 0.6736502647399902 0.703250527381897 0 0 255
-0.25127702951431274 0.6455885767936707 0.7211624383926392 0 0 255
-0.5233224630355835 0.5473933219909668 0.6530652642250061 0 0 255
-0.43229585886001587 0.6252209544181824 0.6497838497161865 0 0 255
-0.37640470266342163 0.6941515803337097 0.6135740876197815 0 0 255
-0.314069926738739 0.872443437576294 0.37443622946739197 0 0 255
-0.09426086395978928 0.8914908766746521 0.44312408566474915 0 0 255
-0.13386112451553345 0.5821040272712708 0.8020200729370117 0 0 255
-0.15452924370765686 0.9622576832771301 0.2240106165409088 0 0 255
-0.3907504379749298 0.8536527156829834 0.34437069296836853 0 0 255
0.002053819363936782 0.9999937415122986 -0.0029022700618952513 0 0 255
0.1754249781370163 0.9462960362434387 -0.2715693414211273 0 0 255
0.7162312865257263 0.6526930332183838 -0.24699129164218903 0 0 255
0.8637683987617493 0.41003015637397766 -0.2928813397884369 0 0 255
0.898896336555481 0.41011375188827515 -0.1542467623949051 0 0 255
0.8899500370025635 0.4544444978237152 -0.038329917937517166 0 0 255
0.8111284375190735 0.5127543210983276 -0.28134265542030334 0 0 255
0.5579660534858704 0.7982903718948364 -0.22672954201698303 0 0 255
0.4431150555610657 0.7387273907661438 -0.5078689455986023 0 0 255
0.06918207556009293 0.9958826303482056 -0.0585792250931263 0 0 255
-0.789076566696167 0.19698281586170197 -0.5818557739257812 0 0 255
-0.9716292023658752 -0.057825397700071335 -0.22933170199394226 0 0 255
0.2165774405002594 -0.233819842338562 0.9478514790534973 0 0 255
0.41695019602775574 -0.20185522735118866 0.8862318992614746 0 0 255
0.6511515974998474 0.7563856244087219 -0.06230868399143219 0 0 255
0.665336549282074 0.7461816668510437 0.023243246600031853 0 0 255
0.6187465190887451 0.7755632400512695 -0.12511767446994781 0 0 255
0.6415151953697205 0.7667046785354614 -0.024944350123405457 0 0 255
0.570461630821228 0.8207793235778809 -0.02991410531103611 0 0 255
0.5446932315826416 0.8366807699203491 -0.057223737239837646 0 0 255
0.49384284019470215 0.8602883219718933 -0.12658320367336273 0 0 255
0.3589705228805542 0.8893787860870361 -0.2830999791622162 0 0 255
0.5062708854675293 0.8329246640205383 -0.2234417200088501 0 0 255
0.5464404821395874 0.8075664639472961 -0.22189897298812866 0 0 255
0.6114801168441772 0.7882310152053833 -0.06916619092226028 0 0 255
0.622370719909668 0.7616496086120605 -0.1804012507200241 0 0 255
0.5922470688819885 0.7776852250099182 -0.21082955598831177 0 0 255
0.607421875 0.7777673602104187 -0.1616060733795166 0 0 255
0.6612176299095154 0.7375533580780029 -0.1371360421180725 0 0 255
0.6550058722496033 0.7518924474716187 -0.07500080019235611 0 0 255
0.6402730941772461 0.7535790801048279 -0.14889255166053772 0 0 255
0.6293125748634338 0.77373868227005 -0.0727611854672432 0 0 255
0.6197613477706909 0.7830919623374939 -0.05160188302397728 0 0 255
0.5714096426963806 0.8186506628990173 0.05746318772435188 0 0 255
0.5080974698066711 0.8566729426383972 0.0891542062163353 0 0 255
0.5251874327659607 0.841403067111969 0.12735438346862793 0 0 255
0.5216094851493835 0.8227521777153015 0.2258370965719223 0 0 255
0.5277301669120789 0.8408447504043579 0.12033700197935104 0 0 255
0.5951639413833618 0.8005204796791077 0.07033374160528183 0 0 255
0.6615191102027893 0.7478483319282532 0.05581369996070862 0 0 255
0.5979917049407959 0.7991825342178345 0.06093517690896988 0 0 255
0.573920488357544 0.8181562423706055 0.03515145182609558 0 0 255
0.4831559360027313 0.8744598627090454 -0.04336237162351608 0 0 255
0.38499388098716736 0.9079376459121704 -0.16561686992645264 0 0 255
0.39531728625297546 0.9020700454711914 -0.17318709194660187 0 0 255
0.32921653985977173 0.9308373928070068 -0.15861313045024872 0 0 255
0.2577110230922699 0.9476534724235535 -0.18851478397846222 0 0 255
0.22270317375659943 0.9396255016326904 -0.2598218023777008 0 0 255
0.26115158200263977 0.932122528553009 -0.2508932650089264 0 0 255
0.2650754749774933 0.9342436194419861 -0.2385871559381485 0 0 255
0.2138357162475586 0.9438564777374268 -0.25181201100349426 0 0 255
0.24449683725833893 0.9324109554290771 -0.2661411464214325 0 0 255
0.300281286239624 0.8683114051818848 -0.3947991728782654 0 0 255
0.3719870448112488 0.8625231385231018 -0.3430444002151489 0 0 255
0.40581104159355164 0.83443284034729 -0.3728795349597931 0 0 255
0.2948884665966034 0.8688231110572815 -0.3977276682853699 0 0 255
0.28035780787467957 0.9098408222198486 -0.3059235215187073 0 0 255
0.26594188809394836 0.8984590172767639 -0.34935134649276733 0 0 255
0.054252609610557556 0.9073873162269592 -0.41677922010421753 0 0 255
0.03104865364730358 0.9054341912269592 -0.42334967851638794 0 0 255
0.05451688915491104 0.9052504897117615 -0.42136603593826294 0 0 255
0.01711556501686573 0.8725076913833618 -0.4883003830909729 0 0 255
-0.1077742725610733 0.7964146137237549 -0.5950700044631958 0 0 255
-0.22607766091823578 0.9454078674316406 -0.23471863567829132 0 0 255
-0.30645641684532166 0.911207377910614 -0.2752915024757385 0 0 255
-0.25236111879348755 0.8695826530456543 -0.4244288504123688 0 0 255
-0.1829112023115158 0.9369981288909912 -0.29762038588523865 0 0 255
-0.18788476288318634 0.9297321438789368 -0.3166978359222412 0 0 255
-0.13497303426265717 0.8849744200706482 -0.4456483721733093 0 0 255
-0.06574408710002899 0.8368626832962036 -0.5434505939483643 0 0 255
-0.11777062714099884 0.8009514808654785 -0.5870323181152344 0 0 255
-0.06535588204860687 0.6890408396720886 -0.7217695713043213 0 0 255
-0.014131077565252781 0.5601118206977844 -0.8282964825630188 0 0 255
-0.11370305716991425 0.5226656794548035 -0.8449214696884155 0 0 255
-0.13094721734523773 0.4081449806690216 -0.9034769535064697 0 0 255
-0.32729169726371765 0.302074670791626 -0.8953385353088379 0 0 255
-0.34478434920310974 0.351511687040329 -0.8703811168670654 0 0 255
-0.1164429783821106 0.44535067677497864 -0.8877520561218262 0 0 255
-0.18609867990016937 0.38484054803848267 -0.9040271043777466 0 0 255
-0.20079432427883148 0.3358742594718933 -0.9202554821968079 0 0 255
-0.19952034950256348 0.3270528316497803 -0.9237034916877747 0 0 255
-0.05658773332834244 0.2170436680316925 -0.9745203256607056 0 0 255
0.07122112065553665 0.09734493494033813 -0.9926990866661072 0 0 255
0.12322193384170532 0.15485692024230957 -0.9802223443984985 0 0 255
0.12774823606014252 0.2550632953643799 -0.9584482908248901 0 0 255
0.09514100849628448 0.12230328470468521 -0.9879220724105835 0 0 255
-0.08403895050287247 0.03165126591920853 -0.9959596395492554 0 0 255
-0.21896696090698242 0.1840469390153885 -0.9582171440124512 0 0 255
-0.10867323726415634 0.2822246253490448 -0.9531733393669128 0 0 255
-0.11571669578552246 0.22821548581123352 -0.9667096138000488 0 0 255
-0.16048438847064972 0.19681493937969208 -0.967216968536377 0 0 255
-0.18605685234069824 0.18475472927093506 -0.9650121927261353 0 0 255
-0.15201221406459808 0.039454005658626556 -0.9875908493995667 0 0 255
0.004448709078133106 0.024625573307275772 -0.9996868371963501 0 0 255
0.013733183965086937 0.011869403533637524 -0.9998352527618408 0 0 255
-0.14144593477249146 0.22187988460063934 -0.9647603034973145 0 0 255
-0.2338673174381256 0.25364330410957336 -0.9386006593704224 0 0 255
-0.17886582016944885 0.4132246971130371 -0.8928899168968201 0 0 255
-0.003445046255365014 0.5113995671272278 -0.8593361377716064 0 0 255
0.15786120295524597 0.33968907594680786 -0.9271953105926514 0 0 255
0.1278369277715683 0.2970772385597229 -0.9462572336196899 0 0 255
0.008187609724700451 0.28987419605255127 -0.9570297002792358 0 0 255
0.08493956923484802 0.2545626759529114 -0.9633187651634216 0 0 255
0.11083764582872391 0.21326766908168793 -0.9706862568855286 0 0 255
0.16921821236610413 0.3052746653556824 -0.9371086359024048 0 0 255
0.2010701596736908 0.291441410779953 -0.9352179765701294 0 0 255
0.22462579607963562 0.2317185252904892 -0.9464934468269348 0 0 255
0.15069304406642914 0.29011937975883484 -0.9450514912605286 0 0 255
0.03646032512187958 0.3284592032432556 -0.9438141584396362 0 0 255
-0.03536050766706467 0.30524712800979614 -0.9516164064407349 0 0 255
-0.013714199885725975 0.3212503492832184 -0.9468950629234314 0 0 255
-0.004419289063662291 0.21127815544605255 -0.9774159789085388 0 0 255
-0.17574796080589294 0.11112257093191147 -0.9781433343887329 0 0 255
-0.21725475788116455 0.011185617186129093 -0.976050853729248 0 0 255
-0.11987293511629105 -0.1911521553993225 -0.974213182926178 0 0 255
-0.0015302645042538643 -0.0071056862361729145 -0.9999735951423645 0 0 255
0.10911167412996292 0.18246762454509735 -0.9771387577056885 0 0 255
0.22230777144432068 0.29714176058769226 -0.9285935759544373 0 0 255
0.22440193593502045 0.20333075523376465 -0.9530479907989502 0 0 255
0.18612262606620789 0.07897456735372543 -0.9793474078178406 0 0 255
0.27812066674232483 0.18778932094573975 -0.9420105814933777 0 0 255
0.4196400046348572 0.150231271982193 -0.8951718807220459 0 0 255
0.38870733976364136 0.328357070684433 -0.8608648777008057 0 0 255
0.436393141746521 0.26292848587036133 -0.8604822158813477 0 0 255
0.4926689863204956 0.29983189702033997 -0.8169321417808533 0 0 255
0.3619382679462433 0.1871071606874466 -0.9132314324378967 0 0 255
0.3641848564147949 0.13257718086242676 -0.9218419790267944 0 0 255
0.419911652803421 0.24226593971252441 -0.8746321797370911 0 0 255
0.408075213432312 0.2759436070919037 -0.870246946811676 0 0 255
0.4160669445991516 0.28602856397628784 -0.8631778359413147 0 0 255
0.4542549252510071 0.31374624371528625 -0.833795964717865 0 0 255
0.4992087483406067 0.20215144753456116 -0.8425706624984741 0 0 255
0.4682256579399109 0.12898766994476318 -0.8741435408592224 0 0 255
0.4125805199146271 0.13638941943645477 -0.9006527066230774 0 0 255
0.3959542214870453 0.059556469321250916 -0.9163368940353394 0 0 255
0.3484761416912079 -0.1551443487405777 -0.9243888258934021 0 0 255
0.2036478966474533 -0.14925172924995422 -0.9676008820533752 0 0 255
0.21549293398857117 -0.05302456393837929 -0.9750646948814392 0 0 255
0.33898136019706726 0.02865656279027462 -0.9403565526008606 0 0 255
0.3895513415336609 0.05546267703175545 -0.919333279132843 0 0 255
0.1700931042432785 0.0138402646407485 -0.9853307604789734 0 0 255
0.017075542360544205 0.17093907296657562 -0.9851336479187012 0 0 255
0.013786526396870613 0.26752644777297974 -0.9634518623352051 0 0 255
0.017009621486067772 0.3139575719833374 -0.9492846727371216 0 0 255
-0.05870845168828964 0.4083069860935211 -0.9109547734260559 0 0 255
-0.11945348232984543 0.5213897228240967 -0.8449162840843201 0 0 255
-0.1850864440202713 0.6244927048683167 -0.7587831020355225 0 0 255
-0.15064570307731628 0.6735213994979858 -0.7236537337303162 0 0 255
-0.012711461633443832 0.7628728747367859 -0.6464236378669739 0 0 255
0.095805324614048 0.7206383347511292 -0.6866598129272461 0 0 255
0.13001079857349396 0.7241954803466797 -0.6772281527519226 0 0 255
0.17775659263134003 0.7427704334259033 -0.6455188393592834 0 0 255
0.1784859597682953 0.7928212881088257 -0.5827324986457825 0 0 255
0.2548733055591583 0.7665857672691345 -0.5893945097923279 0 0 255
0.3549852669239044 0.734097421169281 -0.5788664221763611 0 0 255
0.3778163194656372 0.7524230480194092 -0.5395501255989075 0 0 255
0.3903828561306 0.7373558282852173 -0.5512781143188477 0 0 255
0.38703984022140503 0.6908540725708008 -0.6106724143028259 0 0 255
0.4114520251750946 0.7218490839004517 -0.5564540028572083 0 0 255
0.42959707975387573 0.7447018623352051 -0.5107499361038208 0 0 255
0.46578139066696167 0.7227107882499695 -0.5106239318847656 0 0 255
0.4774242043495178 0.7220146059989929 -0.500760555267334 0 0 255
0.4614139497280121 0.7208669781684875 -0.5171536803245544 0 0 255
0.41132763028144836 0.7135295271873474 -0.5671729445457458 0 0 255
0.4100985825061798 0.7195219397544861 -0.5604528188705444 0 0 255
0.36740922927856445 0.7605983018875122 -0.5352576971054077 0 0 255
0.302106112241745 0.7535596489906311 -0.5838491320610046 0 0 255
0.2479701042175293 0.7400448322296143 -0.6251755356788635 0 0 255
0.23127423226833344 0.741320013999939 -0.6300451159477234 0 0 255
0.2554247975349426 0.7397757768630981 -0.6224868893623352 0 0 255
0.3056483566761017 0.6673225164413452 -0.6791610717773438 0 0 255
0.2436305582523346 0.6769511699676514 -0.6945367455482483 0 0 255
0.23324204981327057 0.6692556142807007 -0.7054750323295593 0 0 255
0.2109767347574234 0.6958349347114563 -0.6865147352218628 0 0 255
0.15810073912143707 0.6495203375816345 -0.7437254786491394 0 0 255
0.1932389885187149 0.6285039782524109 -0.753419816493988 0 0 255
0.227773055434227 0.6238094568252563 -0.7476504445075989 0 0 255
0.33851367235183716 0.6087210178375244 -0.7175425291061401 0 0 255
0.35464781522750854 0.6065097451210022 -0.7115973830223083 0 0 255
0.34928977489471436 0.5290966033935547 -0.7733391523361206 0 0 255
0.36538928747177124 0.5669951438903809 -0.7382460832595825 0 0 255
0.3723868727684021 0.5588474869728088 -0.7409572601318359 0 0 255
0.30572670698165894 0.5784502029418945 -0.7562581896781921 0 0 255
0.22560063004493713 0.6084742546081543 -0.7608307600021362 0 0 255
0.14229734241962433 0.6169806122779846 -0.7740066647529602 0 0 255
0.12234357744455338 0.6370301246643066 -0.7610681056976318 0 0 255
0.19198788702487946 0.6688423752784729 -0.7181854844093323 0 0 255
0.17840394377708435 0.6753543019294739 -0.7155897617340088 0 0 255
0.13189537823200226 0.6580209136009216 -0.74135822057724 0 0 255
0.04473361000418663 0.6781793832778931 -0.7335336804389954 0 0 255
0.003948615398257971 0.6688479781150818 -0.7433887124061584 0 0 255
0.10842374712228775 0.7184045314788818 -0.6871238946914673 0 0 255
0.1431228667497635 0.711409866809845 -0.68804931640625 0 0 255
0.10253497958183289 0.6749213337898254 -0.7307309508323669 0 0 255
0.18502262234687805 0.6431430578231812 -0.7430568933486938 0 0 255
0.25626739859580994 0.6019325256347656 -0.7563095688819885 0 0 255
0.22944234311580658 0.5738415718078613 -0.7861692905426025 0 0 255
0.2390708178281784 0.4943266808986664 -0.8357548713684082 0 0 255
0.32390210032463074 0.4843257665634155 -0.8127214312553406 0 0 255
0.35999393463134766 0.487591415643692 -0.7953986525535583 0 0 255
0.375216543674469 0.4563502371311188 -0.8068190217018127 0 0 255
0.2884162366390228 0.4187375605106354 -0.8610893487930298 0 0 255
0.23433266580104828 0.4050963222980499 -0.8837336897850037 0 0 255
0.2607226073741913 0.4237367808818817 -0.8674507141113281 0 0 255
0.3045291602611542 0.4304013252258301 -0.8497156500816345 0 0 255
0.29334381222724915 0.35908639430999756 -0.8860058784484863 0 0 255
0.25475114583969116 0.3068380355834961 -0.9170344471931458 0 0 255
0.1914381980895996 0.2369178831577301 -0.9524816870689392 0 0 255
0.13729062676429749 0.1932312548160553 -0.9715003967285156 0 0 255
0.06871546804904938 0.2917732000350952 -0.9540160298347473 0 0 255
-0.04113670438528061 0.3426068425178528 -0.9385778307914734 0 0 255
-0.11577420681715012 0.37111252546310425 -0.9213424324989319 0 0 255
-0.002975650830194354 0.39957064390182495 -0.9166975021362305 0 0 255
0.2614728510379791 0.4347638487815857 -0.861749529838562 0 0 255
0.39980658888816833 0.4917525053024292 -0.7735206484794617 0 0 255
0.25632205605506897 0.4283084571361542 -0.8665164709091187 0 0 255
0.020297834649682045 0.45520925521850586 -0.8901531100273132 0 0 255
0.05080670118331909 0.5080811977386475 -0.8598093390464783 0 0 255
0.2220519334077835 0.5128228664398193 -0.8292802572250366 0 0 255
0.3740650415420532 0.5169943571090698 -0.7699300050735474 0 0 255
0.4084150195121765 0.5347206592559814 -0.739777684211731 0 0 255
0.3145851194858551 0.6426241993904114 -0.6986203789710999 0 0 255
0.14826633036136627 0.6524617671966553 -0.7431761622428894 0 0 255
0.09516599774360657 0.6266006231307983 -0.7735082507133484 0 0 255
0.14163757860660553 0.6305326223373413 -0.7631300091743469 0 0 255
0.06313427537679672 0.6666407585144043 -0.7427006959915161 0 0 255
-0.9356104731559753 -0.1002793237566948 -0.33849242329597473 0 0 255
-0.8082533478736877 -0.560968816280365 0.17899854481220245 0 0 255
-0.8013962507247925 -0.5855000615119934 0.1222851350903511 0 0 255
-0.8193490505218506 -0.537397027015686 0.19967859983444214 0 0 255
-0.7683212161064148 -0.5459699034690857 0.33406487107276917 0 0 255
-0.8546057939529419 -0.474478155374527 0.21099638938903809 0 0 255
-0.8552798628807068 -0.5000631213188171 0.13576862215995789 0 0 255
-0.8313887715339661 -0.5392690300941467 0.13409565389156342 0 0 255
-0.8549998998641968 -0.5184772610664368 -0.012508796527981758 0 0 255
-0.8556451201438904 -0.5171273350715637 -0.021227896213531494 0 0 255
-0.8838531970977783 -0.4677426815032959 0.004505098331719637 0 0 255
-0.9115962982177734 -0.4109797477722168 0.009372119791805744 0 0 255
-0.8918518424034119 -0.44820764660835266 0.060911379754543304 0 0 255
-0.8870088458061218 -0.4588501453399658 0.05168972164392471 0 0 255
-0.8842791318893433 -0.4609224200248718 0.07483945786952972 0 0 255
-0.9220131635665894 -0.3843877911567688 0.046235885471105576 0 0 255
-0.9230654239654541 -0.3433953821659088 0.1732913851737976 0 0 255
-0.8903053998947144 -0.41765114665031433 0.18144915997982025 0 0 255
-0.8751610517501831 -0.4720999598503113 0.10590001940727234 0 0 255
-0.9034671783447266 -0.416699081659317 0.10054367035627365 0 0 255
-0.9058947563171387 -0.35285043716430664 0.2342035472393036 0 0 255
-0.8756718635559082 -0.34280338883399963 0.3401244878768921 0 0 255
-0.9671555161476135 -0.20138314366340637 0.15509697794914246 0 0 255
-0.950737476348877 -0.2609756588935852 0.16730232536792755 0 0 255
-0.9784963130950928 -0.16166602075099945 0.1280975490808487 0 0 255
-0.9666147828102112 -0.05897175148129463 0.24935542047023773 0 0 255
-0.9394986629486084 0.12657630443572998 0.3183091878890991 0 0 255
-0.9302648901939392 0.24828869104385376 0.2701107859611511 0 0 255
-0.9135233163833618 0.38547879457473755 -0.1299283802509308 0 0 255
-0.8794885277748108 0.441217303276062 -0.1784020960330963 0 0 255
-0.9584208130836487 0.14264659583568573 -0.24714672565460205 0 0 255
-0.9812896251678467 0.09450217336416245 -0.16774992644786835 0 0 255
-0.9905923008918762 -0.13297279179096222 -0.03232806175947189 0 0 255
-0.9929206371307373 -0.11010199040174484 0.04456685855984688 0 0 255
-0.967812180519104 -0.23304374516010284 0.09502767771482468 0 0 255
-0.9450828433036804 -0.20469830930233002 0.25478824973106384 0 0 255
-0.9079381227493286 -0.1092117428779602 0.4046247899532318 0 0 255
-0.967940092086792 0.06713676452636719 0.2420429289340973 0 0 255
-0.952549159526825 0.17623287439346313 0.24817727506160736 0 0 255
-0.9816654920578003 -0.06559092551469803 0.17897135019302368 0 0 255
-0.9748920202255249 -0.2046993523836136 0.08765661716461182 0 0 255
-0.9557863473892212 -0.28373968601226807 0.07722887396812439 0 0 255
-0.9134718775749207 -0.3142598271369934 0.2584763765335083 0 0 255
-0.9123257994651794 -0.39919793605804443 0.09111877530813217 0 0 255
-0.8631923198699951 -0.4940834939479828 0.10382930934429169 0 0 255
-0.8590314984321594 -0.5079748630523682 0.06345298141241074 0 0 255
-0.855133593082428 -0.5175490975379944 0.029824038967490196 0 0 255
-0.8589874505996704 -0.5047047734260559 -0.08610228449106216 0 0 255
-0.8324047327041626 -0.5308464765548706 -0.1590736210346222 0 0 255
-0.849219024181366 -0.5009812712669373 -0.1668674796819687 0 0 255
-0.867708683013916 -0.4795379042625427 -0.1308627873659134 0 0 255
-0.8973655104637146 -0.42298179864883423 -0.12578389048576355 0 0 255
-0.881901204586029 -0.4548289477825165 -0.12401942163705826 0 0 255
-0.8922610878944397 -0.43682587146759033 -0.11425107717514038 0 0 255
-0.8842787742614746 -0.4516732394695282 -0.11850050091743469 0 0 255
-0.8856004476547241 -0.4539894759654999 -0.09800723195075989 0 0 255
-0.8888869285583496 -0.45040515065193176 -0.08375722914934158 0 0 255
-0.9053024649620056 -0.4228580892086029 -0.040230900049209595 0 0 255
-0.8935859799385071 -0.44888606667518616 -0.002333110198378563 0 0 255
-0.9023199677467346 -0.4271523356437683 0.05796150490641594 0 0 255
-0.8981583118438721 -0.42398232221603394 0.1164071261882782 0 0 255
-0.9146861433982849 -0.3970106244087219 0.07570958137512207 0 0 255
-0.9272599220275879 -0.3327111303806305 0.17173367738723755 0 0 255
-0.8960525989532471 -0.3725166320800781 0.24149759113788605 0 0 255
-0.9186440706253052 -0.21253953874111176 0.3330465257167816 0 0 255
-0.8123934268951416 -0.48727184534072876 0.3202859163284302 0 0 255
-0.8382923603057861 -0.45048972964286804 0.3071235418319702 0 0 255
-0.6060473918914795 -0.6888107061386108 0.39780205488204956 0 0 255
-0.41685739159584045 -0.604951798915863 0.6784270405769348 0 0 255
-0.36670684814453125 -0.3992103338241577 0.8403315544128418 0 0 255
-0.4276139438152313 -0.2468225657939911 0.8696119785308838 0 0 255
-0.36288416385650635 -0.1431979537010193 0.9207656979560852 0 0 255
0.22589240968227386 0.16996483504772186 0.9592103958129883 0 0 255
0.6020353436470032 0.020207544788718224 0.7982136607170105 0 0 255
0.7352391481399536 0.20530538260936737 0.6459668278694153 0 0 255
0.5715181827545166 0.08674252778291702 0.8159918189048767 0 0 255
0.37127915024757385 0.3882003724575043 0.8434762358665466 0 0 255
0.6406079530715942 0.09167323261499405 0.7623762488365173 0 0 255
0.736827552318573 0.33255037665367126 0.5886386632919312 0 0 255
0.7032561302185059 0.17612335085868835 0.6887752413749695 0 0 255
0.6113166213035583 0.1753872185945511 0.7717066407203674 0 0 255
0.44837045669555664 0.005486912094056606 0.8938309550285339 0 0 255
0.4224433898925781 0.3507620096206665 0.8357676863670349 0 0 255
0.6106815338134766 0.11874140053987503 0.7829231023788452 0 0 255
