ply
format ascii 1.0
element vertex 681
property float x
property float y
property float z
property uchar red
property uchar green
property uchar blue
end_header
-0.034836336970329285 -0.31012678146362305 -0.950056791305542 239 248 33
-0.03135145083069801 -0.3124048113822937 -0.9494315385818481 240 245 37
-0.030899349600076675 -0.479745477437973 -0.8768634796142578 243 238 38
0.15269356966018677 -0.5706642270088196 -0.8068625330924988 248 223 36
0.1453523337841034 -0.5496422648429871 -0.8226579427719116 251 208 36
0.07910776138305664 -0.4527699947357178 -0.8881110548973083 250 214 36
-0.0263808723539114 -0.49510836601257324 -0.8684306144714355 249 217 36
-0.00013775420666206628 -0.555115818977356 -0.831773042678833 250 216 36
-0.02046211063861847 -0.4671286344528198 -0.8839525580406189 250 213 36
0.059333547949790955 -0.3708459734916687 -0.926797091960907 250 213 36
0.07065122574567795 -0.376431405544281 -0.9237465858459473 250 213 36
0.003236046526581049 -0.4663635492324829 -0.8845872282981873 251 211 36
-0.0776093527674675 -0.53106689453125 -0.8437681198120117 251 209 36
-0.09327834844589233 -0.32928580045700073 -0.9396116733551025 251 209 36
-0.20777133107185364 -0.20718038082122803 -0.9559850096702576 251 209 36
-0.24003636837005615 -0.15913107991218567 -0.9576324820518494 251 209 36
-0.28919002413749695 -0.20861956477165222 -0.9342628121376038 251 211 36
-0.25283488631248474 -0.24684961140155792 -0.9354890584945679 251 211 36
-0.19357708096504211 -0.21510881185531616 -0.9572126865386963 252 206 37
-0.22350621223449707 -0.237871915102005 -0.9452311396598816 252 206 37
-0.2320277988910675 -0.244234099984169 -0.9415480494499207 251 209 36
-0.29786279797554016 -0.2532799541950226 -0.920395016670227 252 206 37
-0.29941368103027344 -0.21072633564472198 -0.9305621385574341 252 206 37
-0.2551515996456146 -0.0950673520565033 -0.9622161388397217 252 201 38
-0.2437552809715271 -0.020572662353515625 -0.969618558883667 253 188 42
-0.30603715777397156 0.024461869150400162 -0.9517052173614502 253 182 45
-0.3787185847759247 0.10759606957435608 -0.9192363023757935 253 175 49
-0.39434003829956055 0.13512465357780457 -0.9089758992195129 251 164 54
-0.35024675726890564 0.11442342400550842 -0.9296421408653259 247 146 65
-0.20501990616321564 0.09453851729631424 -0.9741813540458679 244 137 71
-0.06986955553293228 0.008170552551746368 -0.9975226521492004 239 126 78
0.06969063729047775 -0.016263388097286224 -0.9974360466003418 236 120 83
0.09397805482149124 -0.10787499696016312 -0.989712655544281 232 112 89
0.32113468647003174 -0.24894864857196808 -0.9137269854545593 226 102 96
0.47519150376319885 -0.3558795154094696 -0.8047004342079163 218 90 104
0.6576955914497375 -0.42937999963760376 -0.6189259886741638 208 77 115
0.7608767747879028 -0.4605585038661957 -0.4571130871772766 200 68 122
0.7527026534080505 -0.6342664361000061 -0.17647887766361237 189 55 132
0.716981828212738 -0.6968188285827637 -0.01950814202427864 175 40 144
0.7096942067146301 -0.7033801078796387 0.03988111391663551 160 27 155
0.7149733901023865 -0.6937521696090698 0.08672329038381577 149 17 161
0.7303531169891357 -0.67381352186203 0.11207011342048645 133 6 166
0.74267578125 -0.6559457778930664 0.13478761911392212 120 1 168
0.7686095237731934 -0.6138405203819275 0.18010912835597992 117 0 168
0.7607446312904358 -0.6163610219955444 0.20338785648345947 111 0 168
0.7536446452140808 -0.6093414425849915 0.24642004072666168 108 0 168
0.7563565969467163 -0.5891569256782532 0.2842863202095032 103 0 167
0.7646373510360718 -0.5684008598327637 0.30372703075408936 97 0 166
0.7598222494125366 -0.565544068813324 0.32067134976387024 86 1 163
0.7580344080924988 -0.5649052858352661 0.32598450779914856 89 1 164
0.7566357851028442 -0.5777260065078735 0.30616167187690735 79 2 162
0.7441704869270325 -0.5791007876396179 0.3329452872276306 59 3 154
0.7514713406562805 -0.5698198080062866 0.3325602412223816 37 5 145
0.7539384961128235 -0.5616087913513184 0.34084051847457886 45 4 148
0.7409882545471191 -0.579843282699585 0.3387007713317871 64 3 156
0.7400787472724915 -0.5717719197273254 0.3540624976158142 78 2 161
0.7579253911972046 -0.5563405156135559 0.34063801169395447 94 0 165
0.737647533416748 -0.562027633190155 0.3741670846939087 120 1 168
0.7360948920249939 -0.5424597263336182 0.4048478901386261 134 7 166
0.7321967482566833 -0.5146129727363586 0.44616296887397766 153 20 159
0.7089748978614807 -0.507304847240448 0.48989415168762207 168 34 150
0.7116608023643494 -0.5054301619529724 0.4879336357116699 181 46 140
0.6808330416679382 -0.5037738084793091 0.5316751003265381 191 57 130
0.6991479396820068 -0.4964418113231659 0.5145265460014343 197 64 125
0.6940625905990601 -0.5002751350402832 0.517689049243927 206 74 117
0.6814038753509521 -0.5179009437561035 0.5171724557876587 209 79 113
0.6912792325019836 -0.5361061096191406 0.48448243737220764 209 79 113
0.6759031414985657 -0.5525182485580444 0.4877277910709381 209 78 114
0.7149003148078918 -0.5604012608528137 0.41817206144332886 209 79 113
0.7484667897224426 -0.5853419303894043 0.3117247223854065 209 78 114
0.776235818862915 -0.6034250855445862 0.1825820356607437 208 77 115
0.6559045314788818 -0.7486317753791809 0.09664246439933777 208 77 115
0.5955619812011719 -0.7913029193878174 -0.1383674591779709 209 78 114
0.5829102993011475 -0.7868399024009705 -0.20272761583328247 210 80 112
0.6126600503921509 -0.7660006880760193 -0.19465509057044983 210 80 112
0.7215473055839539 -0.6894038319587708 -0.06396730244159698 210 80 112
0.7627048492431641 -0.6394632458686829 -0.09678924083709717 210 80 112
0.7822318077087402 -0.6114835143089294 -0.1191692054271698 209 79 113
0.7303687334060669 -0.6566401720046997 -0.18810950219631195 210 80 112
0.7146479487419128 -0.6691550612449646 -0.20373953878879547 209 78 114
0.7398768067359924 -0.645477831363678 -0.18958035111427307 209 78 114
0.7174225449562073 -0.6708409786224365 -0.18782275915145874 207 75 116
0.6475980877876282 -0.7425956726074219 -0.17078755795955658 207 75 116
0.6722635626792908 -0.7269779443740845 -0.13987433910369873 207 75 116
0.7545993328094482 -0.6247285008430481 -0.2007342129945755 208 77 115
0.7946805953979492 -0.6062161922454834 -0.03137832134962082 208 77 115
0.8195338845252991 -0.5721448659896851 -0.03185010328888893 207 75 116
0.8656404614448547 -0.49525564908981323 -0.07340610027313232 209 78 114
0.8728303909301758 -0.475851833820343 -0.10831522941589355 209 78 114
0.8662520051002502 -0.44291478395462036 -0.23115774989128113 207 75 116
0.794232189655304 -0.4376801550388336 -0.4214632511138916 202 70 120
0.8114444613456726 -0.13404615223407745 -0.5688493251800537 202 70 120
0.5505523681640625 0.27404481172561646 -0.7885376214981079 201 69 121
0.4571605324745178 0.45483338832855225 -0.7642845511436462 200 68 122
0.26004767417907715 0.5185960531234741 -0.81451416015625 201 69 121
0.05394081026315689 0.4760032296180725 -0.8777877688407898 199 66 123
0.16515590250492096 0.5368584394454956 -0.8273491263389587 198 65 124
0.06007859483361244 0.5533381700515747 -0.8307873010635376 197 64 125
-0.12506122887134552 0.5299547910690308 -0.8387536406517029 197 64 125
-0.2345864474773407 0.5329610109329224 -0.8129709362983704 199 66 123
-0.19610723853111267 0.5537061095237732 -0.8092907071113586 201 69 121
-0.2149791419506073 0.6008886098861694 -0.7698810696601868 204 72 118
-0.2385145127773285 0.6853554248809814 -0.6880398988723755 207 75 116
-0.28474804759025574 0.7050157189369202 -0.649516224861145 210 80 112
-0.21301370859146118 0.7098931074142456 -0.6713247299194336 209 79 113
-0.26049235463142395 0.7063969373703003 -0.6581390500068665 206 74 117
-0.31151318550109863 0.6783570647239685 -0.6654255390167236 206 74 117
-0.29389557242393494 0.6381667852401733 -0.7115957736968994 209 79 113
-0.2374829202890396 0.6375959515571594 -0.7328528761863708 206 74 117
-0.24479331076145172 0.6064963340759277 -0.756464421749115 201 69 121
-0.20258860290050507 0.5651156306266785 -0.7997512817382812 200 68 122
-0.3061159551143646 0.6095025539398193 -0.7313000559806824 203 71 119
-0.4176968038082123 0.5685532689094543 -0.7087146639823914 206 74 117
-0.43598672747612 0.48041975498199463 -0.7609943747520447 204 72 118
-0.581713080406189 0.5042356252670288 -0.6382446885108948 203 71 119
-0.5601592659950256 0.5094193816184998 -0.6532330513000488 209 78 114
-0.7005387544631958 0.5449297428131104 -0.4607570171356201 220 94 102
-0.8317421078681946 0.4454970359802246 -0.3312664031982422 228 106 93
-0.9272779822349548 0.35555633902549744 -0.11719734966754913 234 115 86
-0.8299075961112976 0.5331732630729675 0.16425472497940063 234 116 85
-0.8412625789642334 0.5055114030838013 0.19166506826877594 240 129 77
-0.8868626952171326 0.45702609419822693 0.06783684343099594 245 139 70
-0.9773429036140442 0.18405452370643616 -0.10452154278755188 246 145 66
-0.9628162980079651 0.16554683446884155 -0.21349237859249115 248 150 63
-0.9286407828330994 0.20983995497226715 -0.30593061447143555 248 149 64
-0.9324302673339844 0.14534300565719604 -0.3308308720588684 248 152 62
-0.8679905533790588 0.23233023285865784 -0.43887943029403687 248 150 63
-0.7755903005599976 0.15432855486869812 -0.6120802760124207 248 149 64
-0.8300014138221741 0.1548382043838501 -0.5358383655548096 246 145 66
-0.6897068619728088 0.43328768014907837 -0.5801432728767395 248 149 64
-0.6802234053611755 0.3213552236557007 -0.6588072776794434 248 152 62
-0.5996740460395813 0.44440698623657227 -0.6655025482177734 248 152 62
-0.6464719772338867 0.5349215865135193 -0.5439971685409546 248 152 62
-0.5774354338645935 0.5519781112670898 -0.6015716195106506 248 150 63
-0.555006742477417 0.5865727663040161 -0.5898304581642151 247 147 65
-0.6216334104537964 0.5502187609672546 -0.5575223565101624 247 147 65
-0.47181209921836853 0.6042553782463074 -0.6420815587043762 249 153 61
-0.46853139996528625 0.634398341178894 -0.6148309111595154 247 147 65
-0.4745332598686218 0.6382626295089722 -0.6061674952507019 246 142 68
-0.4764305353164673 0.6190955638885498 -0.6242873668670654 243 135 72
-0.5590468645095825 0.6005920767784119 -0.5716255307197571 243 134 73
-0.46223488450050354 0.6155701875686646 -0.6382884383201599 243 134 73
-0.4830527901649475 0.571613609790802 -0.6632630228996277 243 135 72
-0.5056578516960144 0.5842083096504211 -0.6348313689231873 243 135 72
-0.49401745200157166 0.5988008975982666 -0.6303842067718506 243 134 73
-0.4561275839805603 0.5977635383605957 -0.65926194190979 240 129 77
-0.5174900889396667 0.5958223938941956 -0.6141657829284668 237 123 81
-0.5250544548034668 0.6421369910240173 -0.558549702167511 239 125 79
-0.5211784839630127 0.6306663155555725 -0.5750069618225098 239 125 79
-0.5175904631614685 0.617449939250946 -0.5923306941986084 239 126 78
-0.5576103925704956 0.5790813565254211 -0.5947566628456116 237 123 81
-0.503601610660553 0.5850381255149841 -0.635701060295105 237 123 81
-0.4192579686641693 0.6200941205024719 -0.6631032824516296 239 125 79
-0.5067995190620422 0.6171613931655884 -0.6018853783607483 239 125 79
-0.4823732376098633 0.6561006307601929 -0.5803861021995544 239 126 78
-0.4766068756580353 0.5987606644630432 -0.6436859369277954 239 125 79
-0.48958155512809753 0.6579800248146057 -0.5721644759178162 241 130 76
-0.45054224133491516 0.6925365328788757 -0.5633870363235474 243 135 72
-0.5027952194213867 0.6690206527709961 -0.5473648905754089 244 137 71
-0.48263370990753174 0.6551822423934937 -0.5812064409255981 244 138 71
-0.49109697341918945 0.6521565914154053 -0.5775080323219299 244 138 71
-0.5558192729949951 0.6321039199829102 -0.5399163365364075 245 139 70
-0.6492677927017212 0.5605360865592957 -0.5140530467033386 246 142 68
-0.6773067116737366 0.48006632924079895 -0.5574871301651001 245 141 69
-0.6803461313247681 0.4304176867008209 -0.5931861996650696 246 143 67
-0.6317891478538513 0.5358843207359314 -0.5600629448890686 246 143 67
-0.6520440578460693 0.5028958320617676 -0.5673925876617432 246 145 66
-0.7372143864631653 0.4823917746543884 -0.4730887711048126 247 147 65
-0.7196409106254578 0.543246328830719 -0.43243542313575745 248 149 64
-0.6695557236671448 0.5761830806732178 -0.4687303900718689 247 147 65
-0.6667808294296265 0.5489325523376465 -0.5040598511695862 246 143 67
-0.6628193259239197 0.5791816115379333 -0.4745725393295288 246 142 68
-0.6378933191299438 0.6110787391662598 -0.4686949551105499 246 142 68
-0.5884161591529846 0.6757559776306152 -0.4439822733402252 246 143 67
-0.6315567493438721 0.6498891115188599 -0.42282426357269287 246 143 67
-0.6311637759208679 0.6622549295425415 -0.403795450925827 247 146 65
-0.622108519077301 0.6697443127632141 -0.40549176931381226 246 145 66
-0.6130973696708679 0.6703469157218933 -0.41802701354026794 239 126 78
-0.6213192343711853 0.6685479879379272 -0.4086635410785675 237 121 82
-0.6067901849746704 0.672938883304596 -0.42303547263145447 239 126 78
-0.6297970414161682 0.656213641166687 -0.41561925411224365 237 123 81
-0.6406575441360474 0.6486464142799377 -0.4108719825744629 237 123 81
-0.6161417365074158 0.6622016429901123 -0.42644864320755005 236 120 83
-0.6350930333137512 0.6517984867095947 -0.41450655460357666 238 124 80
-0.6354553699493408 0.6422519087791443 -0.4286127984523773 237 121 82
-0.6409814357757568 0.6378511786460876 -0.42695266008377075 237 121 82
-0.6477946639060974 0.6319537162780762 -0.4254368543624878 239 126 78
-0.6325334310531616 0.6431584358215332 -0.4315653443336487 243 134 73
-0.6457746028900146 0.6256253719329834 -0.43768489360809326 243 134 73
-0.6314980983734131 0.6424126625061035 -0.43418455123901367 240 128 77
-0.5926917791366577 0.6462996006011963 -0.4806383550167084 240 128 77
-0.6043001413345337 0.66880863904953 -0.43303143978118896 242 132 75
-0.5664534568786621 0.7072396874427795 -0.4230159521102905 244 137 71
-0.6012020111083984 0.674423336982727 -0.42861321568489075 245 141 69
-0.5936780571937561 0.6812155246734619 -0.42835935950279236 244 138 71
-0.5865051746368408 0.6706543564796448 -0.4541304409503937 245 139 70
-0.593889594078064 0.6686181426048279 -0.4474872350692749 244 138 71
-0.5615037083625793 0.6830335259437561 -0.4670961797237396 243 135 72
-0.5971786379814148 0.6589689254760742 -0.45731547474861145 244 138 71
-0.5553969740867615 0.682431697845459 -0.4752064347267151 244 137 71
-0.5750638842582703 0.6681157946586609 -0.4721470773220062 244 137 71
-0.5877505540847778 0.6385966539382935 -0.49673280119895935 244 137 71
-0.5725806951522827 0.63336181640625 -0.520580530166626 240 129 77
-0.6025946736335754 0.6084949970245361 -0.516346275806427 240 129 77
-0.5689108967781067 0.6052877306938171 -0.5567469000816345 240 128 77
-0.5804808139801025 0.6013117432594299 -0.5490592122077942 243 134 73
-0.5498896241188049 0.6112954616546631 -0.5691565871238708 234 115 86
-0.5615293383598328 0.5908798575401306 -0.5792631506919861 242 132 75
-0.5680595636367798 0.5821581482887268 -0.581721842288971 242 133 74
-0.46706804633140564 0.6574174761772156 -0.5913119316101074 242 132 75
-0.4408210813999176 0.7040075063705444 -0.5568215250968933 242 132 75
-0.39112991094589233 0.7716390490531921 -0.5015881061553955 242 132 75
-0.3899539113044739 0.7850035429000854 -0.48135796189308167 242 132 75
-0.45644938945770264 0.7658340334892273 -0.45293721556663513 240 129 77
-0.47378140687942505 0.7198962569236755 -0.5072282552719116 239 125 79
-0.4761095643043518 0.7063345313072205 -0.5238427519798279 237 123 81
-0.500388503074646 0.6838269829750061 -0.531029224395752 236 119 84
-0.5268045663833618 0.6729680299758911 -0.5192214846611023 234 116 85
-0.4969230592250824 0.7086107134819031 -0.5009374618530273 231 110 90
-0.5150613784790039 0.7162479758262634 -0.4708510935306549 223 98 98
-0.39077121019363403 0.769718587398529 -0.5048081278800964 227 104 94
-0.40571120381355286 0.769947350025177 -0.4925234615802765 233 114 87
-0.34196937084198 0.7978805899620056 -0.49643072485923767 236 120 83
-0.2433585375547409 0.8272688388824463 -0.5063623785972595 233 114 87
0.03514060005545616 0.8846945762634277 -0.464844673871994 239 126 78
0.020813241600990295 0.9386374354362488 -0.34427690505981445 237 123 81
-0.07825449109077454 0.9155606627464294 -0.3944932222366333 239 126 78
-0.3827778995037079 0.8247262239456177 -0.41630250215530396 240 128 77
-0.3030414879322052 0.8011283278465271 -0.5160999298095703 240 128 77
-0.3785010576248169 0.7409189343452454 -0.5547758340835571 242 132 75
-0.36141547560691833 0.7558958530426025 -0.5458939671516418 242 132 75
-0.39767932891845703 0.7576459646224976 -0.5175170302391052 242 132 75
-0.36636045575141907 0.7631182074546814 -0.5323820114135742 241 130 76
-0.4214880168437958 0.7513949871063232 -0.5076941847801208 243 134 73
-0.4589509665966034 0.7294350862503052 -0.507236123085022 243 134 73
-0.4294893145561218 0.7236530780792236 -0.5402454137802124 243 135 72
-0.3966008722782135 0.6813262701034546 -0.6152254343032837 243 135 72
-0.33118078112602234 0.6869856715202332 -0.6468152403831482 243 135 72
-0.24758020043373108 0.7094132900238037 -0.6598764061927795 244 137 71
-0.21214233338832855 0.6820622682571411 -0.6998476982116699 243 135 72
-0.16040271520614624 0.6730636358261108 -0.7219807505607605 237 121 82
-0.11546837538480759 0.7048409581184387 -0.6999044418334961 227 104 94
-0.06618381291627884 0.7760339379310608 -0.627208948135376 223 98 98
-0.11363397538661957 0.794472336769104 -0.5965743660926819 216 88 106
-0.0360000804066658 0.7746909856796265 -0.6313143372535706 220 94 102
0.10392609983682632 0.7633183598518372 -0.6376083493232727 217 89 105
0.2078661173582077 0.7745629549026489 -0.5973641276359558 218 90 104
0.3506096601486206 0.7411516904830933 -0.5725094079971313 222 96 100
0.44542959332466125 0.7076780796051025 -0.5484380722045898 219 91 103
0.5212641954421997 0.7239929437637329 -0.4517940282821655 218 90 104
0.6860897541046143 0.6284362077713013 -0.36653628945350647 216 88 106
0.6697362661361694 0.6260055899620056 -0.3994627296924591 216 88 106
0.5382840633392334 0.6919926404953003 -0.481036901473999 213 83 109
0.34789106249809265 0.7958552837371826 -0.4955665171146393 210 80 112
-0.07429519295692444 0.8028745651245117 -0.5915002822875977 209 78 114
-0.3038403391838074 0.7158092856407166 -0.6287274360656738 207 75 116
-0.4001263380050659 0.7055463790893555 -0.58489590883255 207 75 116
-0.3223875164985657 0.7557355761528015 -0.5700262784957886 206 74 117
-0.3539777398109436 0.7382937669754028 -0.574127197265625 205 73 117
-0.2503606081008911 0.7488880157470703 -0.6135848164558411 207 75 116
-0.2933349013328552 0.71317458152771 -0.6366605162620544 211 81 111
-0.30513468384742737 0.7145389318466187 -0.6295450925827026 208 77 115
-0.29382872581481934 0.729202151298523 -0.6180039644241333 213 83 109
-0.3685944676399231 0.7152102589607239 -0.5938117504119873 211 81 111
-0.35984522104263306 0.7825436592102051 -0.5080717206001282 210 80 112
-0.34562063217163086 0.7700363993644714 -0.5362744331359863 210 80 112
-0.4120642840862274 0.7714821696281433 -0.4847867786884308 212 82 110
-0.3778659403324127 0.7985065579414368 -0.4686197340488434 210 80 112
-0.3834625482559204 0.8028998374938965 -0.4564080238342285 210 80 112
-0.4052596688270569 0.8072566986083984 -0.42907023429870605 210 80 112
-0.35572415590286255 0.8363566994667053 -0.41709452867507935 205 73 117
-0.30380773544311523 0.8691531419754028 -0.39022257924079895 201 69 121
-0.3113923966884613 0.8752344846725464 -0.3701343238353729 209 78 114
-0.28729692101478577 0.898598313331604 -0.3316347599029541 208 77 115
-0.31445032358169556 0.89717036485672 -0.31017160415649414 204 72 118
-0.3228137493133545 0.89106684923172 -0.31904709339141846 195 62 127
-0.3242894113063812 0.8839425444602966 -0.3368706703186035 187 53 134
-0.3731341063976288 0.8749311566352844 -0.30865272879600525 181 46 140
-0.400118887424469 0.8598126173019409 -0.3172178268432617 176 42 143
-0.3772769868373871 0.872286319732666 -0.31109288334846497 180 45 141
-0.41705548763275146 0.8570147156715393 -0.3026391863822937 185 51 136
-0.4060218334197998 0.8563217520713806 -0.31915396451950073 185 51 136
-0.38324791193008423 0.8679828643798828 -0.3157954812049866 184 50 137
-0.289114385843277 0.8921443223953247 -0.3471185863018036 184 50 137
-0.26141422986984253 0.9150101542472839 -0.30727672576904297 186 52 135
-0.14655013382434845 0.964637041091919 -0.21908538043498993 187 53 134
-0.028586370870471 0.9897769093513489 -0.13972985744476318 185 51 136
-0.00547344284132123 0.9960769414901733 -0.08832285553216934 186 52 135
-0.0748860314488411 0.9897194504737854 -0.1218503937125206 186 52 135
-0.08652663975954056 0.9651533961296082 -0.2469656616449356 186 52 135
0.014450152404606342 0.9725126624107361 -0.2324012666940689 192 59 129
0.2810826897621155 0.9381622076034546 -0.20209960639476776 194 61 128
0.6118131279945374 0.7883025407791138 -0.06529830396175385 193 60 128
0.8472558259963989 0.47931787371635437 0.22893647849559784 194 61 128
0.9071541428565979 0.14378339052200317 0.395471453666687 200 68 122
0.9023064970970154 -0.0157029926776886 0.43080899119377136 196 63 126
0.8573410511016846 -0.08617591112852097 0.5074840784072876 196 63 126
0.8821443915367126 -0.15934742987155914 0.4432039260864258 195 62 127
0.860814094543457 -0.07808419317007065 0.5028935670852661 189 55 132
0.9017305374145508 0.12932512164115906 0.41250085830688477 185 51 136
0.900909960269928 0.25454407930374146 0.3515232801437378 186 52 135
0.8489252328872681 0.29607003927230835 0.43779951333999634 182 47 139
0.914067804813385 0.07180017977952957 0.3991551101207733 180 45 141
0.930980384349823 -0.011479341425001621 0.36488866806030273 173 38 146
0.8998304605484009 -0.13732539117336273 0.4140613079071045 170 36 148
0.946060061454773 -0.055388275533914566 0.3192216753959656 165 31 151
0.9634096026420593 -0.07591444253921509 0.2570580542087555 164 30 152
0.9189929962158203 -0.2694690525531769 0.2878164052963257 159 26 155
0.8620250821113586 -0.37632524967193604 0.3395467698574066 164 30 152
0.8311864733695984 -0.40003833174705505 0.38613271713256836 164 30 152
0.821373462677002 -0.42392784357070923 0.3816159963607788 162 28 154
0.8427215814590454 -0.40162959694862366 0.3584885001182556 160 27 155
0.8437429666519165 -0.4061819314956665 0.3508762717247009 163 29 153
0.8332474231719971 -0.39885443449020386 0.3829018771648407 170 36 148
0.8472083210945129 -0.39405399560928345 0.3563137650489807 174 39 145
0.8457189798355103 -0.40141409635543823 0.35160523653030396 183 48 138
0.8207859396934509 -0.4264008104801178 0.3801221251487732 190 56 131
0.7867937088012695 -0.45663005113601685 0.4152645170688629 193 60 128
0.8343991041183472 -0.39261332154273987 0.38682419061660767 193 60 128
0.8402263522148132 -0.4188069999217987 0.3444131016731262 195 62 127
0.8298936486244202 -0.43385937809944153 0.3507741689682007 195 62 127
0.8444807529449463 -0.4246710240840912 0.3263535499572754 197 64 125
0.787004292011261 -0.5055087208747864 0.3536737859249115 202 70 120
0.7957213521003723 -0.47431427240371704 0.37663426995277405 203 71 119
0.7982609868049622 -0.47151902318000793 0.3747654855251312 205 73 117
0.7915306091308594 -0.4754974842071533 0.3839029371738434 206 74 117
0.7942525148391724 -0.46839097142219543 0.38700491189956665 207 75 116
0.8001643419265747 -0.4569614827632904 0.38848820328712463 214 85 109
0.8029260635375977 -0.42929673194885254 0.4135385751724243 213 83 109
0.7957566976547241 -0.41158002614974976 0.4442669749259949 213 83 109
0.7672485709190369 -0.43044382333755493 0.4754447042942047 212 82 110
0.7309157848358154 -0.47564661502838135 0.4894103705883026 209 79 113
0.7360826134681702 -0.4899912476539612 0.4670020043849945 216 88 106
0.7528942823410034 -0.4996146261692047 0.42841029167175293 218 90 104
0.7253004312515259 -0.5439422130584717 0.42197898030281067 213 83 109
0.7190268635749817 -0.5623795986175537 0.4083251357078552 214 85 109
0.7224797606468201 -0.5600341558456421 0.40544387698173523 215 87 107
0.7436426877975464 -0.5402534604072571 0.3938550055027008 213 83 109
0.7329853177070618 -0.5399612784385681 0.41373229026794434 209 79 113
0.7561565041542053 -0.5130064487457275 0.406265527009964 207 75 116
0.7792962789535522 -0.5060304403305054 0.3696354925632477 203 71 119
0.7582839727401733 -0.5316529273986816 0.37729373574256897 200 68 122
0.7538267970085144 -0.5304793119430542 0.38773298263549805 201 69 121
0.7592883706092834 -0.5322808623313904 0.37437698245048523 199 66 123
0.7127788662910461 -0.5768457651138306 0.39899277687072754 197 64 125
0.7045236229896545 -0.5814290642738342 0.40692344307899475 190 56 131
0.715441107749939 -0.5813180208206177 0.3875734508037567 181 46 140
0.6979066133499146 -0.5878510475158691 0.4090937376022339 170 36 148
0.668117880821228 -0.5969362258911133 0.4441683888435364 168 34 150
0.6455284357070923 -0.6204668879508972 0.44532448053359985 173 38 146
0.5957414507865906 -0.6489406824111938 0.4732527732849121 173 38 146
0.5623962879180908 -0.6547809839248657 0.5049477219581604 175 40 144
0.583516001701355 -0.6129222512245178 0.5327618718147278 175 40 144
0.5699280500411987 -0.5920466184616089 0.569791853427887 172 37 147
0.47971752285957336 -0.6103740930557251 0.630328893661499 172 37 147
0.44340330362319946 -0.5781824588775635 0.6849077343940735 169 35 149
0.557135820388794 -0.5346020460128784 0.6354528665542603 175 40 144
0.5245077013969421 -0.5688093304634094 0.6335200667381287 178 44 142
0.5459678769111633 -0.5736969709396362 0.6105660200119019 177 43 143
0.5789376497268677 -0.5861250162124634 0.5668232440948486 180 45 141
0.6241276860237122 -0.5668633580207825 0.5377086400985718 180 45 141
0.6460251808166504 -0.5645471215248108 0.5137490034103394 181 46 140
0.6547009944915771 -0.5621246695518494 0.5053538084030151 175 40 144
0.6339460015296936 -0.5846160650253296 0.5062968134880066 175 40 144
0.624944269657135 -0.5832698941230774 0.5188843607902527 176 42 143
0.6565167903900146 -0.5745183229446411 0.4887886941432953 176 42 143
0.653846025466919 -0.586640477180481 0.47784751653671265 176 42 143
0.6353744864463806 -0.6066547632217407 0.47777533531188965 176 42 143
0.653274416923523 -0.5837202072143555 0.4821860194206238 175 40 144
0.6670196652412415 -0.5760062336921692 0.4725479781627655 174 39 145
0.6717318892478943 -0.5811933279037476 0.45933711528778076 174 39 145
0.6486565470695496 -0.5954664945602417 0.4739876389503479 177 43 143
0.678708553314209 -0.5539496541023254 0.48217684030532837 174 39 145
0.6949492692947388 -0.5275233387947083 0.4886355996131897 176 42 143
0.6902921199798584 -0.5245994925498962 0.4982893168926239 176 42 143
0.7110944986343384 -0.49603891372680664 0.4982871115207672 185 51 136
0.7138694524765015 -0.4629581570625305 0.5254143476486206 188 54 133
0.7547318935394287 -0.4120500981807709 0.5104843974113464 191 57 130
0.7467831373214722 -0.38868895173072815 0.5396627187728882 193 60 128
0.743983268737793 -0.3687083423137665 0.557263970375061 188 54 133
0.762494683265686 -0.3479740023612976 0.5454502105712891 174 39 145
0.7867786884307861 -0.31368574500083923 0.5315830707550049 163 29 153
0.7748345732688904 -0.3062310218811035 0.553040623664856 159 26 155
0.7714362740516663 -0.29944688081741333 0.5614423751831055 158 25 156
0.7504803538322449 -0.33160609006881714 0.5716788172721863 159 26 155
0.7641323804855347 -0.34304770827293396 0.5462784171104431 162 28 154
0.7720482349395752 -0.3684471547603607 0.5178688168525696 160 27 155
0.7770094871520996 -0.37320396304130554 0.5069271326065063 178 44 142
0.7698521614074707 -0.36827120184898376 0.5212522745132446 151 19 160
0.7625145316123962 -0.381289541721344 0.522675633430481 146 15 162
0.7577667832374573 -0.3891701400279999 0.5237709283828735 143 13 163
0.7494944930076599 -0.4022279381752014 0.5258047580718994 144 14 163
0.7362255454063416 -0.4186753034591675 0.5316793918609619 147 16 161
0.7261163592338562 -0.4261050820350647 0.5396198034286499 150 18 160
0.6960678696632385 -0.4346371591091156 0.5714718103408813 155 23 158
0.7025876045227051 -0.41472917795181274 0.578247606754303 159 26 155
0.7023319005966187 -0.40388554334640503 0.5861794352531433 157 24 157
0.701894998550415 -0.38775116205215454 0.5974884033203125 153 20 159
0.7063532471656799 -0.38213852047920227 0.5958484411239624 155 23 158
0.7260949015617371 -0.3742581009864807 0.5768163204193115 155 23 158
0.724370539188385 -0.37681397795677185 0.5773202180862427 154 21 158
0.7223708033561707 -0.40618279576301575 0.5596391558647156 155 23 158
0.7489786744117737 -0.40805310010910034 0.5220379829406738 155 23 158
0.7752019762992859 -0.41882601380348206 0.47291284799575806 155 23 158
0.7995923161506653 -0.4205184578895569 0.42873820662498474 155 23 158
0.795444667339325 -0.40007343888282776 0.45520222187042236 150 18 160
0.8038848638534546 -0.38656654953956604 0.4520348906517029 146 15 162
0.8332594633102417 -0.3489499092102051 0.42885032296180725 144 14 163
0.8508488535881042 -0.3435314893722534 0.3975452184677124 143 13 163
0.8489509224891663 -0.3098049461841583 0.4281393587589264 140 10 164
0.848842978477478 -0.2429797202348709 0.46949586272239685 134 7 166
0.8865089416503906 -0.20716692507266998 0.41374361515045166 130 4 167
0.8746103644371033 -0.2559763491153717 0.41174355149269104 130 4 167
0.8548651337623596 -0.28574222326278687 0.4330783784389496 127 3 167
0.835303783416748 -0.2968330979347229 0.4627716839313507 132 5 166
0.8575810194015503 -0.30367887020111084 0.4151311218738556 143 13 163
0.8194576501846313 -0.32599619030952454 0.47139737010002136 144 14 163
0.8712737560272217 -0.26795530319213867 0.4111958146095276 140 10 164
0.9032499194145203 -0.2710689604282379 0.33265766501426697 142 12 164
0.8500196933746338 -0.33482322096824646 0.40664464235305786 142 12 164
0.8317379951477051 -0.3146977722644806 0.45735886693000793 144 14 163
0.8561302423477173 -0.27943989634513855 0.4346889555454254 151 19 160
0.860139787197113 -0.29699912667274475 0.41466963291168213 146 15 162
0.8711225986480713 -0.29255732893943787 0.3944054841995239 126 3 167
0.8733447790145874 -0.2783018946647644 0.3997710645198822 111 0 168
0.847334623336792 -0.26141318678855896 0.4622630774974823 124 2 167
0.8412386178970337 -0.23972485959529877 0.4846127927303314 126 3 167
0.8373520970344543 -0.26514512300491333 0.478057861328125 121 1 168
0.8419497013092041 -0.2640964686870575 0.4705035984516144 123 2 168
0.7674858570098877 -0.3816574811935425 0.5150758624076843 132 5 166
0.7627670764923096 -0.41067659854888916 0.49953100085258484 139 9 164
0.7414939403533936 -0.45899826288223267 0.4893948435783386 130 4 167
0.6799318194389343 -0.5117368698120117 0.525183916091919 127 3 167
0.6678256392478943 -0.5562145709991455 0.49460530281066895 133 6 166
0.6895608305931091 -0.5402722954750061 0.4822982847690582 143 13 163
0.6625500917434692 -0.5479315519332886 0.5106842517852783 144 14 163
0.6398281455039978 -0.5435441732406616 0.543304443359375 140 10 164
0.661985456943512 -0.5321973562240601 0.5277700424194336 140 10 164
0.6675097942352295 -0.5051553845405579 0.5470362901687622 140 10 164
0.6922405362129211 -0.48543524742126465 0.5339997410774231 127 3 167
0.6898727416992188 -0.4879706799983978 0.5347524285316467 126 3 167
0.7017413973808289 -0.46900996565818787 0.5362729430198669 130 4 167
0.7471036911010742 -0.4303613007068634 0.5065819025039673 121 1 168
0.7712751626968384 -0.4137791097164154 0.4836542308330536 109 0 168
0.737826943397522 -0.4407210350036621 0.511249840259552 120 1 168
0.7631043195724487 -0.45017877221107483 0.4636927545070648 139 9 164
0.7413774728775024 -0.4811505973339081 0.46781793236732483 168 34 150
0.7666529417037964 -0.4742896854877472 0.43277308344841003 192 59 129
0.7579772472381592 -0.48045632243156433 0.441171258687973 202 70 120
0.754936933517456 -0.4665706157684326 0.4608492851257324 207 75 116
0.7265288233757019 -0.4900990426540375 0.48162105679512024 208 77 115
0.746068000793457 -0.4441666901111603 0.49608302116394043 205 73 117
0.770018458366394 -0.4252636432647705 0.47562843561172485 209 78 114
0.7588248252868652 -0.4369269013404846 0.48299047350883484 202 70 120
0.7685233354568481 -0.4130801558494568 0.4886067807674408 203 71 119
0.7845070958137512 -0.416856050491333 0.45910754799842834 204 72 118
0.7537548542022705 -0.4663639962673187 0.46298840641975403 202 70 120
0.7424255013465881 -0.5227866172790527 0.4189254641532898 196 63 126
0.7580693364143372 -0.5607802867889404 0.3329511284828186 190 56 131
0.7947978973388672 -0.5727227330207825 0.2007109671831131 189 55 132
0.7520213723182678 -0.6443291306495667 0.13893857598304749 193 60 128
0.7741014361381531 -0.6098645925521851 0.16980010271072388 196 63 126
0.7764384746551514 -0.5447041392326355 0.31692391633987427 192 59 129
0.7846185564994812 -0.5570513606071472 0.27215343713760376 192 59 129
0.8041099309921265 -0.5269546508789062 0.2751835584640503 192 59 129
0.8094677329063416 -0.5333242416381836 0.24561624228954315 190 56 131
0.7989050149917603 -0.5395526885986328 0.26576998829841614 190 56 131
0.7760852575302124 -0.555176854133606 0.29911595582962036 193 60 128
0.785691499710083 -0.5328919291496277 0.3141896426677704 191 57 130
0.8145029544830322 -0.4905969798564911 0.3096763491630554 184 50 137
0.8104721307754517 -0.4969450831413269 0.310129851102829 173 38 146
0.7747012376785278 -0.5312279462814331 0.3429792821407318 154 21 158
0.7898209691047668 -0.5308674573898315 0.3071850538253784 159 26 155
0.7767300009727478 -0.5815668106079102 0.24180680513381958 157 24 157
0.8065781593322754 -0.5593326091766357 0.19125595688819885 160 27 155
0.7888333201408386 -0.5760616660118103 0.21423116326332092 158 25 156
0.8044148087501526 -0.5468125343322754 0.2321912795305252 159 26 155
0.8046769499778748 -0.5243504643440247 0.27848076820373535 154 21 158
0.7886101603507996 -0.536777675151825 0.29993948340415955 142 12 164
0.8534514904022217 -0.46253836154937744 0.2401638925075531 149 17 161
0.8640502691268921 -0.48753756284713745 0.125396728515625 154 21 158
0.8268270492553711 -0.5523735284805298 0.10602106153964996 164 30 152
0.7986279726028442 -0.6017103791236877 0.011748580262064934 170 36 148
0.7996876835823059 -0.5910764932632446 -0.10549047589302063 181 46 140
0.8378462791442871 -0.5402241349220276 -0.07855809479951859 187 53 134
0.8022052645683289 -0.584073007106781 -0.12379581481218338 186 52 135
0.8378475904464722 -0.5458595156669617 -0.006984697189182043 189 55 132
0.794400691986084 -0.6073434352874756 0.007843208499252796 191 57 130
0.7304875254631042 -0.6791796684265137 0.07143434882164001 190 56 131
0.7127041816711426 -0.6940883994102478 0.1014597937464714 188 54 133
0.7144802212715149 -0.6940494775772095 -0.08839289844036102 191 57 130
0.7441234588623047 -0.6601353883743286 -0.10247667133808136 188 54 133
0.7571362257003784 -0.6406832933425903 -0.12755230069160461 186 52 135
0.7173739671707153 -0.6860214471817017 -0.12144589424133301 185 51 136
0.6870183944702148 -0.7165907025337219 -0.1204306110739708 180 45 141
0.7271040081977844 -0.6771608591079712 -0.11301714926958084 176 42 143
0.7389668226242065 -0.6604654788970947 -0.13309118151664734 180 45 141
0.6866348385810852 -0.7077286839485168 -0.1662910133600235 182 47 139
0.7173965573310852 -0.6608697175979614 -0.2204389125108719 183 48 138
0.666014552116394 -0.7073703408241272 -0.23675253987312317 187 53 134
0.7260270714759827 -0.654278039932251 -0.21167172491550446 191 57 130
0.7043010592460632 -0.6616884469985962 -0.2571548521518707 193 60 128
0.6326234936714172 -0.7256494164466858 -0.27059268951416016 197 64 125
0.5881500244140625 -0.7444674968719482 -0.3159868121147156 201 69 121
0.5127270817756653 -0.7442746758460999 -0.42797917127609253 204 72 118
0.31921738386154175 -0.7381835579872131 -0.5942939519882202 207 75 116
0.2989642322063446 -0.7139109969139099 -0.633207380771637 210 80 112
0.23841223120689392 -0.7209262847900391 -0.6507110595703125 214 85 109
0.13708001375198364 -0.6762219667434692 -0.7238321304321289 214 85 109
-0.12483720481395721 -0.5776990056037903 -0.8066471815109253 214 85 109
-0.2725054919719696 -0.5748967528343201 -0.7715144753456116 216 88 106
-0.4266233742237091 -0.517729640007019 -0.7415851950645447 218 90 104
-0.44512322545051575 -0.43211740255355835 -0.7843084931373596 220 93 102
-0.5196380615234375 -0.4231516718864441 -0.7422391772270203 223 98 98
-0.5690375566482544 -0.44350510835647583 -0.692458987236023 221 95 101
-0.5817400217056274 -0.4486931562423706 -0.6784195303916931 217 89 105
-0.6124874949455261 -0.3607860207557678 -0.7033438086509705 221 95 101
-0.7328029274940491 -0.2884470522403717 -0.6162777543067932 221 95 101
-0.7055755853652954 -0.24596445262432098 -0.664578378200531 226 102 96
-0.7173907160758972 -0.1726791262626648 -0.6749314069747925 228 106 93
-0.7397854328155518 -0.17376582324504852 -0.6500176787376404 230 109 90
-0.7425692081451416 -0.1608985811471939 -0.6501558423042297 227 104 94
-0.7853962182998657 -0.10476116836071014 -0.6100639700889587 217 89 105
-0.8041720986366272 -0.08889303356409073 -0.5877119302749634 214 85 109
-0.7856661677360535 -0.010355249047279358 -0.6185640692710876 208 77 115
-0.79130619764328 0.09298206120729446 -0.604308545589447 204 72 118
-0.79668790102005 0.1749551147222519 -0.5785146355628967 201 69 121
-0.7526504993438721 0.19450893998146057 -0.6290337443351746 202 70 120
-0.765097975730896 0.23233386874198914 -0.6005380749702454 201 69 121
-0.7372761964797974 0.24179719388484955 -0.6308390498161316 200 68 122
-0.6935803890228271 0.3116779923439026 -0.6494635939598083 195 62 127
-0.607404351234436 0.30981385707855225 -0.7314884066581726 182 47 139
-0.5770092010498047 0.4048161208629608 -0.7093547582626343 175 40 144
-0.5618354678153992 0.43472275137901306 -0.7038160562515259 174 39 145
-0.527692437171936 0.485556423664093 -0.6969761252403259 173 38 146
-0.5455005168914795 0.46395283937454224 -0.6979805827140808 184 50 137
-0.513355016708374 0.4281989634037018 -0.743715226650238 196 63 126
-0.46328556537628174 0.4110579788684845 -0.7851100564002991 203 71 119
-0.3569130599498749 0.3490360677242279 -0.8664795756340027 204 72 118
-0.3883906900882721 0.21876342594623566 -0.8951510190963745 205 73 117
-0.32324108481407166 0.1713036596775055 -0.9306826591491699 203 71 119
-0.1344880610704422 0.30375176668167114 -0.9432114362716675 204 72 118
-0.14956630766391754 0.30265676975250244 -0.9412909746170044 202 70 120
0.0011272222036495805 0.24493637681007385 -0.9695385098457336 203 71 119
0.0968279093503952 0.17508786916732788 -0.9797798991203308 207 75 116
-0.27629005908966064 0.15830978751182556 -0.9479461312294006 210 80 112
-0.5014870762825012 0.11445701122283936 -0.8575606942176819 215 86 108
-0.3809530436992645 0.023047832772135735 -0.9243070483207703 216 88 106
-0.434021532535553 -0.26970231533050537 -0.8595848083496094 216 88 106
-0.2621087431907654 -0.3957167863845825 -0.8801745176315308 218 90 104
-0.6189430952072144 -0.28050366044044495 -0.7336397171020508 222 96 100
-0.644242525100708 -0.22865404188632965 -0.7298416495323181 229 108 91
-0.8077958226203918 -0.2027498334646225 -0.5534966588020325 232 112 89
-0.7666552662849426 -0.10670412331819534 -0.6331302523612976 234 115 86
-0.7687344551086426 -0.09362661093473434 -0.6326779127120972 232 113 88
-0.7811818718910217 0.008880766108632088 -0.6242402791976929 233 114 87
-0.8291875720024109 0.07516631484031677 -0.5538934469223022 234 116 85
-0.8665027022361755 0.10292147099971771 -0.4884468913078308 234 115 86
-0.8773906826972961 0.039884138852357864 -0.47811606526374817 231 110 90
-0.8966068625450134 0.057143621146678925 -0.4391249418258667 227 103 95
-0.9147653579711914 0.05627421662211418 -0.4000469148159027 228 106 93
-0.9490259289741516 0.036888767033815384 -0.3130321204662323 221 95 101
-0.9459826350212097 0.0887267217040062 -0.3118402361869812 215 87 107
-0.9000998735427856 0.1770874261856079 -0.398070752620697 217 89 105
-0.8913565278053284 0.28837841749191284 -0.34974488615989685 222 96 100
-0.8731165528297424 0.33912310004234314 -0.3502327799797058 226 102 96
-0.8710801601409912 0.34449252486228943 -0.3500632345676422 230 109 90
-0.8638499975204468 0.39287737011909485 -0.31529441475868225 234 115 86
-0.9044609069824219 0.32289114594459534 -0.2787324786186218 235 118 84
-0.9020233154296875 0.32730913162231445 -0.28146544098854065 232 112 89
-0.9075422883033752 0.27392178773880005 -0.3183298707008362 229 108 91
-0.886009156703949 0.3421127200126648 -0.3129643499851227 228 106 93
-0.8580107688903809 0.3622394800186157 -0.3641429543495178 230 109 90
-0.8740295171737671 0.3133561313152313 -0.37132248282432556 231 110 90
-0.9462222456932068 0.18233788013458252 -0.26723843812942505 225 101 96
-0.9744645953178406 0.010638072155416012 -0.2242891937494278 222 96 100
-0.9944429397583008 -0.05912567675113678 -0.08710518479347229 219 91 103
-0.9978216886520386 -0.022155622020363808 -0.06213702633976936 218 90 104
-0.98117595911026 -0.19214749336242676 -0.019315848127007484 216 88 106
-0.9531061053276062 -0.3018159866333008 0.022267630323767662 216 88 106
-0.9394481182098389 -0.3425833582878113 -0.008595849387347698 215 86 108
-0.9196900129318237 -0.37493956089019775 -0.11657898128032684 217 89 105
-0.8010678887367249 -0.5979470014572144 -0.02738126739859581 216 88 106
-0.6144593358039856 -0.7850620746612549 0.07821282744407654 215 87 107
-0.08977559208869934 -0.9953222870826721 0.03569239377975464 214 85 109
0.2115335613489151 -0.9757891297340393 0.055579423904418945 211 81 111
0.11202570796012878 -0.9934167861938477 0.023946668952703476 211 81 111
0.2540037930011749 -0.9671862125396729 -0.00573976244777441 209 79 113
0.10696358978748322 -0.9814368486404419 -0.1591872125864029 208 77 115
0.01243737991899252 -0.9812547564506531 -0.19231310486793518 208 77 115
0.11029116809368134 -0.9923231601715088 0.05595066025853157 209 79 113
-0.004243494011461735 -0.9926920533180237 0.12060032039880753 207 75 116
-0.02582617662847042 -0.9813742637634277 0.19036155939102173 205 73 117
-0.20168398320674896 -0.9624194502830505 0.18185816705226898 206 74 117
-0.21406301856040955 -0.9767773151397705 0.0091238459572196 207 75 116
-0.23293715715408325 -0.9723737239837646 0.015151872299611568 211 81 111
-0.3206205368041992 -0.9470670819282532 -0.01631900854408741 214 85 109
-0.12269508838653564 -0.9913707971572876 0.04615039750933647 213 83 109
-0.21702814102172852 -0.9709393978118896 0.10087379068136215 209 79 113
-0.09133099019527435 -0.9937586188316345 0.06404965370893478 208 77 115
-0.11300388723611832 -0.9889127612113953 0.09634137898683548 205 73 117
-0.06866505742073059 -0.9814879298210144 0.1787920445203781 200 68 122
0.04466160386800766 -0.9687349796295166 0.24404463171958923 196 63 126
0.013047885149717331 -0.968045175075531 0.25043633580207825 188 54 133
0.009000012651085854 -0.965501070022583 0.2602437138557434 181 46 140
-0.11332922428846359 -0.9685514569282532 0.22150512039661407 177 43 143
-0.09435132145881653 -0.9634214043617249 0.25083279609680176 176 42 143
-0.03222354128956795 -0.9606544375419617 0.27587059140205383 182 47 139
0.07350458949804306 -0.9380170702934265 0.3387049734592438 184 50 137
0.015333273448050022 -0.9261866807937622 0.37675341963768005 187 53 134
0.1163395568728447 -0.9296593070030212 0.34956932067871094 192 59 129
-0.03652745485305786 -0.9484720230102539 0.3147483766078949 191 57 130
-0.001479930360801518 -0.9484043717384338 0.3170597553253174 189 55 132
-0.009142044931650162 -0.9484115242958069 0.3169102370738983 196 63 126
0.14872770011425018 -0.9246309995651245 0.3506244421005249 199 66 123
0.16098791360855103 -0.93731290102005 0.30907532572746277 199 66 123
0.2448151558637619 -0.888191282749176 0.38882094621658325 205 73 117
0.22522491216659546 -0.8699818849563599 0.43864041566848755 207 75 116
0.2538248300552368 -0.8571186065673828 0.4482415020465851 213 83 109
0.2193996012210846 -0.8761560916900635 0.4292019009590149 221 95 101
0.31665322184562683 -0.826053261756897 0.46622613072395325 227 104 94
0.26778557896614075 -0.8565565347671509 0.44113683700561523 228 106 93
0.243265300989151 -0.860835611820221 0.4469720721244812 220 93 102
0.25069761276245117 -0.8807593584060669 0.4017631709575653 223 97 99
0.2875383794307709 -0.8732520341873169 0.3933861255645752 225 101 96
0.27315524220466614 -0.9093170166015625 0.3138931095600128 229 107 92
0.27291613817214966 -0.8956246972084045 0.3512452244758606 229 108 91
0.23360159993171692 -0.9163749814033508 0.3250957727432251 237 123 81
0.17806364595890045 -0.9501110911369324 0.2560904324054718 244 137 71
0.16887591779232025 -0.9671838879585266 0.18983204662799835 242 132 75
0.11607032269239426 -0.9746968150138855 0.19103343784809113 247 146 65
0.19698238372802734 -0.964385449886322 0.17651794850826263 249 153 61
0.2345811277627945 -0.9650490880012512 0.11684149503707886 245 141 69
0.4017118215560913 -0.9157641530036926 -0.0019258810207247734 243 134 73
0.4048806130886078 -0.8873512744903564 -0.22063428163528442 239 125 79
0.3942056894302368 -0.8864478468894958 -0.24251213669776917 234 116 85
0.385436087846756 -0.8645427823066711 -0.3224976360797882 236 119 84
0.3932053744792938 -0.8798334002494812 -0.2669881284236908 236 119 84
0.32348111271858215 -0.8934449553489685 -0.3116346597671509 237 121 82
0.3205048143863678 -0.8702701926231384 -0.3740406334400177 239 126 78
0.3315752446651459 -0.8319442868232727 -0.44488945603370667 242 133 74
0.32901641726493835 -0.7904912233352661 -0.5165963172912598 245 139 70
0.2374241203069687 -0.7388579845428467 -0.6306494474411011 248 149 64
0.2785835266113281 -0.6123907566070557 -0.7398437261581421 249 153 61
0.2604101002216339 -0.47602707147598267 -0.8399909138679504 248 152 62
0.23471102118492126 -0.4949096143245697 -0.8366451859474182 248 152 62
0.207883819937706 -0.5517536401748657 -0.8076832294464111 247 147 65
0.30820831656455994 -0.49908116459846497 -0.8098922967910767 245 139 70
0.3501044809818268 -0.5412092208862305 -0.7645387649536133 243 134 73
0.2790297567844391 -0.5374925136566162 -0.7957664132118225 243 134 73
0.34501248598098755 -0.5149056911468506 -0.7847537994384766 243 134 73
0.3194986879825592 -0.4315630793571472 -0.8436077237129211 244 137 71
0.3039729595184326 -0.4301670789718628 -0.8500332832336426 245 139 70
0.26854532957077026 -0.4486362040042877 -0.8524135947227478 245 139 70
0.2863028347492218 -0.40564432740211487 -0.8680341839790344 244 138 71
0.29773974418640137 -0.3987409472465515 -0.8673849701881409 244 138 71
0.33719369769096375 -0.38657525181770325 -0.8584055304527283 244 138 71
0.3948916494846344 -0.42040154337882996 -0.8168984055519104 245 141 69
0.4158851206302643 -0.44452500343322754 -0.7933707237243652 247 147 65
0.48610973358154297 -0.4664944112300873 -0.738972544670105 250 157 58
0.48982879519462585 -0.5116614103317261 -0.705882728099823 251 162 56
0.4580841362476349 -0.5238518118858337 -0.7181491255760193 252 166 53
0.5451766848564148 -0.45253434777259827 -0.7056876420974731 252 167 53
0.5812053084373474 -0.4342893362045288 -0.6881811022758484 252 167 53
0.6032730340957642 -0.4467168152332306 -0.6606857776641846 251 164 54
0.6187910437583923 -0.3918304741382599 -0.6808571815490723 251 164 54
0.6185723543167114 -0.3161023259162903 -0.7193382978439331 251 162 56
0.5685939788818359 -0.18995754420757294 -0.8003854751586914 251 162 56
0.513275146484375 -0.12213194370269775 -0.8494895100593567 251 162 56
0.4516267776489258 -0.16243354976177216 -0.8772961497306824 251 164 54
0.33542636036872864 -0.27061864733695984 -0.9023606181144714 251 163 55
0.270415723323822 -0.24055500328540802 -0.9322062730789185 251 164 54
0.356092244386673 -0.12727609276771545 -0.9257424473762512 252 166 53
0.3472547233104706 -0.14801530539989471 -0.9260159730911255 252 166 53
0.3677736520767212 -0.22064624726772308 -0.9033591747283936 251 163 55
0.30704620480537415 -0.2649746835231781 -0.9140629768371582 251 164 54
0.37662217020988464 -0.2464578002691269 -0.8929806351661682 251 164 54
0.37751588225364685 -0.2144152820110321 -0.9008373022079468 250 160 57
0.4895816445350647 -0.14062505960464478 -0.8605431318283081 250 157 58
0.4495832622051239 -0.0816262736916542 -0.8895010352134705 250 156 59
0.42957961559295654 -0.07094521075487137 -0.9002377390861511 250 157 58
