ply
format ascii 1.0
element vertex 698
property float x
property float y
property float z
property uchar red
property uchar green
property uchar blue
end_header
0.07615095376968384 -0.3117273151874542 0.007090537343174219 0 0 255
0.13956454396247864 -0.2149682492017746 0.05686085298657417 0 0 255
2.047654015768785e-05 -0.2197563499212265 0.16061028838157654 0 0 255
-0.0347491130232811 -0.1341998428106308 0.09896723926067352 0 0 255
0.032673429697752 -0.1422397345304489 0.1731751710176468 0 0 255
0.02516351081430912 -0.14128760993480682 0.17713364958763123 0 0 255
-0.014401118271052837 -0.09999873489141464 0.17267093062400818 0 0 255
0.0008186608320102096 -0.13127297163009644 0.2474350482225418 0 0 255
0.043770477175712585 -0.12730984389781952 0.17596635222434998 0 0 255
0.08581027388572693 -0.13182185590267181 0.2089732587337494 0 0 255
0.1792718917131424 -0.15956047177314758 0.12787388265132904 0 0 255
0.20988404750823975 -0.17779098451137543 0.09353575110435486 0 0 255
0.27770793437957764 -0.22245527803897858 -0.007040922995656729 0 0 255
0.2190183848142624 -0.2734620273113251 0.002203641925007105 0 0 255
0.18378883600234985 -0.32565826177597046 -0.01846010982990265 0 0 255
0.1611199826002121 -0.27577996253967285 0.007578836288303137 0 0 255
0.1120365560054779 -0.25411686301231384 0.029534444212913513 0 0 255
0.1434383988380432 -0.2590687572956085 -0.003858364187180996 0 0 255
0.18543167412281036 -0.264673113822937 -0.0840403139591217 0 0 255
0.20550602674484253 -0.2390388697385788 -0.0779777467250824 0 0 255
0.2277510166168213 -0.2868199646472931 -0.06827163696289062 0 0 255
0.2082236111164093 -0.24308641254901886 -0.03461329638957977 0 0 255
0.14341914653778076 -0.199959397315979 0.01286774966865778 0 0 255
0.13670067489147186 -0.23030515015125275 -0.13527408242225647 0 0 255
0.1378360390663147 -0.3048381209373474 -0.0999300554394722 0 0 255
0.12172936648130417 -0.2321435511112213 0.06507164239883423 0 0 255
0.0060943192802369595 -0.17192742228507996 0.20877645909786224 0 0 255
-0.05715258792042732 -0.21661345660686493 0.2773474454879761 0 0 255
-0.09366345405578613 -0.21396712958812714 0.30823972821235657 0 0 255
-0.12331023067235947 -0.21057793498039246 0.3642224073410034 0 0 255
-0.17911061644554138 -0.23106826841831207 0.36859574913978577 0 0 255
-0.16443338990211487 -0.1955856829881668 0.3867579996585846 0 0 255
-0.2023024708032608 -0.21778319776058197 0.4267156422138214 0 0 255
-0.23483961820602417 -0.2317023128271103 0.4238855242729187 0 0 255
-0.3148351013660431 -0.17244434356689453 0.4954112768173218 0 0 255
-0.38507816195487976 -0.10198985040187836 0.583904504776001 0 0 255
-0.42924872040748596 -0.049861203879117966 0.6194719076156616 0 0 255
-0.4808599054813385 0.031128110364079475 0.6208454966545105 0 0 255
-0.5067461133003235 0.08891110867261887 0.6050868034362793 0 0 255
-0.5253357291221619 0.10128224641084671 0.5952656269073486 0 0 255
-0.5264949798583984 0.13035725057125092 0.580623984336853 0 0 255
-0.5466899871826172 0.14112965762615204 0.5641234517097473 0 0 255
-0.5456215739250183 0.13769452273845673 0.5541499257087708 0 0 255
-0.5460726618766785 0.14012107253074646 0.5659155249595642 0 0 255
-0.5349447131156921 0.12369925528764725 0.5603933930397034 0 0 255
-0.5312710404396057 0.09493411332368851 0.5463169813156128 0 0 255
-0.5337949395179749 0.09190959483385086 0.552320659160614 0 0 255
-0.539860188961029 0.060392893850803375 0.542871356010437 0 0 255
-0.5621240139007568 0.06140032410621643 0.5188953876495361 0 0 255
-0.5812993049621582 0.02988002449274063 0.456610769033432 0 0 255
-0.594580888748169 0.029014358296990395 0.3798116147518158 0 0 255
-0.6036890149116516 -0.00015360917313955724 0.2872871458530426 0 0 255
-0.637525200843811 -0.08010455220937729 0.297854483127594 0 0 255
-0.5703878402709961 -0.12847380340099335 0.37479567527770996 0 0 255
-0.5467897057533264 -0.1129334419965744 0.4334639310836792 0 0 255
-0.5203114748001099 -0.14365926384925842 0.3942292034626007 0 0 255
-0.49013054370880127 -0.12665057182312012 0.35566115379333496 0 0 255
-0.5246024131774902 -0.19224108755588531 0.308247834444046 0 0 255
-0.35474705696105957 -0.25320062041282654 0.29585403203964233 0 0 255
-0.2663341164588928 -0.24797707796096802 0.2940112352371216 0 0 255
-0.20829586684703827 -0.24691437184810638 0.25617483258247375 0 0 255
-0.240574449300766 -0.2493341565132141 0.2728888690471649 0 0 255
-0.2838252782821655 -0.2306918352842331 0.23728898167610168 0 0 255
-0.29855042695999146 -0.19539405405521393 0.2039526402950287 0 0 255
-0.22044740617275238 -0.20566082000732422 0.22685196995735168 0 0 255
-0.24154545366764069 -0.21893420815467834 0.31013569235801697 0 0 255
-0.16399075090885162 -0.19613859057426453 0.3533977270126343 0 0 255
-0.16568422317504883 -0.23503023386001587 0.37248945236206055 0 0 255
-0.07841972261667252 -0.17612186074256897 0.332845538854599 0 0 255
-0.02674168348312378 -0.17084740102291107 0.3333355784416199 0 0 255
0.05971509590744972 -0.15782977640628815 0.3083374798297882 0 0 255
0.11057660728693008 -0.14897240698337555 0.2962318956851959 0 0 255
0.1723104864358902 -0.12883280217647552 0.2445165514945984 0 0 255
0.1881292760372162 -0.09543600678443909 0.2681069076061249 0 0 255
0.2334093600511551 -0.09449446946382523 0.2723294496536255 0 0 255
0.2211732268333435 -0.06569656729698181 0.262231707572937 0 0 255
0.2699950039386749 -0.047881677746772766 0.22288422286510468 0 0 255
0.2795936167240143 -0.042694877833127975 0.221523717045784 0 0 255
0.31127554178237915 -0.02375064790248871 0.23823538422584534 0 0 255
0.34116944670677185 0.004898481536656618 0.22090749442577362 0 0 255
0.3679191470146179 0.025593368336558342 0.20755814015865326 0 0 255
0.40994250774383545 0.034312959760427475 0.18023566901683807 0 0 255
0.4387076795101166 0.006826107390224934 0.1527966409921646 0 0 255
0.4709756374359131 0.011735371313989162 0.09359240531921387 0 0 255
0.5391122698783875 0.016519831493496895 0.08227460086345673 0 0 255
0.595081090927124 -0.014889956451952457 0.019335083663463593 0 0 255
0.5934759974479675 0.08161986619234085 -0.02009356953203678 0 0 255
0.6161700487136841 0.0805998221039772 -0.020255424082279205 0 0 255
0.5707176923751831 0.06986408680677414 0.049396488815546036 0 0 255
0.4909181296825409 0.042821984738111496 0.11450734734535217 0 0 255
0.435825377702713 0.010115312412381172 0.12205099314451218 0 0 255
0.4373023808002472 -0.015273046679794788 0.13795052468776703 0 0 255
0.4349459707736969 -0.046878885477781296 0.15620554983615875 0 0 255
0.4297359585762024 -0.045346926897764206 0.10208088904619217 0 0 255
0.4301542341709137 -0.02806255966424942 0.10595594346523285 0 0 255
0.462800532579422 -0.04101143404841423 0.0778774693608284 0 0 255
0.4928082227706909 -0.05495654419064522 0.09623491764068604 0 0 255
0.5096897482872009 -0.06228708103299141 0.09336017072200775 0 0 255
0.507656991481781 -0.07309349626302719 0.09266521781682968 0 0 255
0.47024253010749817 -0.07773758471012115 0.08613607287406921 0 0 255
0.45727360248565674 -0.0586710050702095 0.12546168267726898 0 0 255
0.4661911725997925 -0.07270168513059616 0.05263907089829445 0 0 255
0.5401321649551392 -0.07924287766218185 0.020547818392515182 0 0 255
0.6391422152519226 -0.1593238115310669 -0.11775624006986618 0 0 255
0.6738598346710205 -0.1826046109199524 -0.33417490124702454 0 0 255
0.6939448714256287 -0.12462328374385834 -0.4721701741218567 0 0 255
0.6434478163719177 -0.18741349875926971 -0.5183983445167542 0 0 255
0.5876284837722778 -0.17623436450958252 -0.528339684009552 0 0 255
0.5484238266944885 -0.1791166216135025 -0.494856059551239 0 0 255
0.4096784293651581 -0.02259167470037937 -0.6165648102760315 0 0 255
0.4875953495502472 -0.0768221989274025 -0.6187384724617004 0 0 255
0.38468119502067566 -0.23774220049381256 -0.596321702003479 0 0 255
0.4398302733898163 -0.3451463282108307 -0.5854490399360657 0 0 255
0.37820056080818176 -0.3055340051651001 -0.22501979768276215 0 0 255
0.20150069892406464 -0.3288222551345825 0.02532023750245571 0 0 255
0.20553232729434967 -0.2475377917289734 0.0038080750964581966 0 0 255
0.19451016187667847 -0.1881588101387024 0.04528747871518135 0 0 255
0.20095545053482056 -0.20670124888420105 0.02388232760131359 0 0 255
0.24392414093017578 -0.2889457643032074 0.03303377330303192 0 0 255
0.26917561888694763 -0.2757503390312195 -0.07259351015090942 0 0 255
0.3475167155265808 -0.29948604106903076 -0.11380118131637573 0 0 255
0.368131548166275 -0.28559446334838867 -0.07441557198762894 0 0 255
0.3860870897769928 -0.21989646553993225 -0.11918926239013672 0 0 255
0.4448723793029785 -0.2191595584154129 -0.06731246411800385 0 0 255
0.44553253054618835 -0.18500851094722748 -0.018110480159521103 0 0 255
0.43106627464294434 -0.16806825995445251 -0.02776639722287655 0 0 255
0.47604987025260925 -0.13778860867023468 -0.01234997995197773 0 0 255
0.5061286687850952 -0.0736139640212059 -0.004957401659339666 0 0 255
0.5399239659309387 -0.12420374900102615 -0.13533088564872742 0 0 255
0.5810360908508301 -0.09868810325860977 -0.15241488814353943 0 0 255
0.6090668439865112 -0.1710629016160965 -0.20258767902851105 0 0 255
0.5807044506072998 -0.12460295855998993 -0.2586503326892853 0 0 255
0.6215053200721741 -0.13694816827774048 -0.286337673664093 0 0 255
0.5475655794143677 -0.2243683636188507 -0.27326399087905884 0 0 255
0.5783360004425049 -0.1932910680770874 -0.4548827111721039 0 0 255
0.5559684634208679 0.01481474470347166 -0.4195307493209839 0 0 255
0.632209837436676 0.11354756355285645 -0.41867417097091675 0 0 255
0.5102313756942749 0.20098087191581726 -0.37578707933425903 0 0 255
0.24997678399085999 0.1626378744840622 -0.3015464246273041 0 0 255
-0.011361817829310894 0.1754453033208847 -0.21279098093509674 0 0 255
-0.10621992498636246 0.13064278662204742 -0.2585923671722412 0 0 255
-0.13688884675502777 0.11962728202342987 -0.23742173612117767 0 0 255
-0.1174720823764801 0.09549449384212494 -0.26132503151893616 0 0 255
-0.11168277263641357 0.12775225937366486 -0.26289740204811096 0 0 255
-0.10283970087766647 0.15726755559444427 -0.2428659051656723 0 0 255
-0.06577885150909424 0.1758890450000763 -0.2598482668399811 0 0 255
-0.058154474943876266 0.18688245117664337 -0.23040327429771423 0 0 255
0.006706612650305033 0.17003707587718964 -0.22433114051818848 0 0 255
-0.03034396283328533 0.19065457582473755 -0.21674557030200958 0 0 255
-0.06163343787193298 0.220262348651886 -0.18856240808963776 0 0 255
-0.08206824958324432 0.20264914631843567 -0.13714230060577393 0 0 255
-0.1785278171300888 0.25037336349487305 -0.07126732170581818 0 0 255
-0.2847493886947632 0.29370635747909546 -0.05877046287059784 0 0 255
-0.3484213054180145 0.30875253677368164 0.027490392327308655 0 0 255
-0.37482666969299316 0.3296772539615631 0.10442733764648438 0 0 255
-0.512692928314209 0.3789164125919342 0.05305282026529312 0 0 255
-0.4372912049293518 0.35963913798332214 0.09665369987487793 0 0 255
-0.493538498878479 0.26566967368125916 0.06430472433567047 0 0 255
-0.42400485277175903 0.2755435109138489 0.01383461058139801 0 0 255
-0.2995893061161041 0.28783977031707764 -0.09390128403902054 0 0 255
-0.2578856647014618 0.22407084703445435 -0.16852962970733643 0 0 255
-0.242592915892601 0.21497681736946106 -0.1744120866060257 0 0 255
-0.18818631768226624 0.23498250544071198 -0.23126433789730072 0 0 255
-0.1554245501756668 0.21673479676246643 -0.1960657685995102 0 0 255
-0.1283823847770691 0.2112366110086441 -0.2213078886270523 0 0 255
-0.11852166801691055 0.2348521500825882 -0.19273357093334198 0 0 255
-0.161294087767601 0.21733486652374268 -0.20866361260414124 0 0 255
-0.20074976980686188 0.22841773927211761 -0.13450078666210175 0 0 255
-0.19431589543819427 0.20201343297958374 -0.1373450607061386 0 0 255
-0.18760576844215393 0.2118390053510666 -0.07855517417192459 0 0 255
-0.1596442312002182 0.24797913432121277 -0.15242259204387665 0 0 255
-0.2264760583639145 0.2980678379535675 -0.05822204053401947 0 0 255
-0.2658628523349762 0.2737750709056854 -0.014570032246410847 0 0 255
-0.27259182929992676 0.3256168067455292 0.025202518329024315 0 0 255
-0.32276248931884766 0.32749152183532715 0.06319144368171692 0 0 255
-0.2834692597389221 0.3191947042942047 0.04448460415005684 0 0 255
-0.31550413370132446 0.3484272360801697 0.053467459976673126 0 0 255
-0.3069934844970703 0.3605949878692627 0.07097914814949036 0 0 255
-0.31609106063842773 0.38649338483810425 0.059209972620010376 0 0 255
-0.3431165814399719 0.37890365719795227 0.04078239947557449 0 0 255
-0.3528861403465271 0.3586600720882416 -0.06816380470991135 0 0 255
-0.31088224053382874 0.32460975646972656 -0.05789697542786598 0 0 255
-0.2280786633491516 0.27684614062309265 -0.2048785537481308 0 0 255
-0.27560490369796753 0.19659295678138733 -0.1689220517873764 0 0 255
-0.2138800024986267 0.2189037948846817 -0.24221345782279968 0 0 255
-0.1240353137254715 0.22615335881710052 -0.3088319003582001 0 0 255
-0.08965570479631424 0.2437899261713028 -0.3117557466030121 0 0 255
-0.060536716133356094 0.23836763203144073 -0.20358479022979736 0 0 255
-0.03228773921728134 0.25306499004364014 -0.2370009422302246 0 0 255
-0.08315920829772949 0.2715676724910736 -0.1613418161869049 0 0 255
-0.06746009737253189 0.2587467432022095 -0.2088579535484314 0 0 255
-0.060851115733385086 0.24847090244293213 -0.18172764778137207 0 0 255
-0.07278403639793396 0.2313406616449356 -0.18788912892341614 0 0 255
-0.07448208332061768 0.21478548645973206 -0.23007942736148834 0 0 255
-0.025117333978414536 0.20113499462604523 -0.2641781270503998 0 0 255
0.019620560109615326 0.15801778435707092 -0.3024257719516754 0 0 255
0.061164580285549164 0.1342412680387497 -0.27929961681365967 0 0 255
0.07884305715560913 0.14556628465652466 -0.2904677093029022 0 0 255
0.05481703206896782 0.15003208816051483 -0.279987096786499 0 0 255
0.040723081678152084 0.14602996408939362 -0.27382633090019226 0 0 255
0.013319522142410278 0.15628573298454285 -0.2290554642677307 0 0 255
0.005550223868340254 0.17208382487297058 -0.23148170113563538 0 0 255
0.02554165944457054 0.198672354221344 -0.19929493963718414 0 0 255
0.004851953592151403 0.2024555504322052 -0.1482783854007721 0 0 255
0.017907878383994102 0.24581293761730194 -0.1622801423072815 0 0 255
-0.020347073674201965 0.23039127886295319 -0.087393619120121 0 0 255
-0.030155735090374947 0.2754617929458618 -0.02725348435342312 0 0 255
-0.09823932498693466 0.2809825837612152 0.057826172560453415 0 0 255
-0.1617056429386139 0.3099517524242401 0.1351257562637329 0 0 255
-0.14924106001853943 0.32944685220718384 0.149688720703125 0 0 255
-0.18745750188827515 0.3114710748195648 0.1689598113298416 0 0 255
-0.2097037434577942 0.3024786710739136 0.16149142384529114 0 0 255
-0.2602728307247162 0.2932738661766052 0.14967140555381775 0 0 255
-0.27561360597610474 0.2848052978515625 0.15326815843582153 0 0 255
-0.30248793959617615 0.2793944776058197 0.1588035523891449 0 0 255
-0.3045826256275177 0.27418065071105957 0.14495861530303955 0 0 255
-0.32003965973854065 0.26280850172042847 0.14144298434257507 0 0 255
-0.31828543543815613 0.27009931206703186 0.14730095863342285 0 0 255
-0.3070913553237915 0.2768911123275757 0.12933588027954102 0 0 255
-0.30304011702537537 0.2856733798980713 0.13693566620349884 0 0 255
-0.3053174614906311 0.269337922334671 0.10663194954395294 0 0 255
-0.27573320269584656 0.29546037316322327 0.10287198424339294 0 0 255
-0.2678632140159607 0.3036958873271942 0.1510656625032425 0 0 255
-0.27665039896965027 0.28120115399360657 0.14336274564266205 0 0 255
-0.2800282835960388 0.2945846617221832 0.16692358255386353 0 0 255
-0.2651435434818268 0.321442186832428 0.2358466535806656 0 0 255
-0.296683132648468 0.3591468930244446 0.3990343511104584 0 0 255
-0.3371281921863556 0.36631131172180176 0.5016825199127197 0 0 255
-0.35624486207962036 0.3585968017578125 0.5629678964614868 0 0 255
-0.40035882592201233 0.3459584414958954 0.5905558466911316 0 0 255
-0.40867680311203003 0.27795761823654175 0.6275017857551575 0 0 255
-0.4012298285961151 0.27086320519447327 0.6821731328964233 0 0 255
-0.469279944896698 0.3039831817150116 0.6005880236625671 0 0 255
-0.46586281061172485 0.29741182923316956 0.4540750980377197 0 0 255
-0.35528719425201416 0.21687503159046173 0.20592983067035675 0 0 255
-0.30829164385795593 0.22201645374298096 0.050532374531030655 0 0 255
-0.2678855359554291 0.2271714210510254 -0.05409860610961914 0 0 255
-0.18048611283302307 0.17435741424560547 -0.06809582561254501 0 0 255
-0.15484564006328583 0.20671528577804565 -0.11741112917661667 0 0 255
-0.1359984278678894 0.21869418025016785 -0.12841983139514923 0 0 255
-0.0617559514939785 0.20101670920848846 -0.11891310662031174 0 0 255
-0.07781945914030075 0.20887836813926697 -0.21624143421649933 0 0 255
-0.08068211376667023 0.23848307132720947 -0.1377495378255844 0 0 255
-0.08872812241315842 0.2689282298088074 -0.14901429414749146 0 0 255
0.0023157941177487373 0.3446377217769623 -0.09526538103818893 0 0 255
0.01866505667567253 0.3431049585342407 0.02636043354868889 0 0 255
0.015366628766059875 0.3691248297691345 0.012099811807274818 0 0 255
0.05811796337366104 0.45667165517807007 -0.11169365793466568 0 0 255
0.16320934891700745 0.3844924867153168 -0.09906043857336044 0 0 255
0.30085787177085876 0.23471814393997192 -0.3592334985733032 0 0 255
0.3033508360385895 0.27218097448349 -0.35407742857933044 0 0 255
0.49892568588256836 0.21732471883296967 -0.49081140756607056 0 0 255
0.7515715956687927 0.10237476974725723 -0.2960580587387085 0 0 255
0.7693374156951904 0.012951184064149857 -0.4555996060371399 0 0 255
0.5583020448684692 0.08144836872816086 -0.4356643855571747 0 0 255
0.42767754197120667 0.06212765350937843 -0.43706703186035156 0 0 255
0.3758683204650879 0.17029958963394165 -0.3425755798816681 0 0 255
0.09213737398386002 0.28227418661117554 -0.0487811379134655 0 0 255
0.17803820967674255 0.29302382469177246 -0.20942439138889313 0 0 255
0.20374247431755066 0.21208734810352325 -0.230744406580925 0 0 255
0.31198176741600037 0.1790497601032257 -0.2668795883655548 0 0 255
0.37410545349121094 0.1640779674053192 -0.3990512192249298 0 0 255
0.4774010181427002 0.12998858094215393 -0.422033429145813 0 0 255
0.5351917743682861 0.10729517042636871 -0.3709240257740021 0 0 255
0.655635416507721 0.08344893902540207 -0.38977622985839844 0 0 255
0.6866117119789124 0.09045374393463135 -0.3946443200111389 0 0 255
0.716641902923584 0.06442329287528992 -0.3162355124950409 0 0 255
0.7946561574935913 0.05305170640349388 -0.29234781861305237 0 0 255
0.814157247543335 0.07200567424297333 -0.26115816831588745 0 0 255
0.8068211078643799 0.050584662705659866 -0.16122275590896606 0 0 255
0.7910885214805603 0.0179126113653183 -0.09307490289211273 0 0 255
0.7893233895301819 -0.007428973447531462 -0.06882768124341965 0 0 255
0.7433715462684631 0.016590088605880737 -0.04710902273654938 0 0 255
0.7369688153266907 -0.004854459781199694 -0.05620768293738365 0 0 255
0.7219585180282593 -0.02536020055413246 -0.06819384545087814 0 0 255
0.6972919702529907 -0.031713444739580154 -0.08198647946119308 0 0 255
0.6986450552940369 -0.050463560968637466 -0.1056201159954071 0 0 255
0.6965423822402954 -0.07386462390422821 -0.135716050863266 0 0 255
0.6536644101142883 -0.07399038225412369 -0.2846297025680542 0 0 255
0.6420968174934387 -0.1213415190577507 -0.3918422758579254 0 0 255
0.5848090052604675 -0.1271408051252365 -0.4157540500164032 0 0 255
0.5679869055747986 -0.10442065447568893 -0.4218688905239105 0 0 255
0.5688945651054382 -0.0742812305688858 -0.4739648997783661 0 0 255
0.5528974533081055 -0.04917324334383011 -0.46768423914909363 0 0 255
0.5828315615653992 -0.037584420293569565 -0.46928870677948 0 0 255
0.5692838430404663 0.003732304321601987 -0.4105147421360016 0 0 255
0.5901038646697998 0.0975179374217987 -0.347786545753479 0 0 255
0.5624710321426392 0.15521828830242157 -0.3233053386211395 0 0 255
0.45598697662353516 0.24352580308914185 -0.3268357217311859 0 0 255
0.4192328155040741 0.2865820527076721 -0.3213557004928589 0 0 255
0.3650951385498047 0.2864260971546173 -0.35069766640663147 0 0 255
0.3857458233833313 0.296931654214859 -0.3359185755252838 0 0 255
0.3659718334674835 0.2825351357460022 -0.3451862037181854 0 0 255
0.39532214403152466 0.2747512459754944 -0.36279356479644775 0 0 255
0.40645062923431396 0.27508872747421265 -0.359239786863327 0 0 255
0.4642859399318695 0.26771846413612366 -0.3524145483970642 0 0 255
0.5200696587562561 0.28361067175865173 -0.26519036293029785 0 0 255
0.6055827736854553 0.32733088731765747 -0.20203137397766113 0 0 255
0.606529712677002 0.37904930114746094 -0.20862357318401337 0 0 255
0.6453048586845398 0.33792153000831604 -0.22776444256305695 0 0 255
0.5773872137069702 0.32042625546455383 -0.18846067786216736 0 0 255
0.46187612414360046 0.32133254408836365 -0.23584865033626556 0 0 255
0.43977051973342896 0.27260467410087585 -0.2866840958595276 0 0 255
0.514420747756958 0.20073704421520233 -0.3077836036682129 0 0 255
0.4730186462402344 0.18805226683616638 -0.3588714003562927 0 0 255
0.5537989139556885 0.17740915715694427 -0.40849220752716064 0 0 255
0.5829640626907349 0.16819147765636444 -0.3789490759372711 0 0 255
0.6667667031288147 0.16594482958316803 -0.34218814969062805 0 0 255
0.6393459439277649 0.13963378965854645 -0.33985236287117004 0 0 255
0.640414834022522 0.09058047086000443 -0.3262515068054199 0 0 255
0.6177400946617126 0.05321686342358589 -0.400950163602829 0 0 255
0.6416233777999878 0.02676287293434143 -0.39904141426086426 0 0 255
0.5842797160148621 0.022205540910363197 -0.427295446395874 0 0 255
0.6051881313323975 0.01784723438322544 -0.4505690336227417 0 0 255
0.6255818605422974 0.017447223886847496 -0.4591314196586609 0 0 255
0.593544602394104 0.019916359335184097 -0.48139554262161255 0 0 255
0.6044838428497314 0.011368731036782265 -0.4769109785556793 0 0 255
0.6277057528495789 0.018439900130033493 -0.467031866312027 0 0 255
0.6153084635734558 0.012561431154608727 -0.472352534532547 0 0 255
0.6427174210548401 -0.0020379170309752226 -0.3970857560634613 0 0 255
0.6476477980613708 -0.03279925510287285 -0.23392747342586517 0 0 255
0.6241280436515808 -0.0024647817481309175 -0.2005886435508728 0 0 255
0.6433543562889099 -0.00483102910220623 -0.15211020410060883 0 0 255
0.6092169284820557 -0.01937446929514408 -0.12554004788398743 0 0 255
0.6163201332092285 -0.026231179013848305 -0.06167447194457054 0 0 255
0.5724350214004517 -0.045429762452840805 -0.055083829909563065 0 0 255
0.5926291346549988 -0.05947134271264076 -0.05458037555217743 0 0 255
0.5658217668533325 -0.07564098387956619 -0.03171297162771225 0 0 255
0.5509931445121765 -0.09254897385835648 -0.06466261297464371 0 0 255
0.5643420815467834 -0.11631563305854797 -0.0785239189863205 0 0 255
0.5512094497680664 -0.12146081030368805 -0.05082976818084717 0 0 255
0.5396863222122192 -0.13825219869613647 -0.056226134300231934 0 0 255
0.48680415749549866 -0.12112722545862198 -0.04731583222746849 0 0 255
0.4647866487503052 -0.15914298593997955 -0.009380391798913479 0 0 255
0.4545251429080963 -0.1863834261894226 -0.006860503926873207 0 0 255
0.41004660725593567 -0.18576928973197937 -0.00025306353927589953 0 0 255
0.3739047348499298 -0.19340047240257263 0.018553918227553368 0 0 255
0.36812344193458557 -0.19747143983840942 0.056086402386426926 0 0 255
0.3388705253601074 -0.18079063296318054 0.06502493470907211 0 0 255
0.34849095344543457 -0.20816203951835632 0.04615143686532974 0 0 255
0.3441736400127411 -0.20715366303920746 0.06589528918266296 0 0 255
0.3138304352760315 -0.21897800266742706 0.09776115417480469 0 0 255
0.2890191674232483 -0.19170193374156952 0.12782695889472961 0 0 255
0.20750759541988373 -0.20450451970100403 0.20337438583374023 0 0 255
0.09391839802265167 -0.18286213278770447 0.27498990297317505 0 0 255
0.11883064359426498 -0.16224424540996552 0.2671893835067749 0 0 255
0.10404369235038757 -0.10044415295124054 0.32019397616386414 0 0 255
0.10483385622501373 -0.07807249575853348 0.32483819127082825 0 0 255
0.09248248487710953 -0.052728332579135895 0.33462968468666077 0 0 255
0.08308516442775726 -0.07880192995071411 0.3354280889034271 0 0 255
0.06080261990427971 -0.07538102567195892 0.30962392687797546 0 0 255
0.10687203705310822 -0.08330051600933075 0.31684762239456177 0 0 255
0.07140614092350006 -0.08309342712163925 0.3374839425086975 0 0 255
0.10324723273515701 -0.07422218471765518 0.3068717420101166 0 0 255
0.14109128713607788 -0.10376113653182983 0.2617494463920593 0 0 255
0.2392767071723938 -0.1569625735282898 0.15076783299446106 0 0 255
0.2651267349720001 -0.19844041764736176 0.12337492406368256 0 0 255
0.23003175854682922 -0.18281050026416779 0.12318450957536697 0 0 255
0.1741800159215927 -0.16937322914600372 0.16586869955062866 0 0 255
0.13788239657878876 -0.16653452813625336 0.15154869854450226 0 0 255
0.11327926814556122 -0.18311603367328644 0.1579243540763855 0 0 255
0.11550983041524887 -0.18273545801639557 0.16375748813152313 0 0 255
0.116496242582798 -0.18488849699497223 0.16386714577674866 0 0 255
0.12937438488006592 -0.1825663149356842 0.16700871288776398 0 0 255
0.14120620489120483 -0.18959428369998932 0.13120079040527344 0 0 255
0.13385416567325592 -0.21201495826244354 0.10872378945350647 0 0 255
0.14766094088554382 -0.22511035203933716 0.07915173470973969 0 0 255
0.16032668948173523 -0.2361091822385788 0.061310842633247375 0 0 255
0.19117142260074615 -0.2424371838569641 0.03677067533135414 0 0 255
0.21974529325962067 -0.22657223045825958 0.02016928419470787 0 0 255
0.2178419828414917 -0.25132203102111816 0.011938792653381824 0 0 255
0.24709637463092804 -0.2212018221616745 0.025822320953011513 0 0 255
0.2732594311237335 -0.19767124950885773 0.046611834317445755 0 0 255
0.24549570679664612 -0.15991461277008057 0.07866416871547699 0 0 255
0.261357843875885 -0.15042568743228912 0.08342276513576508 0 0 255
0.29291078448295593 -0.16876782476902008 0.12288714945316315 0 0 255
0.29447782039642334 -0.16792060434818268 0.05095496028661728 0 0 255
0.3284910321235657 -0.15027321875095367 0.03995496779680252 0 0 255
0.3772639334201813 -0.21075432002544403 0.02141086384654045 0 0 255
0.39559879899024963 -0.18505741655826569 -0.061487291008234024 0 0 255
0.5177433490753174 -0.21078012883663177 -0.24391481280326843 0 0 255
0.4347238838672638 -0.23677772283554077 -0.19804181158542633 0 0 255
0.5020681023597717 -0.2120349109172821 -0.21214978396892548 0 0 255
0.5255310535430908 -0.17592446506023407 -0.16481348872184753 0 0 255
0.5744156241416931 -0.11796844750642776 -0.17058761417865753 0 0 255
0.5592315793037415 -0.11288148909807205 -0.17366988956928253 0 0 255
0.5493509769439697 -0.09338067471981049 -0.13140101730823517 0 0 255
0.48105430603027344 -0.09506599605083466 -0.05950445681810379 0 0 255
0.4312869906425476 -0.14287592470645905 -0.02612781710922718 0 0 255
0.39474356174468994 -0.14760707318782806 0.006763651501387358 0 0 255
0.3608713746070862 -0.18876144289970398 0.0009940192103385925 0 0 255
0.34891438484191895 -0.2176506370306015 -0.006622823886573315 0 0 255
0.29779326915740967 -0.2631129324436188 -0.01727588288486004 0 0 255
0.27060791850090027 -0.26231688261032104 -0.0043551442213356495 0 0 255
0.21412664651870728 -0.2683940827846527 0.02169547975063324 0 0 255
0.18457138538360596 -0.27971458435058594 0.043381236493587494 0 0 255
0.15763680636882782 -0.2898595929145813 0.016405906528234482 0 0 255
0.1745089888572693 -0.2909795045852661 0.01782413199543953 0 0 255
0.16844351589679718 -0.30979156494140625 0.027335694059729576 0 0 255
0.1818752884864807 -0.28454577922821045 0.007904437370598316 0 0 255
0.17932242155075073 -0.2779095470905304 -0.001480214181356132 0 0 255
0.18343281745910645 -0.28273457288742065 0.006350555922836065 0 0 255
0.18664084374904633 -0.29672086238861084 -0.0030620445031672716 0 0 255
0.20099058747291565 -0.29754531383514404 -0.01402440294623375 0 0 255
0.16485294699668884 -0.29193055629730225 -0.0002301603672094643 0 0 255
0.17620037496089935 -0.2932264804840088 -0.010787414386868477 0 0 255
0.17325317859649658 -0.27753329277038574 0.010150838643312454 0 0 255
0.17350687086582184 -0.2626408040523529 0.02496400475502014 0 0 255
0.14308933913707733 -0.24425387382507324 0.06754612922668457 0 0 255
0.12143939733505249 -0.22317510843276978 0.08010796457529068 0 0 255
0.09131013602018356 -0.2081499844789505 0.08262193202972412 0 0 255
-0.04696797952055931 -0.23098333179950714 0.14021353423595428 0 0 255
-0.043559618294239044 -0.19593194127082825 0.12651966512203217 0 0 255
-0.06288687884807587 -0.18509095907211304 0.1672479510307312 0 0 255
-0.02173996903002262 -0.1970638930797577 0.18556904792785645 0 0 255
-0.016959192231297493 -0.1786227822303772 0.1558348387479782 0 0 255
0.014081408269703388 -0.16058115661144257 0.15164153277873993 0 0 255
0.05939920246601105 -0.16712293028831482 0.24990972876548767 0 0 255
0.08260888606309891 -0.1428970992565155 0.21908500790596008 0 0 255
0.06225169822573662 -0.14271117746829987 0.1886589676141739 0 0 255
0.13221578299999237 -0.16474080085754395 0.14620336890220642 0 0 255
0.07427458465099335 -0.18860936164855957 0.20010526478290558 0 0 255
0.10295592993497849 -0.1806981861591339 0.18987469375133514 0 0 255
-0.02364266850054264 -0.18265992403030396 0.24630317091941833 0 0 255
0.008003324270248413 -0.14025773108005524 0.20778769254684448 0 0 255
-0.019433986395597458 -0.15192271769046783 0.22849823534488678 0 0 255
-0.014926686882972717 -0.16015848517417908 0.20477798581123352 0 0 255
-0.04931611567735672 -0.1822749376296997 0.244268998503685 0 0 255
-0.016242649406194687 -0.1777174174785614 0.2629857361316681 0 0 255
-0.07482361048460007 -0.16493721306324005 0.2592807710170746 0 0 255
-0.08538942784070969 -0.15729036927223206 0.23883940279483795 0 0 255
-0.07225511968135834 -0.14282742142677307 0.23359715938568115 0 0 255
0.008841419592499733 -0.16300566494464874 0.21401633322238922 0 0 255
-0.0007991691236384213 -0.17705024778842926 0.23937451839447021 0 0 255
-0.026140909641981125 -0.17646728456020355 0.20575186610221863 0 0 255
-0.025586456060409546 -0.1811894029378891 0.21755298972129822 0 0 255
0.01300162822008133 -0.28133347630500793 0.1938387006521225 0 0 255
0.09077326208353043 -0.2307177037000656 0.15224874019622803 0 0 255
0.05477394536137581 -0.18895162642002106 0.2113758623600006 0 0 255
0.019476553425192833 -0.12561406195163727 0.2938011884689331 0 0 255
0.0015897095436230302 -0.10911194980144501 0.33738815784454346 0 0 255
-0.013658957555890083 -0.11989399790763855 0.3965097963809967 0 0 255
-0.04514576122164726 -0.12510228157043457 0.4192580580711365 0 0 255
-0.07429079711437225 -0.15055137872695923 0.36870262026786804 0 0 255
-0.05804794654250145 -0.1660858690738678 0.30776330828666687 0 0 255
-0.05867314338684082 -0.18523479998111725 0.2312229871749878 0 0 255
-0.027288302779197693 -0.18656815588474274 0.1596793383359909 0 0 255
0.023375554010272026 -0.16904529929161072 0.18801020085811615 0 0 255
-0.023140834644436836 -0.18594910204410553 0.24337275326251984 0 0 255
-0.0022007531952112913 -0.12883026897907257 0.2959560453891754 0 0 255
-0.0037857117131352425 -0.14102958142757416 0.28710198402404785 0 0 255
-0.020142963156104088 -0.19737210869789124 0.2720763385295868 0 0 255
0.00017969572218135 -0.2241864800453186 0.22601033747196198 0 0 255
-0.038199134171009064 -0.22538624703884125 0.20628361403942108 0 0 255
-0.05473668873310089 -0.2681485414505005 0.18776853382587433 0 0 255
-0.016139432787895203 -0.3231358826160431 0.14901109039783478 0 0 255
-0.01641600765287876 -0.296836793422699 0.12839455902576447 0 0 255
-0.02727741375565529 -0.2945989668369293 0.1266813576221466 0 0 255
-0.026967190206050873 -0.2830565869808197 0.10017181187868118 0 0 255
-0.016088511794805527 -0.24704588949680328 0.1257331669330597 0 0 255
0.02990921586751938 -0.2659073770046234 0.06662220507860184 0 0 255
0.11148639023303986 -0.3009606599807739 0.05206498131155968 0 0 255
0.14581845700740814 -0.3046067953109741 0.002992491703480482 0 0 255
0.15979555249214172 -0.279352605342865 -0.017399031668901443 0 0 255
0.18843702971935272 -0.27716925740242004 -0.04113268479704857 0 0 255
0.18459928035736084 -0.2737208306789398 -0.06618203967809677 0 0 255
0.21508903801441193 -0.28818005323410034 -0.07011272013187408 0 0 255
0.24207088351249695 -0.2946826219558716 -0.08087358623743057 0 0 255
0.22973477840423584 -0.27997538447380066 -0.062271714210510254 0 0 255
0.20905642211437225 -0.2846836447715759 -0.034553781151771545 0 0 255
0.19160392880439758 -0.259570837020874 -0.03057931549847126 0 0 255
0.17583082616329193 -0.26793426275253296 0.010854510590434074 0 0 255
0.17162175476551056 -0.2704838216304779 0.038109295070171356 0 0 255
0.10825090855360031 -0.22502253949642181 0.14217603206634521 0 0 255
-0.009797272272408009 -0.18785962462425232 0.23515531420707703 0 0 255
-0.0733078196644783 -0.1311585158109665 0.24588100612163544 0 0 255
-0.05384296551346779 -0.12950284779071808 0.3274860680103302 0 0 255
-0.050956130027770996 -0.1802772581577301 0.2766222357749939 0 0 255
-0.10052180290222168 -0.17186640202999115 0.2842620611190796 0 0 255
-0.15263088047504425 -0.13791944086551666 0.2237074375152588 0 0 255
-0.1903732717037201 -0.15090754628181458 0.26712870597839355 0 0 255
-0.1374928504228592 -0.21972662210464478 0.17746712267398834 0 0 255
0.09225724637508392 -0.27293890714645386 -0.012490596622228622 0 0 255
0.21552251279354095 -0.37910473346710205 -0.21776099503040314 0 0 255
0.35874173045158386 -0.3782212734222412 -0.3041478097438812 0 0 255
0.3821205198764801 -0.42717495560646057 -0.3984065353870392 0 0 255
0.47124141454696655 -0.37524500489234924 -0.4589865207672119 0 0 255
0.4155000150203705 -0.39045339822769165 -0.5551769137382507 0 0 255
0.5010907053947449 -0.3650887608528137 -0.5473650097846985 0 0 255
0.39578524231910706 -0.4027426540851593 -0.629321277141571 0 0 255
0.424245685338974 -0.368105411529541 -0.6369830965995789 0 0 255
0.4160171449184418 -0.3942895829677582 -0.609490692615509 0 0 255
0.4088526666164398 -0.3873916268348694 -0.5636119842529297 0 0 255
0.37902936339378357 -0.40443792939186096 -0.5079305768013 0 0 255
0.38437265157699585 -0.39590024948120117 -0.481004923582077 0 0 255
0.37157249450683594 -0.4207625389099121 -0.4509288966655731 0 0 255
0.4008002281188965 -0.42401552200317383 -0.441158652305603 0 0 255
0.37036216259002686 -0.424900621175766 -0.4304298162460327 0 0 255
0.30645298957824707 -0.4646199941635132 -0.4324899911880493 0 0 255
0.23936496675014496 -0.5456833243370056 -0.48007962107658386 0 0 255
0.2117965668439865 -0.5407042503356934 -0.5860095024108887 0 0 255
0.039592355489730835 -0.5025646686553955 -0.6698748469352722 0 0 255
0.08701204508543015 -0.5122224688529968 -0.7175970077514648 0 0 255
0.1821179986000061 -0.4594608545303345 -0.6952088475227356 0 0 255
0.2458050400018692 -0.5433301329612732 -0.6455267071723938 0 0 255
0.2388097494840622 -0.5380805134773254 -0.6402368545532227 0 0 255
0.16405144333839417 -0.5140155553817749 -0.7007636427879333 0 0 255
0.24126186966896057 -0.4460429549217224 -0.7464944124221802 0 0 255
0.2109210342168808 -0.45525577664375305 -0.7333481907844543 0 0 255
0.19552667438983917 -0.4296880066394806 -0.7238030433654785 0 0 255
0.30795568227767944 -0.4288998246192932 -0.7026214599609375 0 0 255
0.2642533779144287 -0.44678419828414917 -0.7036548256874084 0 0 255
0.2269202172756195 -0.36044546961784363 -0.7137653827667236 0 0 255
0.3479735553264618 -0.3126243054866791 -0.694743812084198 0 0 255
0.23964352905750275 -0.3337947428226471 -0.6654965877532959 0 0 255
0.21170873939990997 -0.2473544031381607 -0.654190182685852 0 0 255
0.41691991686820984 -0.22459933161735535 -0.5525237321853638 0 0 255
0.48163363337516785 -0.15678770840168 -0.6658186316490173 0 0 255
0.44058820605278015 -0.07623881101608276 -0.6050248742103577 0 0 255
0.28696954250335693 -0.08267392218112946 -0.5829009413719177 0 0 255
0.23596824705600739 -0.04651213437318802 -0.5670252442359924 0 0 255
0.18779416382312775 -0.03601818531751633 -0.5218064785003662 0 0 255
0.152678981423378 -0.024065131321549416 -0.5090468525886536 0 0 255
0.1660459190607071 -0.03404379263520241 -0.52262282371521 0 0 255
0.16237136721611023 -0.04149036854505539 -0.5151809453964233 0 0 255
0.16390050947666168 -0.04898284748196602 -0.5095000863075256 0 0 255
0.14835059642791748 -0.05037236958742142 -0.5090456008911133 0 0 255
0.12292774766683578 -0.02947685308754444 -0.48949816823005676 0 0 255
0.09840985387563705 -0.03207914158701897 -0.49568411707878113 0 0 255
0.07419724017381668 -0.01979864202439785 -0.476369708776474 0 0 255
0.0569051131606102 -0.0395318865776062 -0.48659563064575195 0 0 255
0.06290023773908615 -0.04777214303612709 -0.49472886323928833 0 0 255
0.07421136647462845 -0.053082458674907684 -0.532204806804657 0 0 255
0.09100794047117233 -0.08726450800895691 -0.5559138655662537 0 0 255
0.1178135797381401 -0.10963577777147293 -0.5603989362716675 0 0 255
0.11711841821670532 -0.11546683311462402 -0.5485964417457581 0 0 255
0.11980023235082626 -0.06235494092106819 -0.518585741519928 0 0 255
0.038419123739004135 -0.04814618080854416 -0.5412604212760925 0 0 255
-0.016417846083641052 -0.046953924000263214 -0.5316395163536072 0 0 255
0.020915301516652107 -0.06408604234457016 -0.5842522978782654 0 0 255
0.09216561913490295 -0.07759769260883331 -0.6213431358337402 0 0 255
0.04627612605690956 -0.15205463767051697 -0.6002212762832642 0 0 255
-0.011732054874300957 -0.16603103280067444 -0.6262219548225403 0 0 255
-0.018973203375935555 -0.08578256517648697 -0.5557030439376831 0 0 255
-0.04908125102519989 -0.05974603071808815 -0.501457691192627 0 0 255
-0.038370776921510696 -0.05418526381254196 -0.5145084857940674 0 0 255
0.0027499485295265913 -0.03229048103094101 -0.48109379410743713 0 0 255
0.0026111621409654617 -0.012311953119933605 -0.5218817591667175 0 0 255
0.04669293388724327 0.01676013693213463 -0.47852692008018494 0 0 255
0.038166895508766174 0.012748416513204575 -0.4909825921058655 0 0 255
0.049416687339544296 0.02942393347620964 -0.49373218417167664 0 0 255
0.0693696066737175 0.030838742852211 -0.47360286116600037 0 0 255
0.07101865112781525 0.040518391877412796 -0.5112137794494629 0 0 255
0.09175801277160645 0.03352658078074455 -0.48028764128685 0 0 255
0.10106766223907471 0.017195027321577072 -0.517821729183197 0 0 255
0.13319866359233856 0.030738720670342445 -0.49364838004112244 0 0 255
0.1286575049161911 -0.021946005523204803 -0.5380879640579224 0 0 255
0.13717250525951385 0.07940365374088287 -0.563573956489563 0 0 255
0.19618503749370575 -0.07547736167907715 -0.6024999618530273 0 0 255
0.21758700907230377 -0.06585611402988434 -0.5253981351852417 0 0 255
0.26395177841186523 -0.02042235992848873 -0.5912575721740723 0 0 255
0.23553986847400665 -0.05661910027265549 -0.5855391621589661 0 0 255
0.18121206760406494 -0.06305624544620514 -0.5467875003814697 0 0 255
0.10413793474435806 -0.04621982201933861 -0.5557625889778137 0 0 255
0.06400645524263382 -0.021846724674105644 -0.5394411087036133 0 0 255
0.0348583348095417 -0.021051833406090736 -0.4862901270389557 0 0 255
0.005702145863324404 -0.013310552574694157 -0.5229834914207458 0 0 255
0.05102424696087837 -0.02249404601752758 -0.5110258460044861 0 0 255
0.060536906123161316 -0.010989798232913017 -0.568047285079956 0 0 255
0.07652013748884201 -0.011775925755500793 -0.5607311725616455 0 0 255
0.06478748470544815 -0.00278457417152822 -0.5981855988502502 0 0 255
0.07206667214632034 -0.0042824894189834595 -0.5686615109443665 0 0 255
0.04425891861319542 -0.0037582821678370237 -0.5691092610359192 0 0 255
0.06727273762226105 -0.0019342637388035655 -0.584200382232666 0 0 255
0.10091172903776169 -0.005234093870967627 -0.5889084935188293 0 0 255
0.09540139138698578 -0.007838557474315166 -0.6069839596748352 0 0 255
0.07624365389347076 -0.02583412453532219 -0.6372376680374146 0 0 255
0.10452847182750702 0.0020030559971928596 -0.6199250817298889 0 0 255
0.08071233332157135 0.028661468997597694 -0.660585343837738 0 0 255
0.14293615520000458 -0.020969364792108536 -0.6371251344680786 0 0 255
0.12048566341400146 0.0005501580308191478 -0.690801203250885 0 0 255
0.16826067864894867 -0.0009047711500898004 -0.6957531571388245 0 0 255
0.12873953580856323 -0.08295866847038269 -0.69985431432724 0 0 255
0.1746460497379303 -0.12693747878074646 -0.7347826361656189 0 0 255
0.25757452845573425 -0.10928834229707718 -0.7127517461776733 0 0 255
0.3760147988796234 -0.06991329044103622 -0.7312657833099365 0 0 255
0.2998592257499695 -0.1633986085653305 -0.6258289813995361 0 0 255
0.4163665175437927 -0.022844018414616585 -0.7304337620735168 0 0 255
0.47734448313713074 -0.017525089904665947 -0.6008689403533936 0 0 255
0.35549503564834595 -0.3229900598526001 -0.6435768604278564 0 0 255
0.3575325608253479 -0.3227698504924774 -0.4376772940158844 0 0 255
0.31608331203460693 -0.3624451160430908 -0.3252160847187042 0 0 255
0.33289188146591187 -0.33866673707962036 -0.304023802280426 0 0 255
0.336699515581131 -0.35250839591026306 -0.20971734821796417 0 0 255
0.3158804476261139 -0.324766606092453 -0.22972649335861206 0 0 255
0.31156542897224426 -0.2427341639995575 -0.05390607938170433 0 0 255
0.24120211601257324 -0.33584773540496826 0.03656376153230667 0 0 255
0.24445845186710358 -0.18444234132766724 0.10524678975343704 0 0 255
0.16124893724918365 -0.13920702040195465 0.1772036999464035 0 0 255
0.11790008097887039 -0.09959378093481064 0.24958455562591553 0 0 255
0.07993240654468536 -0.07118808478116989 0.32713112235069275 0 0 255
0.04942554607987404 -0.054695673286914825 0.3930996358394623 0 0 255
0.005529680289328098 -0.025646235793828964 0.43688279390335083 0 0 255
-0.021287400275468826 -0.013200116343796253 0.4394029378890991 0 0 255
-0.02358698844909668 -0.0004594855126924813 0.4388824701309204 0 0 255
-0.03421824052929878 -1.9787774363067e-05 0.46589934825897217 0 0 255
-0.03951018676161766 0.023829253390431404 0.47514042258262634 0 0 255
-0.03471468761563301 0.03935055434703827 0.4871901869773865 0 0 255
-0.032439250499010086 0.03724730387330055 0.4914146661758423 0 0 255
-0.030873239040374756 0.051210954785346985 0.49868032336235046 0 0 255
-0.0006895557744428515 0.04072680324316025 0.48398810625076294 0 0 255
0.020712072029709816 0.03729688748717308 0.47483572363853455 0 0 255
0.027995027601718903 0.025878239423036575 0.47769004106521606 0 0 255
0.029453014954924583 0.034858327358961105 0.4756772220134735 0 0 255
0.02040545456111431 0.06598654389381409 0.47240662574768066 0 0 255
0.006695259362459183 0.08506215363740921 0.5116859674453735 0 0 255
-0.024663619697093964 0.08644238114356995 0.5328953266143799 0 0 255
-0.05488760396838188 0.15594874322414398 0.5853649377822876 0 0 255
-0.07133173197507858 0.13387610018253326 0.5677182078361511 0 0 255
-0.0012557967565953732 0.14518330991268158 0.5510555505752563 0 0 255
0.054456036537885666 0.13950970768928528 0.4899842441082001 0 0 255
0.07176259160041809 0.09749218076467514 0.5015110373497009 0 0 255
0.13907524943351746 0.05029590055346489 0.48563820123672485 0 0 255
0.14012230932712555 0.038633376359939575 0.4638400375843048 0 0 255
0.15458090603351593 0.036760568618774414 0.4809834957122803 0 0 255
0.189239501953125 0.035633526742458344 0.4755415618419647 0 0 255
0.1936223953962326 0.06382763385772705 0.46785300970077515 0 0 255
0.1851414293050766 0.07093899697065353 0.4582445025444031 0 0 255
0.1738918274641037 0.05948573723435402 0.4245198667049408 0 0 255
0.27720922231674194 0.01030452735722065 0.34021735191345215 0 0 255
0.31320732831954956 -0.13238315284252167 0.218706876039505 0 0 255
0.2090756893157959 -0.1706767976284027 -0.009396979585289955 0 0 255
-0.33765166997909546 -0.2959531545639038 0.15860727429389954 0 0 255
-0.3501834571361542 -0.0623280368745327 0.6229997277259827 0 0 255
-0.43084150552749634 0.14894624054431915 0.6298153400421143 0 0 255
-0.3737720549106598 0.13204766809940338 0.638593852519989 0 0 255
-0.30945998430252075 0.1957712322473526 0.6603835821151733 0 0 255
-0.2917010188102722 0.1905265897512436 0.6555534601211548 0 0 255
-0.2586962580680847 0.22189393639564514 0.714597225189209 0 0 255
-0.2616859972476959 0.3052437901496887 0.7400485277175903 0 0 255
-0.19896797835826874 0.33774012327194214 0.7408947348594666 0 0 255
-0.14392328262329102 0.3420061767101288 0.800515353679657 0 0 255
-0.09329637885093689 0.35430121421813965 0.7769412398338318 0 0 255
-0.08082777261734009 0.4170284569263458 0.7918546199798584 0 0 255
-0.029318762943148613 0.4765773117542267 0.7981956005096436 0 0 255
0.08100151270627975 0.485510915517807 0.7820563316345215 0 0 255
0.1763771027326584 0.5023801326751709 0.773527204990387 0 0 255
0.221201092004776 0.40368208289146423 0.7587345242500305 0 0 255
0.2224075049161911 0.3651351034641266 0.7535576224327087 0 0 255
0.22027117013931274 0.3386934697628021 0.7344862818717957 0 0 255
0.14745347201824188 0.2896963655948639 0.7011017203330994 0 0 255
0.13589000701904297 0.27146053314208984 0.6789765954017639 0 0 255
0.09702914953231812 0.206268772482872 0.6348068714141846 0 0 255
0.09553598612546921 0.20340396463871002 0.6154261231422424 0 0 255
0.13286025822162628 0.20094582438468933 0.6053601503372192 0 0 255
0.10870402306318283 0.14999225735664368 0.570629358291626 0 0 255
0.07482414692640305 0.15346898138523102 0.566033124923706 0 0 255
0.04549819231033325 0.1293426901102066 0.5469197630882263 0 0 255
0.03702513501048088 0.08233043551445007 0.521737813949585 0 0 255
0.06834752857685089 0.018945861607789993 0.5054419040679932 0 0 255
0.06374254077672958 0.027514362707734108 0.4899106025695801 0 0 255
0.06604290753602982 0.029864801093935966 0.4483414888381958 0 0 255
0.0319349467754364 0.023459721356630325 0.45474353432655334 0 0 255
0.046891577541828156 0.019000867381691933 0.4434576630592346 0 0 255
0.04850025475025177 0.003248194232583046 0.4430288076400757 0 0 255
0.05318959057331085 0.007339974399656057 0.45804595947265625 0 0 255
0.0635032057762146 0.0021321214735507965 0.4481193423271179 0 0 255
0.06926693767309189 0.009236222133040428 0.4437818229198456 0 0 255
0.054456960409879684 0.0028707049787044525 0.446531742811203 0 0 255
0.03879107907414436 0.024483243003487587 0.44963300228118896 0 0 255
0.04180204123258591 0.01779255084693432 0.4560931324958801 0 0 255
0.03993440419435501 0.011953259818255901 0.4706152379512787 0 0 255
0.04225955531001091 0.02384791523218155 0.4942275285720825 0 0 255
0.024668177589774132 0.04412159323692322 0.5088897943496704 0 0 255
0.014882317744195461 0.05278586968779564 0.5196434259414673 0 0 255
-0.0034707337617874146 0.05372777581214905 0.5446493625640869 0 0 255
-0.04163582623004913 0.05670507252216339 0.5595727562904358 0 0 255
-0.060835301876068115 0.07503057271242142 0.5794104933738708 0 0 255
-0.08803051710128784 0.07312531769275665 0.5796063542366028 0 0 255
-0.08930682390928268 0.08873128145933151 0.5726133584976196 0 0 255
-0.1135873943567276 0.09632160514593124 0.5668538212776184 0 0 255
-0.07754987478256226 0.08546099066734314 0.5634976625442505 0 0 255
-0.09117687493562698 0.08047682791948318 0.5716343522071838 0 0 255
-0.08553292602300644 0.0794343575835228 0.5726780295372009 0 0 255
-0.08850255608558655 0.08354747295379639 0.5673499703407288 0 0 255
-0.09641651809215546 0.07783627510070801 0.5573809146881104 0 0 255
-0.0637306198477745 0.07855759561061859 0.5584679841995239 0 0 255
-0.0527840256690979 0.056547194719314575 0.5338811278343201 0 0 255
-0.02050861343741417 0.06038260459899902 0.5215101838111877 0 0 255
-0.037122175097465515 0.02027544565498829 0.5359392762184143 0 0 255
-0.042567670345306396 0.035563964396715164 0.5467039942741394 0 0 255
-0.0300810057669878 0.0317688025534153 0.54033362865448 0 0 255
-0.04569573700428009 0.014626817777752876 0.5305047035217285 0 0 255
-0.05035169795155525 0.01622678153216839 0.5240377187728882 0 0 255
-0.05096312239766121 0.008025807328522205 0.5259808897972107 0 0 255
-0.07722160220146179 -0.003217583755031228 0.5159874558448792 0 0 255
-0.06882771104574203 0.006499192211776972 0.4974464476108551 0 0 255
-0.08755461126565933 0.001316729816608131 0.5033445954322815 0 0 255
