ply
format ascii 1.0
element vertex 675
property float x
property float y
property float z
property uchar red
property uchar green
property uchar blue
end_header
0.1539386808872223 0.27666112780570984 0.10694027692079544 250 213 36
0.15474864840507507 0.27688804268836975 0.11000499874353409 252 206 37
0.15547937154769897 0.2725040912628174 0.11526733636856079 253 185 43
0.15389670431613922 0.27003374695777893 0.11724213510751724 253 178 47
0.14562611281871796 0.2718978226184845 0.12007202208042145 253 179 46
0.1411905586719513 0.2822209894657135 0.1100473403930664 253 179 46
0.1369905173778534 0.2842617332935333 0.10470588505268097 253 178 47
0.12463737279176712 0.2880881130695343 0.11958986520767212 253 178 47
0.11154167354106903 0.2841268479824066 0.11806642264127731 253 181 45
0.10128993541002274 0.28681400418281555 0.11738337576389313 253 178 47
0.07874022424221039 0.2934899628162384 0.11244533956050873 253 179 46
0.045646943151950836 0.3118691146373749 0.0785367414355278 253 178 47
0.03549101576209068 0.3340719938278198 0.05823644995689392 253 178 47
0.008685115724802017 0.33375024795532227 0.03891778737306595 253 187 43
-0.016420191153883934 0.32811227440834045 0.025669964030385017 253 185 43
-0.04700952768325806 0.33975937962532043 0.0022645972203463316 253 193 40
-0.08242589235305786 0.3517913520336151 -0.03620190545916557 253 187 43
-0.10031042993068695 0.3636541962623596 -0.07848621159791946 253 185 43
-0.14068366587162018 0.3634532690048218 -0.10438612848520279 253 190 41
-0.16950605809688568 0.36519384384155273 -0.10801871865987778 253 181 45
-0.19103027880191803 0.35477668046951294 -0.1176820769906044 253 178 47
-0.1884918063879013 0.3523072898387909 -0.13303257524967194 253 178 47
-0.14571186900138855 0.3535822629928589 -0.12569282948970795 253 176 48
-0.09684009850025177 0.36071327328681946 -0.07610742002725601 253 178 47
-0.060122884809970856 0.3396553099155426 -0.07578524947166443 253 192 41
-0.04429459944367409 0.3480744957923889 -0.0741092786192894 253 187 43
-0.021571112796664238 0.3476490080356598 -0.06889234483242035 253 185 43
-0.0012555859284475446 0.3382742404937744 -0.047299280762672424 253 182 45
0.020466944202780724 0.32963892817497253 -0.033431779593229294 253 182 45
0.04213942959904671 0.3278152346611023 -0.02136780507862568 253 185 43
0.05557633191347122 0.31632551550865173 -0.013443981297314167 253 182 45
0.06750616431236267 0.3109437823295593 -0.007515997625887394 253 175 49
0.07746337354183197 0.30565130710601807 -0.004105365369468927 253 187 43
0.08874551951885223 0.3043975830078125 0.004187450744211674 253 184 44
0.09039284288883209 0.3049061894416809 0.011974344961345196 253 196 39
0.09263578057289124 0.3066277801990509 0.011788520961999893 253 184 44
0.08977115899324417 0.305944561958313 0.016167743131518364 253 181 45
0.08361755311489105 0.3055155575275421 0.009157666005194187 253 190 41
0.07149253785610199 0.3130257725715637 -0.0009521072497591376 253 176 48
0.058592889457941055 0.3199872076511383 -0.015640750527381897 253 175 49
0.053231000900268555 0.32114848494529724 -0.02475597895681858 251 164 54
0.029316280037164688 0.33694612979888916 -0.03728347644209862 251 164 54
-0.043257229030132294 0.35873502492904663 -0.11709462851285934 250 159 58
-0.19788675010204315 0.34209221601486206 -0.37110182642936707 252 166 53
-0.3248276710510254 0.29845336079597473 -0.4250510632991791 252 166 53
-0.39521998167037964 0.21809715032577515 -0.4610081911087036 251 164 54
-0.4272608757019043 0.2126842588186264 -0.46226876974105835 251 163 55
-0.43592754006385803 0.20704957842826843 -0.46574199199676514 252 169 52
-0.43727198243141174 0.20061491429805756 -0.4586496651172638 252 173 49
-0.44892218708992004 0.19026808440685272 -0.46036073565483093 253 179 46
-0.4373026490211487 0.1667964607477188 -0.4554946720600128 253 184 44
-0.44828858971595764 0.16261108219623566 -0.4557935297489166 253 198 38
-0.4410000741481781 0.1512673795223236 -0.4656084477901459 253 193 40
-0.4339514374732971 0.1386585682630539 -0.47053834795951843 253 176 48
-0.43517136573791504 0.1520305871963501 -0.4686231315135956 249 153 61
-0.4471617043018341 0.15769843757152557 -0.46270278096199036 245 139 70
-0.448720246553421 0.14845412969589233 -0.45878538489341736 242 133 74
-0.45014268159866333 0.12930014729499817 -0.45870229601860046 241 130 76
-0.4408215284347534 0.10841450840234756 -0.44873037934303284 242 132 75
-0.4431236684322357 0.085338294506073 -0.4359718859195709 242 132 75
-0.44742467999458313 0.061466410756111145 -0.42531612515449524 245 139 70
-0.4460265040397644 0.059422437101602554 -0.41135913133621216 248 152 62
-0.44685086607933044 0.0531018041074276 -0.4085577428340912 247 146 65
-0.45108479261398315 0.045137323439121246 -0.3975009620189667 247 146 65
-0.45260679721832275 0.042723651975393295 -0.39771994948387146 248 150 63
-0.44481033086776733 0.030477741733193398 -0.391417920589447 246 142 68
-0.4480136036872864 0.016821548342704773 -0.3899363875389099 247 147 65
-0.4407516121864319 0.010630414821207523 -0.3861725628376007 250 160 57
-0.43279775977134705 0.006689984817057848 -0.39020836353302 252 167 53
-0.4432388246059418 0.015671245753765106 -0.3940509259700775 253 179 46
-0.44564107060432434 0.0195460207760334 -0.3889180123806 253 185 43
-0.4395377039909363 0.015240411274135113 -0.3923633396625519 253 193 40
-0.4382762312889099 0.004626673646271229 -0.3880996108055115 248 223 36
-0.4349505305290222 -0.005075444467365742 -0.38251104950904846 16 7 135
-0.4319145679473877 -0.005749829579144716 -0.375005841255188 19 6 137
-0.43534231185913086 -0.01015323307365179 -0.36304932832717896 239 248 33
-0.4347785711288452 -0.019840065389871597 -0.3588468134403229 241 243 38
-0.4348949193954468 -0.02329416200518608 -0.3547937572002411 240 246 35
-0.4325941503047943 -0.027279652655124664 -0.3593664765357971 43 5 148
-0.4329478144645691 -0.0256624948233366 -0.3593069314956665 47 4 149
-0.4309929609298706 -0.028549399226903915 -0.355912446975708 59 3 154
-0.43298327922821045 -0.023933053016662598 -0.35174959897994995 63 3 156
-0.43381446599960327 -0.022408587858080864 -0.3517169952392578 63 3 156
-0.43612954020500183 -0.027439575642347336 -0.35101988911628723 71 2 159
-0.43173184990882874 -0.03165687248110771 -0.3470132648944855 69 3 158
-0.43030163645744324 -0.033507466316223145 -0.34666165709495544 78 2 161
-0.43115702271461487 -0.03505558893084526 -0.3464604616165161 79 2 162
-0.4297793507575989 -0.03955885395407677 -0.33793118596076965 78 2 161
-0.42956310510635376 -0.03784961998462677 -0.33243730664253235 76 2 161
-0.4288732409477234 -0.035910505801439285 -0.3267192542552948 66 3 157
-0.43438079953193665 -0.03797630965709686 -0.3289651870727539 69 3 158
-0.4325183033943176 -0.03387517109513283 -0.3282042443752289 69 3 158
-0.43387606739997864 -0.039441611617803574 -0.3233436346054077 71 2 159
-0.4327238202095032 -0.038029853254556656 -0.3217359781265259 69 3 158
-0.43150007724761963 -0.04234229400753975 -0.319063276052475 64 3 156
-0.4345288872718811 -0.03729841858148575 -0.3163289427757263 66 3 157
-0.43216344714164734 -0.04017108678817749 -0.3157041370868683 68 3 158
-0.4300830066204071 -0.04136044159531593 -0.3175587058067322 56 4 153
-0.43316254019737244 -0.04412456601858139 -0.3144242763519287 51 4 151
-0.42828676104545593 -0.04169407859444618 -0.3190709352493286 56 4 153
-0.4238969683647156 -0.038031596690416336 -0.32238900661468506 59 3 154
-0.4181743562221527 -0.040982674807310104 -0.3230895400047302 68 3 158
-0.4253893494606018 -0.03718441724777222 -0.3248377740383148 63 3 156
-0.4195963144302368 -0.03196666017174721 -0.33627739548683167 84 1 163
-0.42613908648490906 -0.021835807710886 -0.32369646430015564 74 2 160
-0.42713701725006104 -0.0226884838193655 -0.32513970136642456 74 2 160
-0.42321157455444336 -0.022703373804688454 -0.32664838433265686 61 3 155
-0.42545655369758606 -0.0249332282692194 -0.32432737946510315 63 3 156
-0.42491811513900757 -0.02625817246735096 -0.3247251510620117 69 3 158
-0.4156152606010437 -0.041496895253658295 -0.31348350644111633 66 3 157
-0.4109586179256439 -0.050512026995420456 -0.304521381855011 73 2 159
-0.40741968154907227 -0.06335882842540741 -0.2997967600822449 43 5 148
-0.3982486426830292 -0.07236190885305405 -0.2889980673789978 29 6 141
-0.39739593863487244 -0.07619575411081314 -0.28694090247154236 248 223 36
-0.39534059166908264 -0.08115711063146591 -0.2814146876335144 253 185 43
-0.396725594997406 -0.08010722696781158 -0.27747294306755066 253 179 46
-0.3944266438484192 -0.08152025938034058 -0.28168249130249023 251 162 56
-0.39581942558288574 -0.07701762020587921 -0.2880106568336487 247 146 65
-0.39656704664230347 -0.057821501046419144 -0.2969725728034973 240 129 77
-0.39108696579933167 -0.0543942004442215 -0.27849897742271423 238 124 80
-0.41948071122169495 -0.16814476251602173 -0.19332027435302734 237 123 81
-0.1763303279876709 -0.17748595774173737 -0.03919036686420441 127 3 167
-0.1578955054283142 -0.2710973024368286 0.09236141294240952 134 7 166
0.02518315427005291 -0.2535462975502014 0.19554799795150757 146 15 162
0.003533583367243409 -0.2570103108882904 0.2290850579738617 165 31 151
0.05576757341623306 -0.2577217221260071 0.23940521478652954 168 34 150
0.09851698577404022 -0.2558223307132721 0.2635713815689087 163 29 153
0.16177356243133545 -0.2515607476234436 0.2980746328830719 176 42 143
0.21029876172542572 -0.2798570692539215 0.30849090218544006 180 45 141
0.19683392345905304 -0.2651944160461426 0.32578611373901367 177 43 143
0.16732420027256012 -0.2930454611778259 0.3008042275905609 175 40 144
0.15355922281742096 -0.284527450799942 0.28078219294548035 169 35 149
0.11149976402521133 -0.3064962923526764 0.23814190924167633 170 36 148
0.10298556089401245 -0.28776636719703674 0.2205924689769745 169 35 149
0.06528151035308838 -0.30117467045783997 0.21934819221496582 159 26 155
0.05785447731614113 -0.28775906562805176 0.20150913298130035 158 25 156
0.04229234158992767 -0.2811097204685211 0.18514445424079895 159 26 155
0.04042981192469597 -0.29047679901123047 0.1873137652873993 159 26 155
0.047042619436979294 -0.2842249870300293 0.2094849795103073 157 24 157
0.06961723417043686 -0.28321579098701477 0.22508980333805084 165 31 151
0.07484415918588638 -0.27952900528907776 0.2621051073074341 164 30 152
0.09282844513654709 -0.278185099363327 0.273620069026947 164 30 152
0.09586156159639359 -0.2782769501209259 0.29246091842651367 159 26 155
0.10063078254461288 -0.2623666822910309 0.30283889174461365 162 28 154
0.09504903852939606 -0.26858195662498474 0.3024565577507019 167 33 151
0.08607944846153259 -0.27125871181488037 0.2924256920814514 162 28 154
0.0837809145450592 -0.27242302894592285 0.3051983118057251 158 25 156
0.09889020770788193 -0.26842576265335083 0.3136765658855438 140 10 164
0.10315074771642685 -0.2638038098812103 0.3134550154209137 155 23 158
0.09771569818258286 -0.2626744508743286 0.32378655672073364 153 20 159
0.0923670083284378 -0.25790730118751526 0.32453927397727966 129 4 167
0.08549681305885315 -0.2603219449520111 0.3230800926685333 133 6 166
0.07912508398294449 -0.25697794556617737 0.31912219524383545 134 7 166
0.07468482851982117 -0.26159200072288513 0.31339120864868164 137 8 165
0.07449829578399658 -0.2610434889793396 0.31760305166244507 137 8 165
0.0724857971072197 -0.26091668009757996 0.3153427243232727 159 26 155
0.07406355440616608 -0.25971895456314087 0.3166787922382355 153 20 159
0.07498366385698318 -0.25487038493156433 0.31990402936935425 154 21 158
0.07319580018520355 -0.2548048496246338 0.321196049451828 137 8 165
0.0680810883641243 -0.2549129128456116 0.31697145104408264 143 13 163
0.06313243508338928 -0.25635525584220886 0.3150135576725006 142 12 164
0.05885269492864609 -0.2576335370540619 0.3105776011943817 146 15 162
0.05974193289875984 -0.25671011209487915 0.31190863251686096 147 16 161
0.06343472748994827 -0.2516981363296509 0.313828706741333 160 27 155
0.06966348737478256 -0.2554522752761841 0.32035577297210693 158 25 156
0.08440438657999039 -0.2582489252090454 0.3192213475704193 167 33 151
0.08395733684301376 -0.30040839314460754 0.3205467760562897 181 46 140
0.3343876898288727 0.05095423385500908 0.12992829084396362 68 3 158
0.1021709218621254 0.03228616341948509 -0.45348212122917175 71 2 159
0.012082929722964764 0.19048255681991577 -0.38033244013786316 73 2 159
-0.018364466726779938 0.17118313908576965 -0.38264694809913635 74 2 160
-0.04265853762626648 0.1703418791294098 -0.3632987439632416 71 2 159
-0.05859963223338127 0.20102067291736603 -0.3749360740184784 71 2 159
-0.06788382679224014 0.20075605809688568 -0.3964437246322632 71 2 159
-0.07678979635238647 0.21291989088058472 -0.402084082365036 81 1 162
-0.07322057336568832 0.21405598521232605 -0.40057310461997986 84 1 163
-0.07291922718286514 0.23635326325893402 -0.3705146014690399 90 0 165
-0.062049657106399536 0.2412485033273697 -0.3571614623069763 94 0 165
-0.009284229017794132 0.2367633730173111 -0.34998631477355957 86 1 163
0.05031402036547661 0.22189638018608093 -0.33981087803840637 87 1 164
0.05675739049911499 0.22955270111560822 -0.34242498874664307 81 1 162
0.032356493175029755 0.23851096630096436 -0.3501962423324585 81 1 162
0.008880293928086758 0.2538187503814697 -0.3411826193332672 71 2 159
-0.007650875486433506 0.26676684617996216 -0.33246564865112305 82 1 163
0.021347707137465477 0.26374953985214233 -0.3182770311832428 86 1 163
0.04779156297445297 0.2456146776676178 -0.3186546266078949 82 1 163
0.05807970464229584 0.22759626805782318 -0.3617597818374634 84 1 163
0.011556282639503479 0.22325259447097778 -0.387229859828949 82 1 163
-0.00523332180455327 0.21771152317523956 -0.37636658549308777 79 2 162
-0.00016457382298540324 0.20150861144065857 -0.368446946144104 82 1 163
0.05206689238548279 0.19628547132015228 -0.3443978726863861 86 1 163
0.10888756066560745 0.20193035900592804 -0.2929061949253082 87 1 164
0.11266493797302246 0.19919459521770477 -0.2797256112098694 90 0 165
0.12102757394313812 0.21080288290977478 -0.2571432888507843 90 0 165
0.11533688008785248 0.22284850478172302 -0.2575533092021942 97 0 166
0.09120964258909225 0.25635844469070435 -0.2557348310947418 97 0 166
0.09699217230081558 0.24447745084762573 -0.23849989473819733 94 0 165
0.08772793412208557 0.2500649094581604 -0.23731254041194916 95 0 166
0.09080434590578079 0.2685721814632416 -0.24647416174411774 90 0 165
0.08725795149803162 0.27559927105903625 -0.24625040590763092 81 1 162
0.0679282546043396 0.2725858986377716 -0.2846738398075104 82 1 163
0.041930440813302994 0.25520679354667664 -0.28997209668159485 84 1 163
0.04144752398133278 0.25702816247940063 -0.3036186695098877 84 1 163
0.02811318263411522 0.24555835127830505 -0.31818437576293945 84 1 163
-0.0005833609029650688 0.26074132323265076 -0.32164353132247925 82 1 163
-0.012734755873680115 0.2607831656932831 -0.31952694058418274 73 2 159
-0.02605809085071087 0.2727329432964325 -0.33503398299217224 74 2 160
-0.02951415814459324 0.30179363489151 -0.35076212882995605 74 2 160
-0.1586017906665802 0.29104283452033997 -0.4257655143737793 37 5 145
-0.3164009153842926 0.2503523826599121 -0.45949849486351013 253 192 41
-0.385992169380188 0.1366407573223114 -0.46989649534225464 253 188 42
-0.3967609107494354 0.11960392445325851 -0.4539340138435364 252 204 37
-0.40696853399276733 0.09228117018938065 -0.45041215419769287 253 195 40
-0.3953302502632141 0.10591685771942139 -0.453616738319397 253 198 38
-0.38713204860687256 0.11626240611076355 -0.46458688378334045 251 209 36
-0.38782110810279846 0.11378518491983414 -0.46128883957862854 249 219 36
-0.382707417011261 0.10059960931539536 -0.46066370606422424 249 217 36
-0.3862663507461548 0.06906293332576752 -0.4540160596370697 248 223 36
-0.37014758586883545 0.0382307730615139 -0.44742730259895325 243 236 38
-0.36068516969680786 0.025216341018676758 -0.4372212290763855 244 234 38
-0.3735365569591522 0.04251392185688019 -0.43759629130363464 241 243 38
-0.3810473680496216 0.03823522478342056 -0.4407764971256256 243 238 38
-0.386936217546463 0.03326953202486038 -0.431189626455307 243 238 38
-0.3742067217826843 0.01997506059706211 -0.4283292889595032 24 6 139
-0.378099650144577 0.02541264332830906 -0.4304901659488678 43 5 148
-0.3896540403366089 0.01688011735677719 -0.431874543428421 37 5 145
-0.3908035159111023 0.021325817331671715 -0.4171007573604584 59 3 154
-0.3818720877170563 -0.0023899166844785213 -0.4075112044811249 59 3 154
-0.36378270387649536 -0.01209461409598589 -0.3932076096534729 43 5 148
-0.36080753803253174 -0.030147423967719078 -0.38080495595932007 49 4 150
-0.35826730728149414 -0.03126927837729454 -0.3637990951538086 74 2 160
-0.3625565469264984 -0.028820745646953583 -0.3677058815956116 74 2 160
-0.35398805141448975 -0.040844496339559555 -0.3688484728336334 68 3 158
-0.3470233678817749 -0.04387125372886658 -0.3670015037059784 49 4 150
-0.32715097069740295 -0.04005317762494087 -0.3718479871749878 39 5 146
-0.3063671886920929 -0.012208457104861736 -0.3923014998435974 63 3 156
-0.31431278586387634 0.029899777844548225 -0.41537466645240784 63 3 156
-0.3441309630870819 0.0325968861579895 -0.4294745624065399 66 3 157
-0.3537924289703369 0.03426877036690712 -0.4286733865737915 68 3 158
-0.3666701316833496 0.006749885156750679 -0.4191989004611969 49 4 150
-0.3646778166294098 0.014239676296710968 -0.4053330719470978 58 4 154
-0.35348233580589294 -0.0027654508594423532 -0.3795929253101349 68 3 158
-0.3818477988243103 -0.024787241593003273 -0.36264434456825256 63 3 156
-0.374176949262619 -0.02694685570895672 -0.34462442994117737 63 3 156
-0.36586105823516846 -0.05195365101099014 -0.3275616765022278 56 4 153
-0.37428081035614014 -0.058435242623090744 -0.3237360119819641 63 3 156
-0.37957456707954407 -0.06225693225860596 -0.32115620374679565 79 2 162
-0.37151965498924255 -0.06699743866920471 -0.3073368966579437 69 3 158
-0.3870568573474884 -0.06748994439840317 -0.31083565950393677 71 2 159
-0.38520699739456177 -0.07156948000192642 -0.315783828496933 76 2 161
-0.3827851116657257 -0.06998726725578308 -0.30725201964378357 94 0 165
-0.3888014256954193 -0.06404677033424377 -0.31393489241600037 89 1 164
-0.3998495042324066 -0.05570203438401222 -0.33362770080566406 84 1 163
-0.4003748297691345 -0.02411779947578907 -0.34713014960289 86 1 163
-0.4057459831237793 -0.015213687904179096 -0.35542330145835876 68 3 158
-0.41625988483428955 -0.003894947934895754 -0.36278775334358215 71 2 159
-0.42583563923835754 -0.0027966564521193504 -0.37385210394859314 69 3 158
-0.420391708612442 0.010978720150887966 -0.3706342279911041 81 1 162
-0.42832520604133606 0.017751911655068398 -0.37489309906959534 78 2 161
-0.4248068332672119 0.020919492468237877 -0.3848249614238739 82 1 163
-0.4242344796657562 0.015048871748149395 -0.38312265276908875 74 2 160
-0.4189576506614685 0.004981408827006817 -0.3861733675003052 76 2 161
-0.41379314661026 0.003665745723992586 -0.38818997144699097 73 2 159
-0.41275638341903687 0.008042427711188793 -0.4001210629940033 76 2 161
-0.4078209698200226 0.02194906957447529 -0.408189058303833 86 1 163
-0.4069894850254059 0.02368929050862789 -0.4131467044353485 86 1 163
-0.3957553505897522 0.01763935573399067 -0.4109128415584564 81 1 162
-0.3768359124660492 -0.009935574606060982 -0.38189390301704407 90 0 165
-0.34687700867652893 -0.05417347326874733 -0.3734740912914276 78 2 161
-0.334457129240036 -0.05425726994872093 -0.38049203157424927 74 2 160
-0.3426644504070282 -0.04692321643233299 -0.4019947648048401 86 1 163
-0.330398291349411 -0.03698084130883217 -0.3876761496067047 78 2 161
-0.31811097264289856 -0.042411696165800095 -0.38430726528167725 76 2 161
-0.3064558804035187 -0.06607609242200851 -0.39402273297309875 92 0 165
-0.29350847005844116 -0.06915320456027985 -0.38669249415397644 82 1 163
-0.2741060256958008 -0.0841878205537796 -0.3798733949661255 81 1 162
-0.25591805577278137 -0.09998039901256561 -0.3737821578979492 81 1 162
-0.24304696917533875 -0.07178312540054321 -0.3839500844478607 81 1 162
-0.25715118646621704 -0.0683075413107872 -0.3959421217441559 81 1 162
-0.2474919557571411 -0.06820166856050491 -0.3874267041683197 95 0 166
-0.2719930410385132 -0.0804114118218422 -0.4008677303791046 94 0 165
-0.2937398850917816 -0.07117331773042679 -0.3904260993003845 90 0 165
-0.29395437240600586 -0.07875621318817139 -0.3726107180118561 76 2 161
-0.27917128801345825 -0.11034078896045685 -0.35490161180496216 81 1 162
-0.2510366141796112 -0.12563642859458923 -0.341053307056427 84 1 163
-0.2330840528011322 -0.136784628033638 -0.3540664613246918 87 1 164
-0.2068210244178772 -0.1447952836751938 -0.3398665189743042 82 1 163
-0.18594373762607574 -0.13747599720954895 -0.35114187002182007 84 1 163
-0.17327158153057098 -0.1488146036863327 -0.3486856520175934 78 2 161
-0.2036283165216446 -0.16354581713676453 -0.34669503569602966 76 2 161
-0.23747745156288147 -0.16005051136016846 -0.3410649597644806 74 2 160
-0.26928508281707764 -0.15670664608478546 -0.33019542694091797 90 0 165
-0.2845747470855713 -0.15244056284427643 -0.3198413550853729 92 0 165
-0.29185813665390015 -0.1329105943441391 -0.31357404589653015 94 0 165
-0.2954297363758087 -0.13088679313659668 -0.3359585106372833 89 1 164
-0.2909092605113983 -0.13171520829200745 -0.3468063175678253 81 1 162
-0.30420365929603577 -0.12620006501674652 -0.36657315492630005 73 2 159
-0.2920873165130615 -0.12574607133865356 -0.35180461406707764 71 2 159
-0.2943280041217804 -0.10949324816465378 -0.34747791290283203 89 1 164
-0.3144221901893616 -0.11700489372015 -0.35851067304611206 82 1 163
-0.3115696609020233 -0.12090874463319778 -0.3703296184539795 86 1 163
-0.32074519991874695 -0.10388324409723282 -0.35539209842681885 82 1 163
-0.32098519802093506 -0.0975586324930191 -0.3757035434246063 87 1 164
-0.3250683844089508 -0.09880663454532623 -0.37187543511390686 82 1 163
-0.34335339069366455 -0.09782148152589798 -0.3846711218357086 68 3 158
-0.34443435072898865 -0.06135174632072449 -0.3802584707736969 51 4 151
-0.3826589286327362 -0.053240008652210236 -0.4027154743671417 56 4 153
-0.38602858781814575 -0.04463915899395943 -0.4056529104709625 41 5 147
-0.38358649611473083 -0.03412793204188347 -0.4074100852012634 244 234 38
-0.4045405387878418 -0.03689153492450714 -0.41535332798957825 244 234 38
-0.4131424129009247 -0.02181297354400158 -0.40129950642585754 246 229 37
-0.40240490436553955 -0.03045334294438362 -0.4012240171432495 244 234 38
-0.39839670062065125 -0.03523522987961769 -0.3948310613632202 244 234 38
-0.38836896419525146 -0.04404422268271446 -0.39178261160850525 243 238 38
-0.3947656750679016 -0.032196082174777985 -0.386203408241272 240 246 35
-0.40865153074264526 -0.03482206538319588 -0.3849141001701355 21 6 138
-0.40499573945999146 -0.027958128601312637 -0.3794431984424591 31 5 142
-0.40274208784103394 -0.02805573306977749 -0.3662564754486084 21 6 138
-0.3977583944797516 -0.030082132667303085 -0.37758904695510864 16 7 135
-0.4059286415576935 -0.016001472249627113 -0.3886437714099884 239 248 33
-0.421688050031662 0.005417019594460726 -0.3739141523838043 246 229 37
-0.4327757656574249 0.005660745780915022 -0.37417617440223694 247 224 36
-0.4294990003108978 0.00923654530197382 -0.37118592858314514 246 228 37
-0.44506746530532837 0.016056125983595848 -0.364105224609375 242 241 38
-0.4416910707950592 0.03731760382652283 -0.35598406195640564 243 238 38
-0.4362504780292511 0.037299614399671555 -0.3504301905632019 241 243 38
-0.44161972403526306 0.06524638086557388 -0.3642981946468353 242 241 38
-0.43680527806282043 0.07599940896034241 -0.3975653052330017 246 228 37
-0.4327545464038849 0.13971497118473053 -0.4231049716472626 241 243 38
-0.4395589828491211 0.15363481640815735 -0.420036643743515 29 6 141
-0.4340803623199463 0.1309986561536789 -0.4078342318534851 35 5 144
-0.43413838744163513 0.09569591283798218 -0.40375861525535583 56 4 153
-0.4202907085418701 0.08105189353227615 -0.3799237310886383 59 3 154
-0.4411029517650604 0.06038824841380119 -0.3801363706588745 51 4 151
-0.43682947754859924 0.05679677054286003 -0.3669097423553467 41 5 147
-0.43244993686676025 0.07423204183578491 -0.3723376989364624 52 4 152
-0.4355721175670624 0.09336084127426147 -0.3836487829685211 64 3 156
-0.43949374556541443 0.09204558283090591 -0.3629886209964752 68 3 158
-0.4481777548789978 0.08784151822328568 -0.3518596589565277 61 3 155
-0.4645247757434845 0.07757502794265747 -0.35153287649154663 63 3 156
-0.44963136315345764 0.07975668460130692 -0.35062021017074585 59 3 154
-0.43403053283691406 0.06426561623811722 -0.35955408215522766 71 2 159
-0.44929713010787964 0.052336450666189194 -0.35386770963668823 66 3 157
-0.4532681703567505 0.02471182681620121 -0.3406759202480316 76 2 161
-0.4420797526836395 0.011585112661123276 -0.34669309854507446 68 3 158
-0.4302850067615509 0.014787993393838406 -0.35582268238067627 49 4 150
-0.439430296421051 0.025908181443810463 -0.3513137102127075 52 4 152
-0.4458940029144287 0.009698170237243176 -0.34426435828208923 51 4 151
-0.4270474314689636 0.006051093805581331 -0.3256106376647949 69 3 158
-0.43042051792144775 -0.007128503639250994 -0.31728243827819824 73 2 159
-0.42441678047180176 -0.0011440409580245614 -0.3182983696460724 78 2 161
-0.4095984995365143 -0.0005328725674189627 -0.32153329253196716 54 4 152
-0.4004770815372467 0.007521473336964846 -0.33528634905815125 58 4 154
-0.41715189814567566 0.018656175583600998 -0.3462875485420227 73 2 159
-0.4232272207736969 0.016765497624874115 -0.3504716455936432 68 3 158
-0.37821823358535767 0.0070483083836734295 -0.35751527547836304 76 2 161
-0.3566882610321045 0.032512594014406204 -0.4255185127258301 73 2 159
-0.3324904143810272 0.022709978744387627 -0.42917197942733765 92 0 165
-0.3352384865283966 0.020456774160265923 -0.443354070186615 94 0 165
-0.3741030693054199 -0.028476782143115997 -0.39969784021377563 130 4 167
-0.35309892892837524 -0.06787892431020737 -0.34935247898101807 164 30 152
-0.3010725975036621 -0.1148359552025795 -0.25761619210243225 168 34 150
-0.2909054756164551 -0.12561506032943726 -0.23532480001449585 159 26 155
-0.3055066764354706 -0.10591091960668564 -0.2524511218070984 155 23 158
0.3562992811203003 -0.15683092176914215 0.36587029695510864 164 30 152
0.3026544749736786 -0.31792768836021423 0.5228784680366516 172 37 147
0.49130895733833313 -0.24115857481956482 0.3164157271385193 146 15 162
0.5130572319030762 -0.13595251739025116 0.19345583021640778 151 19 160
0.5009672045707703 -0.05016377568244934 0.156757190823555 155 23 158
0.4931982755661011 -0.050248559564352036 0.1390710026025772 139 9 164
0.5010258555412292 -0.056519489735364914 0.1482883244752884 139 9 164
0.504640519618988 -0.04854889214038849 0.15323540568351746 134 7 166
0.5078850984573364 -0.06924010813236237 0.17095476388931274 136 7 165
0.5146930813789368 -0.07250985503196716 0.1880878508090973 136 7 165
0.5089375972747803 -0.07411187142133713 0.18688929080963135 134 7 166
0.5013599991798401 -0.055687449872493744 0.1689797341823578 101 0 167
0.48510223627090454 -0.04627253860235214 0.1480896770954132 134 7 166
0.47843989729881287 -0.03552614524960518 0.1324588805437088 137 8 165
0.4731817841529846 -0.024135561659932137 0.11756718903779984 147 16 161
0.4631487727165222 -0.02155441790819168 0.10164973884820938 154 21 158
0.4530419111251831 -0.0065891798585653305 0.0900944322347641 154 21 158
0.4295039176940918 0.013277275487780571 0.06961473077535629 167 33 151
0.41437122225761414 0.025676729157567024 0.048184700310230255 172 37 147
0.4119882583618164 0.02695189043879509 0.05163375288248062 169 35 149
0.42498886585235596 0.016578733921051025 0.07241179049015045 167 33 151
0.4373081624507904 0.006515261717140675 0.09451331943273544 168 34 150
0.4545307457447052 -0.011196918785572052 0.10699417442083359 168 34 150
0.4626528322696686 -0.008130857720971107 0.1140674576163292 172 37 147
0.4534769356250763 -0.001191799994558096 0.11412752419710159 170 36 148
0.4451636075973511 0.023268751800060272 0.1074860543012619 143 13 163
0.4312000274658203 0.04373624920845032 0.09471134096384048 118 1 168
0.41181010007858276 0.0650283470749855 0.07151852548122406 104 0 167
0.39156198501586914 0.07929065823554993 0.05606583133339882 103 0 167
0.38315972685813904 0.09473498910665512 0.047526005655527115 98 0 166
0.3768123388290405 0.10014650225639343 0.046207595616579056 100 0 167
0.3708956837654114 0.10754340887069702 0.03925830125808716 94 0 165
0.3615451753139496 0.1184903085231781 0.029105888679623604 95 0 166
0.3470495939254761 0.12515848875045776 0.014250657521188259 89 1 164
0.3349325358867645 0.12391412258148193 0.008768673986196518 92 0 165
0.3360863924026489 0.11961045116186142 0.0019307075999677181 98 0 166
0.340829461812973 0.11398803442716599 -0.0012311232276260853 101 0 167
0.34129372239112854 0.11388441920280457 -0.000668986642267555 97 0 166
0.3342505693435669 0.11269943416118622 0.004773793742060661 101 0 167
0.3380233943462372 0.11380837857723236 0.011993782594799995 97 0 166
0.34254947304725647 0.11517300456762314 0.02719700336456299 98 0 166
0.34481367468833923 0.11725755035877228 0.02969752438366413 98 0 166
0.3435143530368805 0.1216595396399498 0.026478782296180725 101 0 167
0.3316361606121063 0.12652815878391266 0.017708992585539818 103 0 167
0.32599297165870667 0.13310399651527405 0.014346372336149216 101 0 167
0.32044538855552673 0.14086869359016418 0.024396110326051712 104 0 167
0.3153775930404663 0.14872102439403534 0.020611586049199104 101 0 167
0.3117268979549408 0.14980489015579224 0.02316792868077755 98 0 166
0.30977103114128113 0.1531720608472824 0.019076572731137276 97 0 166
0.30786970257759094 0.1533169150352478 0.016539301723241806 101 0 167
0.30286890268325806 0.15898574888706207 0.02234812267124653 104 0 167
0.29858994483947754 0.16011033952236176 0.02906310372054577 121 1 168
0.29957297444343567 0.1633700132369995 0.02751169726252556 124 2 167
0.2910975217819214 0.16575300693511963 0.024182895198464394 120 1 168
0.281861275434494 0.16735300421714783 0.014564983546733856 101 0 167
0.2667545974254608 0.17906595766544342 0.0069770533591508865 101 0 167
0.2534656226634979 0.18511824309825897 -0.00038072821917012334 69 3 158
0.25543123483657837 0.18524488806724548 0.0026997297536581755 64 3 156
0.26529085636138916 0.1832171380519867 0.015326330438256264 64 3 156
0.27581650018692017 0.18195639550685883 0.021415958181023598 33 5 143
0.28097110986709595 0.17969676852226257 0.02638131193816662 21 6 138
0.27135154604911804 0.17546024918556213 0.025374451652169228 241 243 38
0.2703472077846527 0.17782558500766754 0.043545886874198914 245 233 38
0.2812725305557251 0.169791579246521 0.06123232841491699 245 231 38
0.30089321732521057 0.15333373844623566 0.08573001623153687 247 226 37
0.3096489906311035 0.14953722059726715 0.08986259996891022 243 236 38
0.3108374774456024 0.146328404545784 0.0896700769662857 245 233 38
0.31219786405563354 0.14272275567054749 0.08061535656452179 248 223 36
0.3225713074207306 0.13959132134914398 0.08859767764806747 252 199 38
0.3173019587993622 0.13723929226398468 0.09301785379648209 253 193 40
0.3124285638332367 0.1452246457338333 0.0872943326830864 253 193 40
0.31077924370765686 0.14777329564094543 0.09407252073287964 253 198 38
0.30211690068244934 0.15297053754329681 0.10096323490142822 252 206 37
0.29004722833633423 0.16172140836715698 0.09176696091890335 248 223 36
0.27979040145874023 0.16580957174301147 0.08861321955919266 248 223 36
0.2827429473400116 0.17550422251224518 0.08237835764884949 252 201 38
0.29799285531044006 0.17331793904304504 0.09807883203029633 252 201 38
0.29607588052749634 0.16653862595558167 0.1045597642660141 252 201 38
0.3005123734474182 0.16931936144828796 0.09231515228748322 253 192 41
0.3061579167842865 0.18971610069274902 0.08781307190656662 253 198 38
0.29830029606819153 0.17687301337718964 0.09628051519393921 250 216 36
0.308341383934021 0.1770983189344406 0.10329527407884598 246 229 37
0.3068644404411316 0.18053700029850006 0.10058224201202393 253 188 42
0.3016801178455353 0.1884649395942688 0.09632401168346405 253 184 44
0.24782565236091614 0.17022131383419037 0.08853146433830261 253 176 48
0.10535354167222977 0.26061564683914185 0.03598026558756828 253 187 43
-0.121144600212574 0.4042273163795471 -0.362178772687912 59 3 154
-0.33577704429626465 0.30386367440223694 -0.4994216859340668 66 3 157
-0.30009186267852783 0.20202627778053284 -0.4420264959335327 63 3 156
-0.26973068714141846 0.17352581024169922 -0.45044195652008057 52 4 152
-0.24985899031162262 0.19412024319171906 -0.43907007575035095 66 3 157
-0.22408586740493774 0.20639441907405853 -0.4180338382720947 68 3 158
-0.18910366296768188 0.22686943411827087 -0.39285552501678467 64 3 156
-0.16747543215751648 0.23688824474811554 -0.3744398057460785 59 3 154
-0.1521834284067154 0.24292530119419098 -0.35971611738204956 71 2 159
-0.1534349024295807 0.23679228127002716 -0.3711678981781006 82 1 163
-0.18440654873847961 0.2075745165348053 -0.40993770956993103 90 0 165
-0.225324809551239 0.1713373363018036 -0.4322182834148407 90 0 165
-0.24877537786960602 0.14822661876678467 -0.4469510018825531 106 0 167
-0.264137864112854 0.14123618602752686 -0.4533558189868927 89 1 164
-0.25669416785240173 0.1484593152999878 -0.4623691737651825 76 2 161
-0.23868314921855927 0.15525469183921814 -0.46079158782958984 86 1 163
-0.24020209908485413 0.1747727394104004 -0.46598517894744873 84 1 163
-0.24249649047851562 0.17663954198360443 -0.45808902382850647 90 0 165
-0.24034900963306427 0.17867256700992584 -0.46306735277175903 97 0 166
-0.2464548647403717 0.1882292926311493 -0.45619121193885803 104 0 167
-0.2500767409801483 0.1881798952817917 -0.4633338749408722 103 0 167
-0.2503573000431061 0.19009773433208466 -0.4635353088378906 100 0 167
-0.25060778856277466 0.19834785163402557 -0.45825353264808655 114 0 168
-0.2530941069126129 0.20187106728553772 -0.4637226462364197 118 1 168
-0.24481284618377686 0.20195969939231873 -0.45679983496665955 121 1 168
-0.21200630068778992 0.21392574906349182 -0.44402194023132324 123 2 168
-0.20763297379016876 0.20869743824005127 -0.45096462965011597 108 0 168
-0.22330571711063385 0.20492221415042877 -0.46516305208206177 101 0 167
-0.23958811163902283 0.20941218733787537 -0.4654296338558197 90 0 165
-0.2344791293144226 0.19815818965435028 -0.4697035551071167 98 0 166
-0.23169302940368652 0.20136022567749023 -0.4659043848514557 111 0 168
-0.2169363796710968 0.19635629653930664 -0.4652022123336792 108 0 168
-0.19733329117298126 0.20372365415096283 -0.4547049105167389 108 0 168
-0.17771415412425995 0.20872199535369873 -0.4490979015827179 103 0 167
-0.1594604253768921 0.20888003706932068 -0.44077977538108826 95 0 166
-0.14755453169345856 0.21446578204631805 -0.4350850284099579 92 0 165
-0.13797910511493683 0.21285200119018555 -0.426113098859787 97 0 166
-0.11740503460168839 0.22563129663467407 -0.4215504825115204 95 0 166
-0.11923245340585709 0.2326873540878296 -0.41203320026397705 98 0 166
-0.13287091255187988 0.24269407987594604 -0.4109576642513275 97 0 166
-0.15446360409259796 0.243169367313385 -0.42197608947753906 82 1 163
-0.15856093168258667 0.24825817346572876 -0.4214091897010803 82 1 163
-0.15167385339736938 0.25238192081451416 -0.4190056025981903 76 2 161
-0.12378048151731491 0.2518569827079773 -0.4024631679058075 79 2 162
-0.10947442799806595 0.2515830099582672 -0.39023447036743164 71 2 159
-0.12936529517173767 0.2589012086391449 -0.38869166374206543 43 5 148
-0.13221386075019836 0.2578853666782379 -0.3999803066253662 69 3 158
-0.14337721467018127 0.2653837502002716 -0.406930536031723 89 1 164
-0.14451143145561218 0.2607119679450989 -0.4058077335357666 86 1 163
-0.15917810797691345 0.27536386251449585 -0.3959026038646698 94 0 165
-0.20211951434612274 0.26674890518188477 -0.4157036542892456 68 3 158
-0.21828705072402954 0.25568273663520813 -0.44432392716407776 51 4 151
-0.24449123442173004 0.2467769980430603 -0.4537467360496521 45 4 148
-0.25983676314353943 0.22091884911060333 -0.47827765345573425 241 243 38
-0.2848908305168152 0.20599733293056488 -0.4903920590877533 242 241 38
-0.3446807563304901 0.16583523154258728 -0.5083427429199219 247 226 37
-0.3700368404388428 0.14326050877571106 -0.49912819266319275 248 223 36
-0.3870709240436554 0.11542827636003494 -0.48976027965545654 247 224 36
-0.35682371258735657 0.12381038069725037 -0.4935455322265625 250 216 36
-0.3485993444919586 0.11031383275985718 -0.5003133416175842 252 206 37
-0.3297911584377289 0.11926351487636566 -0.5049952864646912 252 206 37
-0.3224291205406189 0.12974649667739868 -0.5077189207077026 252 204 37
-0.3155379295349121 0.16174453496932983 -0.5117703080177307 251 208 36
-0.33030933141708374 0.1792081594467163 -0.49953415989875793 251 209 36
-0.3408811092376709 0.16987523436546326 -0.4943884313106537 253 193 40
-0.353814035654068 0.15523067116737366 -0.4971747100353241 253 179 46
-0.3769110441207886 0.13695305585861206 -0.49217507243156433 253 178 47
-0.3749549984931946 0.10937667638063431 -0.4880812168121338 252 172 50
-0.37627071142196655 0.11217688024044037 -0.479471892118454 252 173 49
-0.3791477084159851 0.1070503517985344 -0.4870247542858124 253 178 47
-0.39185094833374023 0.09290444850921631 -0.47565698623657227 253 195 40
-0.3972817361354828 0.08659303933382034 -0.4616123139858246 252 204 37
-0.39972156286239624 0.07311153411865234 -0.457510769367218 249 217 36
-0.4046940207481384 0.06710170209407806 -0.4473116099834442 247 224 36
-0.4109325110912323 0.054166242480278015 -0.45031020045280457 249 217 36
-0.4107149541378021 0.04309035465121269 -0.444843590259552 249 219 36
-0.40721407532691956 0.039080992341041565 -0.4395204782485962 243 236 38
-0.4138122797012329 0.04078547656536102 -0.4314682185649872 243 236 38
-0.42508044838905334 0.03901482746005058 -0.42626887559890747 245 233 38
-0.4313315153121948 0.040166646242141724 -0.4231188893318176 246 228 37
-0.4417816400527954 0.03285843878984451 -0.42096295952796936 250 213 36
-0.44694194197654724 0.037226684391498566 -0.4157874584197998 250 213 36
-0.4541725814342499 0.03293953835964203 -0.40333765745162964 251 209 36
-0.4561465084552765 0.031623777002096176 -0.39887693524360657 251 208 36
-0.4659801125526428 0.0373535230755806 -0.39967676997184753 250 214 36
-0.46833178400993347 0.042100388556718826 -0.40253955125808716 249 217 36
-0.4720447361469269 0.040499791502952576 -0.39754122495651245 248 223 36
-0.4668119549751282 0.032083187252283096 -0.4006560742855072 245 233 38
-0.45791658759117126 0.02973945252597332 -0.39977332949638367 248 221 36
-0.4640131890773773 0.0365682952105999 -0.398542195558548 249 219 36
-0.46489450335502625 0.025816423818469048 -0.39511269330978394 245 231 38
-0.46220889687538147 0.016749979928135872 -0.38938185572624207 246 228 37
-0.4524005949497223 -0.0029956598300486803 -0.38179343938827515 245 231 38
-0.4329645037651062 -0.020443672314286232 -0.378467857837677 242 241 38
-0.42696940898895264 -0.027843782678246498 -0.37629434466362 239 248 33
-0.4297032058238983 -0.025944221764802933 -0.37299779057502747 31 5 142
-0.4295533001422882 -0.028009476140141487 -0.3731478452682495 35 5 144
-0.429338276386261 -0.0266322810202837 -0.37376388907432556 39 5 146
-0.4244493246078491 -0.03699491545557976 -0.37540942430496216 51 4 151
-0.4226645827293396 -0.03373442590236664 -0.37006548047065735 245 231 38
-0.4197857081890106 -0.042443130165338516 -0.3678433299064636 247 224 36
-0.4198223948478699 -0.045653361827135086 -0.36108431220054626 253 196 39
-0.41844889521598816 -0.04581821337342262 -0.3569992184638977 252 204 37
-0.42663875222206116 -0.039780352264642715 -0.35345739126205444 253 190 41
-0.43287190794944763 -0.0350104458630085 -0.35762864351272583 251 163 55
-0.440776526927948 -0.02181854099035263 -0.3525916635990143 250 160 57
-0.44480636715888977 -0.014965744689106941 -0.3552074730396271 249 154 60
-0.4568175673484802 -0.0058433362282812595 -0.3568595349788666 248 152 62
-0.461856484413147 -0.004416966810822487 -0.35145440697669983 248 150 63
-0.4528507590293884 -0.0076689147390425205 -0.3514666259288788 246 143 67
-0.450221985578537 -0.02023104578256607 -0.3414652347564697 240 129 77
-0.4473343789577484 -0.024467159062623978 -0.33576756715774536 238 124 80
-0.44215062260627747 -0.029173927381634712 -0.3310883045196533 236 120 83
-0.4453948140144348 -0.03267405182123184 -0.3251842260360718 239 125 79
-0.44278693199157715 -0.02803703211247921 -0.3237350285053253 236 120 83
-0.4492540955543518 -0.04079127311706543 -0.35194289684295654 234 116 85
-0.433297723531723 -0.013328105211257935 -0.3625712990760803 253 179 46
-0.4131692051887512 -0.02039080671966076 -0.33512333035469055 253 198 38
-0.40007051825523376 -0.04407520592212677 -0.33058685064315796 37 5 145
-0.38951733708381653 -0.04482129216194153 -0.33596351742744446 21 6 138
-0.39859017729759216 -0.04713871702551842 -0.3272707462310791 242 241 38
-0.38716304302215576 -0.056373320519924164 -0.31144702434539795 12 7 134
-0.3614217936992645 -0.07666601985692978 -0.29169848561286926 19 6 137
-0.354665607213974 -0.0755484476685524 -0.29463720321655273 24 6 139
-0.35547611117362976 -0.07175546884536743 -0.29889604449272156 243 236 38
-0.36642682552337646 -0.06582260131835938 -0.311985582113266 245 231 38
-0.37140989303588867 -0.06419433653354645 -0.31278499960899353 250 214 36
-0.3708740472793579 -0.06961549818515778 -0.30187785625457764 251 208 36
-0.36332836747169495 -0.07863125205039978 -0.30065229535102844 252 201 38
-0.3466050922870636 -0.08983815461397171 -0.29338181018829346 253 184 44
-0.32647261023521423 -0.09784151613712311 -0.28002482652664185 253 179 46
-0.3294376730918884 -0.09996695071458817 -0.2848736345767975 253 175 49
-0.34124305844306946 -0.10048017650842667 -0.28639546036720276 253 175 49
-0.34896141290664673 -0.08860420435667038 -0.28336408734321594 253 182 45
-0.35770177841186523 -0.09484456479549408 -0.2869105041027069 253 176 48
-0.35410481691360474 -0.0873410627245903 -0.28216928243637085 251 163 55
-0.3591003119945526 -0.09247730672359467 -0.2907821536064148 252 167 53
-0.3685118854045868 -0.08853045850992203 -0.2979750633239746 253 175 49
-0.3606555759906769 -0.08657845854759216 -0.28365984559059143 253 178 47
-0.3267173171043396 -0.12210728973150253 -0.2596162259578705 253 188 42
-0.03585922718048096 -0.29344406723976135 -0.10770513117313385 243 236 38
0.5327907204627991 -0.12195635586977005 0.17209310829639435 124 2 167
0.5320619344711304 -0.0725589469075203 0.13351207971572876 127 3 167
0.49237751960754395 -0.0019887317903339863 0.18091709911823273 132 5 166
0.47589802742004395 0.005255080759525299 0.18952225148677826 121 1 168
0.4816504120826721 0.0009115060674957931 0.19259612262248993 132 5 166
0.4849194586277008 0.004854447674006224 0.19428932666778564 137 8 165
0.4800848960876465 0.023620963096618652 0.18851597607135773 133 6 166
0.4720304012298584 0.02642725594341755 0.17810438573360443 134 7 166
0.46301645040512085 0.03144030645489693 0.16590537130832672 140 10 164
0.4538933038711548 0.04207498952746391 0.14850440621376038 147 16 161
0.4473966360092163 0.04712750017642975 0.12794528901576996 147 16 161
0.44895491003990173 0.053997281938791275 0.1434251368045807 146 15 162
0.43007829785346985 0.0760975256562233 0.13396379351615906 117 0 168
0.4083188474178314 0.09705032408237457 0.11415804177522659 142 12 164
0.36335334181785583 0.13671010732650757 0.09376369416713715 130 4 167
0.33103832602500916 0.15978777408599854 0.06405019760131836 133 6 166
0.3179525136947632 0.18383120000362396 0.043319687247276306 127 3 167
0.2989601790904999 0.2097485214471817 0.04066910222172737 123 2 168
0.30979201197624207 0.19582638144493103 0.05143795907497406 123 2 168
0.3128993511199951 0.2002033144235611 0.07016926258802414 126 3 167
0.33373668789863586 0.19050440192222595 0.09118833392858505 123 2 168
0.34747791290283203 0.1762511283159256 0.11100379377603531 118 1 168
0.3695930242538452 0.1539958417415619 0.12892252206802368 118 1 168
0.4083901047706604 0.1321023404598236 0.14486214518547058 117 0 168
0.4073140621185303 0.1259365975856781 0.13899287581443787 109 0 168
0.39237797260284424 0.1396293342113495 0.1269940584897995 115 0 168
0.3741341233253479 0.1391974538564682 0.12098053842782974 120 1 168
0.38931071758270264 0.11931007355451584 0.11660575121641159 120 1 168
0.4157600402832031 0.0933341383934021 0.1563129425048828 127 3 167
0.44164589047431946 0.08555318415164948 0.18730977177619934 127 3 167
0.4652223289012909 0.057283077389001846 0.22318609058856964 127 3 167
0.46313396096229553 0.052191056311130524 0.2559804320335388 123 2 168
0.45373791456222534 0.05534631386399269 0.27391546964645386 124 2 167
0.44733163714408875 0.06167206913232803 0.25729456543922424 124 2 167
0.4210004508495331 0.07553211599588394 0.2412712126970291 124 2 167
0.4056282639503479 0.08476853370666504 0.2220587283372879 120 1 168
0.40465906262397766 0.11199528723955154 0.21076536178588867 108 0 168
0.3846333622932434 0.11930616945028305 0.21574246883392334 108 0 168
0.3636796474456787 0.13462626934051514 0.1917247623205185 111 0 168
0.3531230092048645 0.1300545036792755 0.16804853081703186 109 0 168
0.36337560415267944 0.13722284138202667 0.1424371898174286 117 0 168
0.3756933808326721 0.11562827229499817 0.1640559881925583 117 0 168
0.41951343417167664 0.09676360338926315 0.22294507920742035 98 0 166
0.4495489001274109 0.06687856465578079 0.27800750732421875 95 0 166
0.43848496675491333 0.08425414562225342 0.27885353565216064 84 1 163
0.4062173366546631 0.11876190453767776 0.23724834620952606 61 3 155
0.35448333621025085 0.15335677564144135 0.18759146332740784 47 4 149
0.32713407278060913 0.17318932712078094 0.15590320527553558 37 5 145
0.31229540705680847 0.18669117987155914 0.13859446346759796 37 5 145
0.2954373359680176 0.19887416064739227 0.12230413407087326 35 5 144
0.2782514691352844 0.22002720832824707 0.08744301646947861 33 5 143
0.24307553470134735 0.22613923251628876 0.07319315522909164 31 5 142
0.2271202653646469 0.23318591713905334 0.0676068663597107 35 5 144
0.22960548102855682 0.2319008708000183 0.06565260887145996 16 7 135
0.19736440479755402 0.2583847641944885 0.05747199058532715 12 7 134
0.1938953995704651 0.2616494596004486 0.060721538960933685 240 245 37
0.18035805225372314 0.25579074025154114 0.06463775038719177 242 241 38
0.1818847507238388 0.2539174258708954 0.08212342113256454 242 241 38
0.1806248426437378 0.24859118461608887 0.08679443597793579 242 240 38
0.18949344754219055 0.24763064086437225 0.10086754709482193 244 234 38
0.18623320758342743 0.25027230381965637 0.10327067971229553 245 231 38
0.17459605634212494 0.2470731884241104 0.10595453530550003 247 224 36
0.14948958158493042 0.2619076073169708 0.1129092276096344 248 223 36
0.13573460280895233 0.26058468222618103 0.10688173025846481 249 219 36
0.1484067142009735 0.2554851770401001 0.11266523599624634 247 226 37
0.15220129489898682 0.2480740249156952 0.10722870379686356 245 231 38
0.15133136510849 0.23940731585025787 0.100191630423069 246 229 37
0.15457183122634888 0.25983893871307373 0.09862963855266571 247 224 36
0.10144900530576706 0.2773301303386688 0.06613671779632568 253 195 40
0.021008456125855446 0.30556201934814453 0.01090448722243309 253 195 40
-0.04043455049395561 0.33305811882019043 -0.054458070546388626 253 195 40
-0.09446936845779419 0.3397018611431122 -0.07497512549161911 253 188 42
-0.07858150452375412 0.36210909485816956 -0.08580368012189865 253 192 41
-0.08988483995199203 0.36822202801704407 -0.09721631556749344 252 201 38
-0.0966901183128357 0.3535263240337372 -0.12628468871116638 248 223 36
-0.10782266408205032 0.34832003712654114 -0.14361141622066498 253 179 46
-0.09605205804109573 0.3401743173599243 -0.150079607963562 251 162 56
-0.10845371335744858 0.3526001274585724 -0.16788390278816223 252 169 52
-0.14087945222854614 0.3515715003013611 -0.19256141781806946 252 173 49
-0.18584372103214264 0.34698039293289185 -0.22873280942440033 252 170 51
-0.23336169123649597 0.34256142377853394 -0.2621018588542938 253 175 49
-0.27247530221939087 0.34276989102363586 -0.2986326515674591 253 178 47
-0.300570011138916 0.3432413935661316 -0.3170495331287384 253 182 45
-0.33048325777053833 0.33425843715667725 -0.34103891253471375 253 175 49
