ply
format ascii 1.0
element vertex 687
property float x
property float y
property float z
property uchar red
property uchar green
property uchar blue
end_header
-0.18014204502105713 -0.9766858816146851 -0.11676210910081863 255 127 0
-0.1970832198858261 -0.9739673137664795 -0.11200811713933945 255 127 0
-0.19684641063213348 -0.9761872887611389 -0.09115788340568542 255 127 0
-0.19834032654762268 -0.9742439985275269 -0.10728354007005692 255 127 0
-0.17498913407325745 -0.9796724915504456 -0.09808453172445297 255 127 0
-0.17239107191562653 -0.9814667105674744 -0.08369225263595581 255 127 0
-0.17397534847259521 -0.980458676815033 -0.09183351695537567 255 127 0
-0.2002028524875641 -0.972881555557251 -0.11584506928920746 255 127 0
-0.21698540449142456 -0.9688752889633179 -0.11915526539087296 255 127 0
-0.22331814467906952 -0.9612559676170349 -0.1616045981645584 255 127 0
-0.19014234840869904 -0.9647645354270935 -0.18186615407466888 255 127 0
-0.17562472820281982 -0.97017902135849 -0.16705887019634247 255 127 0
-0.16589480638504028 -0.9734221696853638 -0.1578865349292755 255 127 0
-0.1562485545873642 -0.9727310538291931 -0.1714078038930893 255 127 0
-0.16590231657028198 -0.9700912237167358 -0.17719849944114685 255 127 0
-0.16647592186927795 -0.9679163694381714 -0.1882115751504898 255 127 0
-0.16572631895542145 -0.9683937430381775 -0.18640927970409393 255 127 0
-0.164933443069458 -0.9667706489562988 -0.19532418251037598 255 127 0
-0.1610245555639267 -0.9680138826370239 -0.19240616261959076 255 127 0
-0.14510226249694824 -0.9693731069564819 -0.1981441080570221 255 127 0
-0.13933110237121582 -0.9712468981742859 -0.19304491579532623 255 127 0
-0.11522476375102997 -0.9691081643104553 -0.21806563436985016 255 127 0
-0.11218047887086868 -0.9693102836608887 -0.21875323355197906 255 127 0
-0.11097319424152374 -0.9726718664169312 -0.20394708216190338 255 127 0
-0.06948024034500122 -0.9719768762588501 -0.22457365691661835 255 127 0
-0.07374268770217896 -0.9693965911865234 -0.2341631054878235 255 127 0
-0.07494889199733734 -0.9702027440071106 -0.230411097407341 255 127 0
-0.07901544868946075 -0.972000777721405 -0.22129403054714203 255 127 0
-0.09950783848762512 -0.9829844236373901 -0.15440145134925842 255 127 0
-0.05410325899720192 -0.9912051558494568 -0.1207691878080368 255 127 0
-0.05170557275414467 -0.9865325093269348 -0.15517745912075043 255 127 0
-0.047147490084171295 -0.9845818877220154 -0.16845066845417023 255 127 0
-0.07306741178035736 -0.980967104434967 -0.17990171909332275 255 127 0
-0.08661055564880371 -0.9811040163040161 -0.1730131208896637 255 127 0
-0.07064487785100937 -0.9878602623939514 -0.13835276663303375 255 127 0
-0.05189501494169235 -0.9855733513832092 -0.1610964834690094 255 127 0
-0.014357826672494411 -0.9837626814842224 -0.17889897525310516 255 127 0
-0.04780813679099083 -0.988944947719574 -0.14036470651626587 255 127 0
-0.018275968730449677 -0.9897738099098206 -0.1414705067873001 255 127 0
-0.016039149835705757 -0.9899217486381531 -0.1407044231891632 255 127 0
-0.038881588727235794 -0.9910556077957153 -0.12765954434871674 255 127 0
-0.039612479507923126 -0.9913026690483093 -0.1254984438419342 255 127 0
-0.04525617137551308 -0.9870952367782593 -0.15360625088214874 255 127 0
-0.06438951939344406 -0.9889166951179504 -0.13378289341926575 255 127 0
-0.09615416079759598 -0.9901533722877502 -0.10173774510622025 255 127 0
-0.08026880025863647 -0.9922291040420532 -0.09507065266370773 255 127 0
-0.08215506374835968 -0.9926484823226929 -0.0888795554637909 255 127 0
-0.0642402172088623 -0.9932384490966797 -0.09669826179742813 255 127 0
-0.06144433096051216 -0.9946760535240173 -0.08272917568683624 255 127 0
-0.029781822115182877 -0.9963301420211792 -0.08024480938911438 255 127 0
0.023639578372240067 -0.9898044466972351 -0.1404576301574707 255 127 0
0.045315198600292206 -0.9847527146339417 -0.16795417666435242 255 127 0
0.06241359934210777 -0.9815343618392944 -0.18081723153591156 255 127 0
0.09720876067876816 -0.9762001633644104 -0.19386541843414307 255 127 0
0.11174183338880539 -0.9782121181488037 -0.17497093975543976 255 127 0
0.08062367141246796 -0.9881389141082764 -0.1306956261396408 255 127 0
0.06530321389436722 -0.9861226677894592 -0.15263547003269196 255 127 0
-0.002934419084340334 -0.9899343848228455 -0.14149680733680725 255 127 0
-0.03514140099287033 -0.9935788512229919 -0.10754666477441788 255 127 0
-0.03667837008833885 -0.9928671717643738 -0.11344362050294876 255 127 0
-0.03991527110338211 -0.9952192306518555 -0.08913713693618774 255 127 0
-0.05559953302145004 -0.9921949505805969 -0.11161480844020844 255 127 0
-0.04495498910546303 -0.9984157681465149 -0.03383944556117058 255 127 0
-0.06562543660402298 -0.9976862668991089 0.0177608672529459 255 127 0
-0.0028107597026973963 -0.9997706413269043 -0.02123402990400791 255 127 0
0.009287993423640728 -0.9998366236686707 0.015505136922001839 255 127 0
0.03370214253664017 -0.9991376399993896 -0.02425096556544304 255 127 0
0.018877942115068436 -0.9993793964385986 -0.029742244631052017 255 127 0
-0.057563476264476776 -0.996237576007843 0.0647861436009407 255 127 0
-0.004883947316557169 -0.9966779947280884 0.08129651099443436 255 127 0
-0.003376256674528122 -0.9993422031402588 0.03610631451010704 255 127 0
0.06582867354154587 -0.9977694749832153 0.011069008149206638 255 127 0
-0.003095001447945833 -0.9931676387786865 0.1166548877954483 255 127 0
-0.0005633856635540724 -0.9974331855773926 0.07160178571939468 255 127 0
-0.027237016707658768 -0.9993000030517578 -0.0256462674587965 255 127 0
-0.1395956426858902 -0.9902047514915466 0.0027497955597937107 255 127 0
-0.16217727959156036 -0.9860233664512634 -0.038163475692272186 255 127 0
-0.17912432551383972 -0.9824600219726562 -0.051835086196660995 255 127 0
-0.18795685470104218 -0.9789230823516846 -0.07988649606704712 255 127 0
-0.16236865520477295 -0.9839891791343689 -0.07349634170532227 255 127 0
-0.1474517583847046 -0.9866960644721985 -0.06847433745861053 255 127 0
-0.11390130966901779 -0.9912206530570984 -0.0671427845954895 255 127 0
-0.19885236024856567 -0.979522705078125 0.03151111677289009 255 127 0
-0.142548069357872 -0.9888633489608765 0.042771995067596436 255 127 0
-0.1349857598543167 -0.9868060946464539 0.0894017443060875 255 127 0
-0.09639140963554382 -0.9837061166763306 0.15175926685333252 255 127 0
-0.022803079336881638 -0.981390655040741 0.19066287577152252 255 127 0
0.03645791485905647 -0.9878069162368774 0.15135496854782104 255 127 0
0.06277477741241455 -0.992594838142395 0.10399407893419266 255 127 0
0.2094210684299469 -0.9715853929519653 0.11029322445392609 255 127 0
0.19429436326026917 -0.9654102921485901 0.17387552559375763 255 127 0
0.21452002227306366 -0.9594137072563171 0.18304772675037384 255 127 0
0.25246524810791016 -0.9152734279632568 0.31390413641929626 255 127 0
0.23117221891880035 -0.8810053467750549 0.41278207302093506 255 127 0
0.25771790742874146 -0.8681567907333374 0.42412880063056946 255 127 0
0.13269834220409393 -0.9080743789672852 0.3972305953502655 255 127 0
0.12339761853218079 -0.9251313209533691 0.35903358459472656 255 127 0
0.1721230000257492 -0.9051662087440491 0.3886486291885376 255 127 0
0.1259264349937439 -0.9389635920524597 0.3201403021812439 255 127 0
0.11448592692613602 -0.9391655921936035 0.3238224685192108 255 127 0
0.04974624887108803 -0.8992171883583069 0.4346649944782257 255 127 0
0.19760237634181976 -0.8633967638015747 0.46421900391578674 255 127 0
0.25568097829818726 -0.8564661145210266 0.44843408465385437 255 127 0
0.34696754813194275 -0.8314836621284485 0.433876097202301 255 127 0
0.3432520925998688 -0.8337399363517761 0.4324995279312134 255 127 0
0.1631326973438263 -0.8658804893493652 0.4729045331478119 255 127 0
0.18583036959171295 -0.6724177598953247 0.7164644598960876 255 127 0
0.4257766902446747 -0.6687672734260559 0.6094788312911987 255 127 0
0.4479455053806305 -0.6405998468399048 0.6236799359321594 255 127 0
0.5398180484771729 -0.5925438404083252 0.5979031920433044 255 127 0
0.487225741147995 -0.6131511330604553 0.6218173503875732 255 127 0
0.4998348355293274 -0.653454601764679 0.5684736371040344 255 127 0
0.4774477779865265 -0.6239349842071533 0.6186668872833252 255 127 0
0.5922938585281372 -0.6431408524513245 0.48534297943115234 255 127 0
0.5512449741363525 -0.5207440257072449 0.6518855094909668 255 127 0
0.5319966077804565 -0.4696964621543884 0.7045316100120544 255 127 0
0.5020217299461365 -0.4895077347755432 0.7129910588264465 255 127 0
0.5492446422576904 -0.40831655263900757 0.7291145324707031 255 127 0
0.4880153238773346 -0.4161754846572876 0.7672281265258789 255 127 0
0.5661510825157166 -0.28894367814064026 0.7720003128051758 255 127 0
0.6309182047843933 -0.29384803771972656 0.7180498242378235 255 127 0
0.5105314254760742 -0.46959418058395386 0.7203047871589661 255 127 0
0.5327768325805664 -0.49369803071022034 0.687321662902832 255 127 0
0.5624299049377441 -0.35237833857536316 0.7479987144470215 255 127 0
0.5283581018447876 -0.4916457533836365 0.6921864748001099 255 127 0
0.3673442304134369 -0.5086879134178162 0.7786493301391602 255 127 0
0.39812955260276794 -0.35908302664756775 0.8441280722618103 255 127 0
0.18475766479969025 -0.2875572144985199 0.9397741556167603 255 127 0
0.13257457315921783 -0.2809508740901947 0.9505212306976318 255 127 0
0.14251646399497986 -0.10051839798688889 0.9846751093864441 255 127 0
0.156703919172287 0.041504234075546265 0.9867731332778931 255 127 0
0.2596350908279419 0.09774012863636017 0.9607478976249695 255 127 0
0.3226105570793152 0.05310162901878357 0.9450411200523376 255 127 0
0.18691177666187286 -0.036192283034324646 0.9817097783088684 255 127 0
0.24325571954250336 -0.08165378123521805 0.9665191173553467 255 127 0
0.08074283599853516 -0.22786222398281097 0.970339834690094 255 127 0
-0.10980980843305588 -0.40700745582580566 0.9068002700805664 255 127 0
-0.059914592653512955 -0.5438395142555237 0.8370476961135864 255 127 0
-0.007543306332081556 -0.5196366310119629 0.8543540835380554 255 127 0
0.024102330207824707 -0.5458307862281799 0.8375486731529236 255 127 0
0.07848484814167023 -0.6358034610748291 0.767850399017334 255 127 0
0.0799623504281044 -0.6165212392807007 0.7832671999931335 255 127 0
0.11972809582948685 -0.5141674280166626 0.8492920994758606 255 127 0
0.18460848927497864 -0.5953065156936646 0.7820037603378296 255 127 0
0.16199974715709686 -0.6734355092048645 0.7212770581245422 255 127 0
0.2297888994216919 -0.6248167753219604 0.7461909651756287 255 127 0
0.20041470229625702 -0.6288984417915344 0.7512128353118896 255 127 0
0.20910784602165222 -0.6972034573554993 0.6856976747512817 255 127 0
0.19618625938892365 -0.739652156829834 0.64375901222229 255 127 0
0.33298882842063904 -0.6539300680160522 0.6793333888053894 255 127 0
0.1958422213792801 -0.6633918285369873 0.7221890687942505 255 127 0
0.16752777993679047 -0.6544119715690613 0.7373462319374084 255 127 0
0.11115377396345139 -0.7415013313293457 0.6616800427436829 255 127 0
0.00017463980475440621 -0.8090047836303711 0.587801992893219 255 127 0
-0.030480332672595978 -0.8400133848190308 0.5417088270187378 255 127 0
-0.039592329412698746 -0.8447130918502808 0.533752977848053 255 127 0
-0.04775611311197281 -0.8384633660316467 0.5428614020347595 255 127 0
-0.020365191623568535 -0.8178099989891052 0.5751278400421143 255 127 0
0.052481502294540405 -0.8871572017669678 0.458473265171051 255 127 0
0.2198180854320526 -0.9181498885154724 0.3296678066253662 255 127 0
0.24618303775787354 -0.8799981474876404 0.40619853138923645 255 127 0
0.312934935092926 -0.8718857765197754 0.37667879462242126 255 127 0
0.3117887079715729 -0.8348933458328247 0.45358672738075256 255 127 0
0.32676267623901367 -0.790711522102356 0.5176884531974792 255 127 0
0.4255969226360321 -0.7800566554069519 0.4586707651615143 255 127 0
0.24232040345668793 -0.8627920746803284 0.4437010884284973 255 127 0
0.22925496101379395 -0.8721752166748047 0.4321487545967102 255 127 0
0.39337509870529175 -0.7804660201072693 0.4859308898448944 255 127 0
0.5832825303077698 -0.37163543701171875 0.7222662568092346 255 127 0
0.7079375982284546 -0.3548508882522583 0.6106597185134888 255 127 0
0.47687211632728577 -0.4971366226673126 0.7248779535293579 255 127 0
0.23052328824996948 -0.3137856125831604 0.921085000038147 255 127 0
0.09275945276021957 -0.3070668578147888 0.947156548500061 255 127 0
-0.03298941254615784 -0.320548415184021 0.9466575384140015 255 127 0
-0.0911806970834732 -0.17607718706130981 0.9801443219184875 255 127 0
-0.17101386189460754 -0.15824519097805023 0.9724776148796082 255 127 0
-0.10192326456308365 0.06752026081085205 0.9924981594085693 255 127 0
-0.17640255391597748 0.14615875482559204 0.9734062552452087 255 127 0
-0.12795984745025635 0.29328563809394836 0.9474227428436279 255 127 0
-0.22081486880779266 0.3173102140426636 0.9222553968429565 255 127 0
-0.39263519644737244 -0.05246974900364876 0.9181963205337524 255 127 0
-0.24933336675167084 0.28491416573524475 0.925557553768158 255 127 0
-0.39204856753349304 -0.1466672271490097 0.9081776142120361 255 127 0
-0.26829594373703003 -0.18346425890922546 0.9457051157951355 255 127 0
-0.013157887384295464 -0.2525012493133545 0.9675071239471436 255 127 0
-0.05042947456240654 -0.3661305606365204 0.9291960597038269 255 127 0
0.08405112475156784 -0.12887358665466309 0.9880926609039307 255 127 0
0.045334961265325546 -0.08357779681682587 0.9954694509506226 255 127 0
0.13297908008098602 -0.20944559574127197 0.9687358736991882 255 127 0
0.02085326984524727 -0.22861087322235107 0.9732944369316101 255 127 0
-0.0867079496383667 -0.07128126919269562 0.9936803579330444 255 127 0
-0.11167338490486145 -0.012832568027079105 0.9936620593070984 255 127 0
-0.013925077393651009 -0.07947006821632385 0.9967399835586548 255 127 0
-0.025183353573083878 -0.16638223826885223 0.9857397079467773 255 127 0
0.12938982248306274 -0.11809375137090683 0.9845364689826965 255 127 0
0.10280920565128326 -0.34517359733581543 0.9328908920288086 255 127 0
0.13298383355140686 -0.4738738238811493 0.8704934120178223 255 127 0
0.2310228943824768 -0.5679580569267273 0.7899697422981262 255 127 0
0.3179768919944763 -0.6644351482391357 0.6763257384300232 255 127 0
0.35693594813346863 -0.7112119793891907 0.605618953704834 255 127 0
0.41238752007484436 -0.7347689270973206 0.5385639071464539 255 127 0
0.4595465660095215 -0.6575427055358887 0.5970380902290344 255 127 0
0.6399834156036377 -0.5104548335075378 0.5743319392204285 255 127 0
0.7291417717933655 -0.39157238602638245 0.5612694025039673 255 127 0
0.6759993433952332 -0.4270101487636566 0.6005723476409912 255 127 0
0.488427072763443 -0.6110416650772095 0.6229502558708191 255 127 0
0.45103323459625244 -0.6694784760475159 0.5902267694473267 255 127 0
0.3673539161682129 -0.8175685405731201 0.4434329867362976 255 127 0
0.3589783012866974 -0.8744532465934753 0.32629162073135376 255 127 0
0.30341947078704834 -0.9282724261283875 0.21505090594291687 255 127 0
0.2537180185317993 -0.9554315209388733 0.15092310309410095 255 127 0
0.2407296895980835 -0.9630530476570129 0.12073934823274612 255 127 0
0.17109176516532898 -0.9779922366142273 0.11940988153219223 255 127 0
0.23752982914447784 -0.9661736488342285 0.1004391610622406 255 127 0
0.18511494994163513 -0.9814332723617554 0.05021024867892265 255 127 0
0.22283612191677094 -0.9746702313423157 -0.019024387001991272 255 127 0
0.30183568596839905 -0.9489421248435974 -0.09167315065860748 255 127 0
0.41747021675109863 -0.8636907339096069 -0.2824127674102783 255 127 0
0.563245415687561 -0.788730800151825 -0.24628911912441254 255 127 0
0.6674962639808655 -0.6744570732116699 -0.3155254125595093 255 127 0
0.7309004068374634 -0.6026846170425415 -0.3202434480190277 255 127 0
0.7387747168540955 -0.6357857584953308 -0.22358065843582153 255 127 0
0.6376003623008728 -0.7359870672225952 -0.22757159173488617 255 127 0
0.5098450779914856 -0.7728734612464905 -0.37778905034065247 255 127 0
0.36866670846939087 -0.6575042009353638 -0.6570944786071777 255 127 0
0.27487292885780334 -0.46607401967048645 -0.8409636616706848 255 127 0
0.30022019147872925 -0.04332609474658966 -0.9528853893280029 255 127 0
0.22053323686122894 0.30701860785484314 -0.9257994890213013 255 127 0
0.15786179900169373 0.4609079360961914 -0.8732946515083313 255 127 0
0.14132370054721832 0.5997717380523682 -0.7875922322273254 255 127 0
0.2559965252876282 0.5099806189537048 -0.8212097883224487 255 127 0
0.4608740508556366 0.48284292221069336 -0.7446192502975464 255 127 0
0.49101516604423523 0.47652846574783325 -0.729263186454773 255 127 0
0.4649161994457245 0.5764452219009399 -0.6719850301742554 255 127 0
0.4629037082195282 0.5825440287590027 -0.6681036949157715 255 127 0
0.4534141421318054 0.6030176877975464 -0.6563423275947571 255 127 0
0.49420255422592163 0.576049268245697 -0.6510999202728271 255 127 0
0.5361887812614441 0.5746336579322815 -0.6183023452758789 255 127 0
0.5937308669090271 0.5394023656845093 -0.5971001982688904 255 127 0
0.6610965728759766 0.5630890727043152 -0.4958651065826416 255 127 0
0.6883770227432251 0.5710143446922302 -0.4473026990890503 255 127 0
0.6839016675949097 0.5872995257377625 -0.43284833431243896 255 127 0
0.6764065027236938 0.6490314602851868 -0.3481844663619995 255 127 0
0.6911531686782837 0.6496396064758301 -0.31666329503059387 255 127 0
0.6956079602241516 0.6448189616203308 -0.31676173210144043 255 127 0
0.7661983370780945 0.5682668685913086 -0.30002135038375854 255 127 0
0.8468568325042725 0.41681554913520813 -0.3303002119064331 255 127 0
0.8353315591812134 0.46492841839790344 -0.29336458444595337 255 127 0
0.8735666871070862 0.4367519021034241 -0.21477685868740082 255 127 0
0.9136062264442444 0.3761339485645294 -0.1544245034456253 255 127 0
0.8746506571769714 0.41359829902648926 -0.25282931327819824 255 127 0
0.8522946238517761 0.441694974899292 -0.28017741441726685 255 127 0
0.8732977509498596 0.3266618251800537 -0.36144596338272095 255 127 0
0.8473787307739258 0.1899643838405609 -0.4958455264568329 255 127 0
0.927252471446991 0.2072124183177948 -0.3118748664855957 255 127 0
0.7339838147163391 0.551644504070282 -0.396176815032959 255 127 0
0.627453625202179 0.5446712374687195 -0.5564486384391785 255 127 0
0.6405410766601562 0.45778587460517883 -0.616554319858551 255 127 0
0.7992802858352661 0.24319489300251007 -0.5495520234107971 255 127 0
0.8145928382873535 0.01222195290029049 -0.579904317855835 255 127 0
0.686811625957489 -0.11586577445268631 -0.7175409197807312 255 127 0
0.6140458583831787 -0.2679249048233032 -0.742404043674469 255 127 0
0.3855375647544861 -0.09854637831449509 -0.9174145460128784 255 127 0
0.48052239418029785 -0.07063009589910507 -0.8741336464881897 255 127 0
0.26335325837135315 0.2276230752468109 -0.9374608397483826 255 127 0
0.4669030010700226 0.4485137164592743 -0.7621266841888428 255 127 0
0.4264494776725769 0.4177817106246948 -0.8022464513778687 255 127 0
0.4485672414302826 0.0517321340739727 -0.892250657081604 255 127 0
0.6141729354858398 0.15486808121204376 -0.7738264799118042 255 127 0
0.44962459802627563 -0.05004982650279999 -0.8918142914772034 255 127 0
0.32729652523994446 -0.08676283806562424 -0.9409299492835999 255 127 0
0.28298985958099365 -0.06602964550256729 -0.9568473100662231 255 127 0
0.29050499200820923 0.19758403301239014 -0.9362518191337585 255 127 0
0.22524985671043396 0.40039724111557007 -0.8882254958152771 255 127 0
0.35603514313697815 0.6636321544647217 -0.6578992009162903 255 127 0
0.4698701500892639 0.6442468166351318 -0.6034634113311768 255 127 0
0.39184778928756714 0.7224481701850891 -0.5696699619293213 255 127 0
0.3163285255432129 0.7039448618888855 -0.6359228491783142 255 127 0
0.4038864076137543 0.6506716012954712 -0.6430414319038391 255 127 0
0.3290345370769501 0.7002131938934326 -0.6335912346839905 255 127 0
0.31317266821861267 0.6969758868217468 -0.6450950503349304 255 127 0
0.3762498199939728 0.6875368356704712 -0.6210710406303406 255 127 0
0.4435630738735199 0.6642150282859802 -0.6017226576805115 255 127 0
0.45849889516830444 0.6795945763587952 -0.5726516246795654 255 127 0
0.4726593792438507 0.6800009608268738 -0.5605282187461853 255 127 0
0.5473042130470276 0.606576681137085 -0.576647937297821 255 127 0
0.5837498307228088 0.6023363471031189 -0.5444509983062744 255 127 0
0.6353344321250916 0.520983099937439 -0.5700235366821289 255 127 0
0.6872081756591797 0.4329521059989929 -0.5833501219749451 255 127 0
0.714490532875061 0.3681887686252594 -0.5949288010597229 255 127 0
0.7189137935638428 0.252257376909256 -0.6477108001708984 255 127 0
0.701417088508606 0.3072893023490906 -0.643107533454895 255 127 0
0.7055956125259399 0.20292434096336365 -0.6789377331733704 255 127 0
0.7677260041236877 -0.05135596543550491 -0.6387169361114502 255 127 0
0.757968544960022 -0.15166793763637543 -0.6344135999679565 255 127 0
0.8002115488052368 -0.15743429958820343 -0.5786845684051514 255 127 0
0.9076674580574036 -0.19337449967861176 -0.3724864721298218 255 127 0
0.9690276980400085 -0.050724856555461884 -0.24168621003627777 255 127 0
0.9587792754173279 0.15909233689308167 -0.23544001579284668 255 127 0
0.9364737868309021 0.19062422215938568 -0.29441338777542114 255 127 0
0.8893789052963257 0.24955740571022034 -0.38304847478866577 255 127 0
0.9102622270584106 0.21306046843528748 -0.3550040125846863 255 127 0
0.8559684753417969 0.33282315731048584 -0.3956599235534668 255 127 0
0.7895435690879822 0.4700285494327545 -0.39458078145980835 255 127 0
0.681259036064148 0.6948294639587402 -0.2304304540157318 255 127 0
0.6672338247299194 0.7095293402671814 -0.2266431599855423 255 127 0
0.6106886863708496 0.7582389116287231 -0.22832687199115753 255 127 0
0.5131796002388 0.8578315377235413 0.027781352400779724 255 127 0
0.45637550950050354 0.8897333145141602 -0.00979878194630146 255 127 0
0.4982315003871918 0.8036121726036072 -0.3255347013473511 255 127 0
0.5472046136856079 0.5911478400230408 -0.5925464034080505 255 127 0
0.49197280406951904 0.38106629252433777 -0.7827843427658081 255 127 0
0.40154141187667847 -0.06364366412162781 -0.9136268496513367 255 127 0
0.24206003546714783 -0.2971636950969696 -0.9236345291137695 255 127 0
0.1941085308790207 -0.2798839509487152 -0.9402056932449341 255 127 0
0.1862693428993225 -0.25204965472221375 -0.9496182203292847 255 127 0
0.31862595677375793 -0.21586540341377258 -0.9229732751846313 255 127 0
0.37881290912628174 -0.22876575589179993 -0.8967536091804504 255 127 0
0.32695111632347107 -0.22571420669555664 -0.917690634727478 255 127 0
0.29642415046691895 -0.24176320433616638 -0.9239498376846313 255 127 0
0.24948544800281525 -0.24685700237751007 -0.9363858699798584 255 127 0
0.19440507888793945 -0.24547943472862244 -0.9497087001800537 255 127 0
0.175921231508255 -0.09063517302274704 -0.9802229404449463 255 127 0
0.12737944722175598 0.09693972021341324 -0.9871054887771606 255 127 0
0.1110711544752121 0.04778634011745453 -0.9926629066467285 255 127 0
0.20825542509555817 0.056492533534765244 -0.9764416217803955 255 127 0
0.2552844285964966 -0.08177972584962845 -0.9634012579917908 255 127 0
0.2539873719215393 -0.244449645280838 -0.9358070492744446 255 127 0
0.2294648140668869 -0.33565831184387207 -0.9136078357696533 255 127 0
0.13007378578186035 -0.3333929777145386 -0.9337718486785889 255 127 0
0.1184920147061348 -0.3073347210884094 -0.9441954493522644 255 127 0
0.15769998729228973 -0.2672185003757477 -0.9506444931030273 255 127 0
0.2228420078754425 -0.2798860967159271 -0.933812141418457 255 127 0
0.26233750581741333 -0.20666784048080444 -0.9425855278968811 255 127 0
0.30562007427215576 -0.25141841173171997 -0.9183599948883057 255 127 0
0.32362425327301025 -0.25064706802368164 -0.9123833775520325 255 127 0
0.35957521200180054 -0.3366720378398895 -0.8702629804611206 255 127 0
0.3600813150405884 -0.4053512215614319 -0.8402569890022278 255 127 0
0.3234388530254364 -0.40882596373558044 -0.8533748388290405 255 127 0
0.27891048789024353 -0.43976613879203796 -0.853706419467926 255 127 0
0.29822519421577454 -0.4622611999511719 -0.8350905776023865 255 127 0
0.2873501181602478 -0.4395020604133606 -0.8510392308235168 255 127 0
0.30550822615623474 -0.39972057938575745 -0.8642269372940063 255 127 0
0.30156925320625305 -0.3729013204574585 -0.8774967789649963 255 127 0
0.38760221004486084 -0.3391644060611725 -0.8571651577949524 255 127 0
0.3633139133453369 -0.32607823610305786 -0.8727405071258545 255 127 0
0.32265064120292664 -0.28935232758522034 -0.9012057781219482 255 127 0
0.3726305067539215 -0.35664796829223633 -0.8567081093788147 255 127 0
0.42773470282554626 -0.4274243414402008 -0.7964618802070618 255 127 0
0.5423323512077332 -0.46432745456695557 -0.7001968622207642 255 127 0
0.6337880492210388 -0.5218366980552673 -0.5709633827209473 255 127 0
0.7612589001655579 -0.5703721642494202 -0.3084808588027954 255 127 0
0.7919760346412659 -0.5483735203742981 -0.26844069361686707 255 127 0
0.7805677652359009 -0.56988924741745 -0.25678837299346924 255 127 0
0.809332549571991 -0.5342950820922852 -0.24394579231739044 255 127 0
0.9162673354148865 -0.38022956252098083 -0.12601420283317566 255 127 0
0.9298257827758789 -0.33515965938568115 -0.15196092426776886 255 127 0
0.9371930360794067 -0.3458496630191803 -0.045356910675764084 255 127 0
0.9337332248687744 -0.35738521814346313 -0.020448220893740654 255 127 0
0.9461734890937805 -0.32323068380355835 0.01666123792529106 255 127 0
0.9455567002296448 -0.3206070065498352 0.05597972869873047 255 127 0
0.9402715563774109 -0.3078853487968445 0.14524433016777039 255 127 0
0.9531610608100891 -0.26792648434638977 0.14035475254058838 255 127 0
0.9620190858840942 -0.23909173905849457 0.13173599541187286 255 127 0
0.9731392860412598 -0.016469372436404228 0.22962750494480133 255 127 0
0.8930190205574036 -0.0012137118028476834 0.4500173330307007 255 127 0
0.812648355960846 0.09772568196058273 0.5745019316673279 255 127 0
0.7752537131309509 0.042025741189718246 0.6302503943443298 255 127 0
0.7880988121032715 -0.06291096657514572 0.6123255491256714 255 127 0
0.7575547695159912 0.043964844197034836 0.6512894034385681 255 127 0
0.7367222309112549 0.05965472757816315 0.6735589504241943 255 127 0
0.7714677453041077 0.1214929074048996 0.6245614290237427 255 127 0
0.8034757375717163 0.13600362837314606 0.5795944333076477 255 127 0
0.856797993183136 0.20769542455673218 0.4719744324684143 255 127 0
0.8894209265708923 0.26791006326675415 0.37034401297569275 255 127 0
0.917019248008728 0.2601601183414459 0.30231186747550964 255 127 0
0.9332016706466675 0.12812215089797974 0.33573681116104126 255 127 0
0.8995961546897888 -0.19163376092910767 0.39243263006210327 255 127 0
0.8887465596199036 -0.3067516088485718 0.3406362533569336 255 127 0
0.853256344795227 -0.48913586139678955 0.180830717086792 255 127 0
0.6326446533203125 -0.7723936438560486 -0.05629146844148636 255 127 0
0.6046572923660278 -0.787470281124115 -0.11949943006038666 255 127 0
0.5933757424354553 -0.8028441667556763 -0.057848501950502396 255 127 0
0.6152635216712952 -0.7812637090682983 0.10525107383728027 255 127 0
0.6903046369552612 -0.5751594305038452 0.43894317746162415 255 127 0
0.689801812171936 -0.4854767918586731 0.5371086001396179 255 127 0
0.6666704416275024 -0.5680802464485168 0.4825302064418793 255 127 0
0.8070749044418335 -0.5537315607070923 0.20496715605258942 255 127 0
0.866067111492157 -0.4870552122592926 0.11271624267101288 255 127 0
0.856981635093689 -0.3741832375526428 -0.3543577790260315 255 127 0
0.8407553434371948 -0.27617645263671875 -0.4656791090965271 255 127 0
0.852277934551239 -0.35398638248443604 -0.38511815667152405 255 127 0
0.805805504322052 -0.3898653984069824 -0.4457382261753082 255 127 0
0.8290790915489197 -0.4045252501964569 -0.38598859310150146 255 127 0
0.7540969252586365 -0.6122588515281677 -0.23764881491661072 255 127 0
0.7431501746177673 -0.6657378077507019 -0.06723817437887192 255 127 0
0.8024774193763733 -0.5788204669952393 -0.144903302192688 255 127 0
0.8308057188987732 -0.5551499724388123 0.03962890803813934 255 127 0
0.8167600631713867 -0.5207165479660034 0.24851036071777344 255 127 0
0.9306716322898865 -0.35025033354759216 0.10571245849132538 255 127 0
0.8408529758453369 -0.5316451191902161 0.10158643126487732 255 127 0
0.7731649875640869 -0.6274549961090088 0.09228283166885376 255 127 0
0.8054817318916321 -0.5209288597106934 -0.28254610300064087 255 127 0
0.9217509627342224 -0.26390182971954346 -0.2841320037841797 255 127 0
0.8638144135475159 0.15169943869113922 -0.4804289638996124 255 127 0
0.5035053491592407 -0.29556041955947876 -0.8118659853935242 255 127 0
0.5037459135055542 -0.4965859353542328 -0.7068539261817932 255 127 0
0.47098079323768616 -0.08966872841119766 -0.8775742650032043 255 127 0
0.5502811074256897 -0.19364649057388306 -0.8122141361236572 255 127 0
0.5894669890403748 -0.2881368398666382 -0.7546560764312744 255 127 0
0.627124547958374 -0.29324886202812195 -0.7216092944145203 255 127 0
0.7549868822097778 -0.27848002314567566 -0.593669593334198 255 127 0
0.7137177586555481 -0.3512722849845886 -0.6059824228286743 255 127 0
0.5329175591468811 -0.37845534086227417 -0.7568159699440002 255 127 0
0.40947484970092773 -0.6080559492111206 -0.680145800113678 255 127 0
0.43371203541755676 -0.6595677733421326 -0.6138927340507507 255 127 0
0.641683042049408 -0.25186875462532043 -0.7244343161582947 255 127 0
0.601959764957428 -0.30711832642555237 -0.7371043562889099 255 127 0
0.682209849357605 -0.4981910288333893 -0.5351593494415283 255 127 0
0.6704351305961609 -0.5037367939949036 -0.5447623133659363 255 127 0
0.5435523986816406 -0.7549672722816467 -0.36684495210647583 255 127 0
0.6125390529632568 -0.7715061902999878 -0.17197133600711823 255 127 0
0.8538640737533569 -0.5162721872329712 -0.06617388129234314 255 127 0
0.9278470873832703 -0.3714531362056732 -0.033502232283353806 255 127 0
0.9750833511352539 -0.2169482558965683 0.04632343724370003 255 127 0
0.9150084853172302 -0.20772817730903625 0.3458445966243744 255 127 0
0.9222612380981445 -0.03773733973503113 0.38472074270248413 255 127 0
0.9897677302360535 0.13880153000354767 0.0330757200717926 255 127 0
0.9082320928573608 -0.36350563168525696 0.20731182396411896 255 127 0
0.827447772026062 -0.5610592365264893 0.023296233266592026 255 127 0
0.9937120676040649 -0.099217489361763 -0.05188581347465515 255 127 0
0.26359492540359497 -0.849006175994873 -0.45793697237968445 255 127 0
0.07529544085264206 -0.8574836850166321 -0.5089718103408813 255 127 0
-0.136715367436409 -0.7331984639167786 -0.6661297082901001 255 127 0
-0.465067595243454 -0.5407458543777466 -0.7009322643280029 255 127 0
-0.4326867461204529 -0.6232354640960693 -0.6514289975166321 255 127 0
-0.46715691685676575 -0.48393070697784424 -0.7399834990501404 255 127 0
-0.45224645733833313 -0.1573036015033722 -0.8779115676879883 255 127 0
-0.3399008810520172 0.13777923583984375 -0.9303140640258789 255 127 0
-0.4073374271392822 -0.14897505939006805 -0.9010453224182129 255 127 0
-0.17060226202011108 -0.2799627482891083 -0.9447304606437683 255 127 0
-0.0191203486174345 -0.2545997202396393 -0.9668574929237366 255 127 0
0.00551137188449502 -0.09118733555078506 -0.9958184957504272 255 127 0
-0.07698341459035873 0.038604967296123505 -0.9962846636772156 255 127 0
-0.2940197288990021 -0.08206865191459656 -0.9522694945335388 255 127 0
-0.20564819872379303 -0.0402577668428421 -0.9777975678443909 255 127 0
-0.16619117558002472 0.017932884395122528 -0.9859304428100586 255 127 0
-0.1933761090040207 -0.08159282058477402 -0.9777261018753052 255 127 0
-0.29574325680732727 -0.20501792430877686 -0.9330078363418579 255 127 0
-0.17427575588226318 -0.40193286538124084 -0.8989315032958984 255 127 0
-0.18067893385887146 -0.4543200731277466 -0.8723235726356506 255 127 0
-0.14408905804157257 -0.2547900080680847 -0.9562010169029236 255 127 0
-0.2192385494709015 -0.263548880815506 -0.9394021034240723 255 127 0
-0.17317962646484375 -0.346380352973938 -0.9219704866409302 255 127 0
-0.14803221821784973 -0.38497811555862427 -0.9109765887260437 255 127 0
-0.14580613374710083 -0.3465140759944916 -0.9266437888145447 255 127 0
-0.07025285810232162 -0.34429657459259033 -0.9362288117408752 255 127 0
-0.0179181806743145 -0.4543430507183075 -0.8906465768814087 255 127 0
-0.18482357263565063 -0.5294016003608704 -0.8279940485954285 255 127 0
-0.15916308760643005 -0.5612307786941528 -0.8122112154960632 255 127 0
-0.1764463633298874 -0.39679595828056335 -0.9007883667945862 255 127 0
-0.22307926416397095 -0.39930370450019836 -0.8892649412155151 255 127 0
-0.2517455816268921 -0.4898549020290375 -0.8346653580665588 255 127 0
-0.33498719334602356 -0.4779925048351288 -0.8119770288467407 255 127 0
-0.3661167025566101 -0.5043354630470276 -0.7820513248443604 255 127 0
-0.4291245639324188 -0.5200014710426331 -0.7385463118553162 255 127 0
-0.4405887722969055 -0.4520414173603058 -0.775590181350708 255 127 0
-0.44961655139923096 -0.4281005859375 -0.7839482426643372 255 127 0
-0.48514631390571594 -0.4261491298675537 -0.7635639905929565 255 127 0
-0.4146724343299866 -0.40369105339050293 -0.8155245780944824 255 127 0
-0.406334787607193 -0.31672394275665283 -0.8570752143859863 255 127 0
-0.3334371745586395 -0.2901850640773773 -0.8970018029212952 255 127 0
-0.3061560392379761 -0.17597100138664246 -0.9355760812759399 255 127 0
-0.19965720176696777 -0.25000783801078796 -0.9474350214004517 255 127 0
-0.13768748939037323 -0.3981153666973114 -0.9069434404373169 255 127 0
-0.12456697225570679 -0.4739166796207428 -0.8717144727706909 255 127 0
-0.1625979095697403 -0.45563504099845886 -0.8751906156539917 255 127 0
-0.26494455337524414 -0.41699355840682983 -0.8694370985031128 255 127 0
-0.16873183846473694 -0.5254285335540771 -0.8339390754699707 255 127 0
-0.17907682061195374 -0.4940245747566223 -0.8508062362670898 255 127 0
-0.07316737622022629 -0.4726935625076294 -0.8781841397285461 255 127 0
0.07916641980409622 -0.2258162498474121 -0.970947802066803 255 127 0
-0.07099346071481705 -3.097519220318645e-05 -0.9974767565727234 255 127 0
-0.2421761155128479 -0.021821843460202217 -0.9699869155883789 255 127 0
-0.2527410686016083 -0.07252897322177887 -0.9648116230964661 255 127 0
-0.42955783009529114 -0.039986465126276016 -0.9021536707878113 255 127 0
-0.43466252088546753 -0.1572045236825943 -0.8867667317390442 255 127 0
-0.43762171268463135 -0.020239099860191345 -0.8989313244819641 255 127 0
-0.33279716968536377 0.051517535001039505 -0.9415901303291321 255 127 0
-0.33639487624168396 0.2608932554721832 -0.9048608541488647 255 127 0
-0.3153194487094879 0.15215115249156952 -0.936708927154541 255 127 0
-0.3700410723686218 0.30764448642730713 -0.8765982389450073 255 127 0
-0.3288773000240326 0.21879519522190094 -0.9186775088310242 255 127 0
-0.39700859785079956 0.21443620324134827 -0.8924131989479065 255 127 0
-0.38384273648262024 -0.1638420969247818 -0.908746600151062 255 127 0
-0.44091472029685974 -0.20008279383182526 -0.8749634623527527 255 127 0
-0.30752402544021606 -0.2585304379463196 -0.9157461524009705 255 127 0
-0.3332814574241638 -0.25558289885520935 -0.9075245261192322 255 127 0
-0.13908463716506958 -0.23097339272499084 -0.9629676342010498 255 127 0
-0.0986597090959549 -0.00035324637428857386 -0.9951211214065552 255 127 0
-0.19501005113124847 -0.27322128415107727 -0.941977322101593 255 127 0
-0.3194214105606079 -0.39599356055259705 -0.8609060049057007 255 127 0
-0.2230747938156128 -0.228149875998497 -0.9477263689041138 255 127 0
-0.3127012252807617 -0.537460446357727 -0.7831693887710571 255 127 0
-0.2902035713195801 -0.7190236449241638 -0.6314957141876221 255 127 0
-0.15072037279605865 -0.5983195900917053 -0.7869542837142944 255 127 0
-0.05620371550321579 -0.4915908873081207 -0.8690106272697449 255 127 0
-0.02031806670129299 -0.5351933240890503 -0.8444851636886597 255 127 0
0.12270894646644592 -0.5594033598899841 -0.8197624087333679 255 127 0
-0.03811139985918999 -0.6601924300193787 -0.7501290440559387 255 127 0
-0.07260163873434067 -0.6467766761779785 -0.7592160105705261 255 127 0
-0.02991010807454586 -0.6769465208053589 -0.7354242205619812 255 127 0
-0.0364064946770668 -0.6799379587173462 -0.7323653101921082 255 127 0
0.006423947401344776 -0.7170450091362 -0.696997344493866 255 127 0
-0.018058648332953453 -0.6912422180175781 -0.7223974466323853 255 127 0
-0.0018021810101345181 -0.7374328970909119 -0.6754180788993835 255 127 0
0.03759988397359848 -0.7896073460578918 -0.6124593615531921 255 127 0
-0.04704780876636505 -0.7762190699577332 -0.6287054419517517 255 127 0
-0.07945429533720016 -0.7303765416145325 -0.6784078478813171 255 127 0
-0.1383981853723526 -0.7362619638442993 -0.6623928546905518 255 127 0
-0.11737187951803207 -0.6586105823516846 -0.7432737946510315 255 127 0
-0.1487508863210678 -0.6673645377159119 -0.7297243475914001 255 127 0
-0.1556936651468277 -0.680182933807373 -0.7163174748420715 255 127 0
-0.17583665251731873 -0.6895561814308167 -0.7025622725486755 255 127 0
-0.16906554996967316 -0.7114757299423218 -0.6820696592330933 255 127 0
-0.15178994834423065 -0.7038040161132812 -0.6939881443977356 255 127 0
-0.15242190659046173 -0.7267870903015137 -0.6697373986244202 255 127 0
-0.14641603827476501 -0.7235090732574463 -0.6746087670326233 255 127 0
-0.19294798374176025 -0.7084500789642334 -0.6788736581802368 255 127 0
-0.18098843097686768 -0.7349653244018555 -0.6535052061080933 255 127 0
-0.15638992190361023 -0.7162764072418213 -0.6800664067268372 255 127 0
-0.0904795303940773 -0.7224300503730774 -0.6854985952377319 255 127 0
-0.04892652854323387 -0.7810982465744019 -0.6224883794784546 255 127 0
0.05187965929508209 -0.7854588627815247 -0.6167356967926025 255 127 0
0.15395978093147278 -0.77737957239151 -0.6098995208740234 255 127 0
0.14669013023376465 -0.812626838684082 -0.5640209317207336 255 127 0
0.13576021790504456 -0.827543318271637 -0.5447395443916321 255 127 0
0.10650352388620377 -0.8290112614631653 -0.5489967465400696 255 127 0
0.12531612813472748 -0.8406507968902588 -0.526879608631134 255 127 0
0.16467583179473877 -0.8592899441719055 -0.48425477743148804 255 127 0
0.09326984733343124 -0.9055484533309937 -0.41386306285858154 255 127 0
0.12165838479995728 -0.9174409508705139 -0.37881579995155334 255 127 0
0.15495353937149048 -0.8989861011505127 -0.40965041518211365 255 127 0
0.12535883486270905 -0.9052063822746277 -0.4060623347759247 255 127 0
0.10844511538743973 -0.8803380727767944 -0.4617840051651001 255 127 0
0.1829044073820114 -0.8419659733772278 -0.5075818300247192 255 127 0
0.31386199593544006 -0.7962926626205444 -0.517115592956543 255 127 0
0.34157660603523254 -0.7889044880867004 -0.5108376741409302 255 127 0
0.4027743637561798 -0.788823664188385 -0.46425220370292664 255 127 0
0.525749921798706 -0.7413438558578491 -0.4171285629272461 255 127 0
0.6634491086006165 -0.6562561392784119 -0.3593926429748535 255 127 0
0.8475586175918579 -0.49545514583587646 -0.19018076360225677 255 127 0
0.9596057534217834 -0.2705400884151459 -0.07723148167133331 255 127 0
0.9849079251289368 0.1541430652141571 0.07871594280004501 255 127 0
0.8877314329147339 0.40072131156921387 0.2266170233488083 255 127 0
0.7584678530693054 0.595618724822998 0.2645089626312256 255 127 0
0.7132320404052734 0.6637697815895081 0.2251882553100586 255 127 0
0.6444820165634155 0.7306687235832214 0.2253136932849884 255 127 0
0.6170215606689453 0.7613535523414612 0.19906072318553925 255 127 0
0.6452591419219971 0.7494877576828003 0.14801602065563202 255 127 0
0.722481906414032 0.6845434308052063 0.09705715626478195 255 127 0
0.8002792000770569 0.5853122472763062 0.13024106621742249 255 127 0
0.89092618227005 0.4201711416244507 0.17235682904720306 255 127 0
0.8993189930915833 0.41999757289886475 0.121767558157444 255 127 0
0.9000108242034912 0.4263401925563812 0.09063448756933212 255 127 0
0.9061070084571838 0.4193632900714874 0.055718038231134415 255 127 0
0.9323983192443848 0.3598425090312958 -0.03386375308036804 255 127 0
0.9227921962738037 0.3546264171600342 -0.1506471037864685 255 127 0
0.8981135487556458 0.3862084746360779 -0.21032102406024933 255 127 0
0.8110874891281128 0.4111728072166443 -0.4160216152667999 255 127 0
0.8071596026420593 0.16635723412036896 -0.5664085745811462 255 127 0
0.8544288873672485 0.011981174349784851 -0.5194302201271057 255 127 0
0.8397333025932312 0.28881070017814636 -0.4598221182823181 255 127 0
0.5241992473602295 0.7675462961196899 -0.3689008355140686 255 127 0
0.074502132833004 0.787488579750061 -0.6118097901344299 255 127 0
0.026975402608513832 0.3622543215751648 -0.9316888451576233 255 127 0
0.380702406167984 -0.23109319806098938 -0.8953556418418884 255 127 0
0.468455046415329 -0.12425835430622101 -0.8747054934501648 255 127 0
0.33455690741539 0.308965265750885 -0.8902876973152161 255 127 0
0.719879150390625 0.2510128617286682 -0.6471217274665833 255 127 0
0.49828729033470154 0.2014097422361374 -0.8432934880256653 255 127 0
0.4688900113105774 0.6405800580978394 -0.6081112027168274 255 127 0
0.5211133360862732 0.6213945150375366 -0.58507239818573 255 127 0
0.34469127655029297 0.7547248005867004 -0.5581920146942139 255 127 0
0.557827353477478 0.6235489845275879 -0.5477365255355835 255 127 0
0.7494551539421082 -0.1692604124546051 -0.6400529742240906 255 127 0
0.3387278616428375 -0.6691937446594238 -0.6613948345184326 255 127 0
0.4458211660385132 -0.7238855361938477 -0.5265294313430786 255 127 0
-0.010081792250275612 -0.8190217018127441 -0.5736739635467529 255 127 0
0.3568284809589386 -0.7270354628562927 -0.5865943431854248 255 127 0
0.39211609959602356 -0.7149720788002014 -0.5788435339927673 255 127 0
0.06685234606266022 -0.8669697642326355 -0.4938565492630005 255 127 0
0.16241393983364105 -0.6492547988891602 -0.7430275678634644 255 127 0
0.032962407916784286 -0.7215468883514404 -0.6915804743766785 255 127 0
0.31753861904144287 -0.4986500144004822 -0.8065465688705444 255 127 0
0.6509857177734375 -0.5756413340568542 -0.49482792615890503 255 127 0
0.9002134203910828 -0.37199878692626953 -0.2263464331626892 255 127 0
0.9383876919746399 -0.2630777955055237 -0.22409528493881226 255 127 0
0.9273870587348938 -0.30365532636642456 -0.21851012110710144 255 127 0
0.6914849281311035 -0.6786308288574219 -0.2476063221693039 255 127 0
0.8626211285591125 -0.4275553524494171 -0.27033522725105286 255 127 0
0.27410271763801575 -0.7730525135993958 -0.5720643401145935 255 127 0
-0.2411128431558609 -0.7973286509513855 -0.5532914400100708 255 127 0
-0.16220267117023468 -0.7157703042030334 -0.6792372465133667 255 127 0
-0.37870267033576965 -0.6760506629943848 -0.6320915818214417 255 127 0
-0.043584953993558884 -0.48343175649642944 -0.8742963075637817 255 127 0
0.1032501608133316 -0.42620494961738586 -0.898715078830719 255 127 0
0.5306454300880432 -0.5550974607467651 -0.6405327916145325 255 127 0
0.7478997111320496 -0.5396553874015808 -0.38654637336730957 255 127 0
0.7376978397369385 -0.6428119540214539 -0.20638462901115417 255 127 0
0.7086929082870483 -0.6971173882484436 -0.10854343324899673 255 127 0
0.679547131061554 -0.7335656881332397 0.009858855977654457 255 127 0
0.704852819442749 -0.7038105726242065 0.08850546181201935 255 127 0
0.6700727939605713 -0.7407723069190979 0.04752761125564575 255 127 0
0.7212964296340942 -0.6917000412940979 0.035811956971883774 255 127 0
0.7195185422897339 -0.694188117980957 0.019898585975170135 255 127 0
0.7064532041549683 -0.707587718963623 0.01560898032039404 255 127 0
0.6955074667930603 -0.7177373766899109 0.03350349888205528 255 127 0
0.6812071204185486 -0.7309260964393616 0.041277576237916946 255 127 0
0.6757187247276306 -0.7351427674293518 0.05449073016643524 255 127 0
0.7082678079605103 -0.686911404132843 0.162817120552063 255 127 0
0.681304395198822 -0.6830371618270874 0.26321953535079956 255 127 0
0.7434782981872559 -0.5713358521461487 0.3475850224494934 255 127 0
0.8186721205711365 -0.5019378662109375 0.2789880335330963 255 127 0
0.7991732954978943 -0.5388796925544739 0.26632821559906006 255 127 0
0.7768012285232544 -0.5821030139923096 0.24028298258781433 255 127 0
0.6428015232086182 -0.5803181529045105 0.5000370144844055 255 127 0
0.7305706143379211 -0.30570217967033386 0.6105839610099792 255 127 0
0.7327902317047119 0.09693443775177002 0.673514723777771 255 127 0
0.7389610409736633 0.22411760687828064 0.6353800892829895 255 127 0
0.6812999248504639 0.3886626958847046 0.6202996969223022 255 127 0
0.7626100182533264 0.3516906499862671 0.5428993105888367 255 127 0
0.7870975136756897 0.3577108681201935 0.5025140643119812 255 127 0
0.7344652414321899 0.32450923323631287 0.5960323214530945 255 127 0
0.7165905237197876 0.20768795907497406 0.6658556461334229 255 127 0
0.5375912189483643 0.1552697718143463 0.8287864327430725 255 127 0
0.5125071406364441 0.3421876132488251 0.7875558137893677 255 127 0
0.5021694898605347 0.4270314872264862 0.7519773244857788 255 127 0
0.5357305407524109 0.4218915104866028 0.7314372062683105 255 127 0
0.538573682308197 0.49516454339027405 0.6817260980606079 255 127 0
0.5005286335945129 0.4936225712299347 0.7112017273902893 255 127 0
0.4853917062282562 0.5715476274490356 0.6616103649139404 255 127 0
0.4692428410053253 0.5996492505073547 0.6482530236244202 255 127 0
0.5927598476409912 0.6036387085914612 0.5331566333770752 255 127 0
0.6709113121032715 0.5961324572563171 0.44102609157562256 255 127 0
0.7165906429290771 0.5390483140945435 0.44263386726379395 255 127 0
0.7874804139137268 0.2636648714542389 0.5570955276489258 255 127 0
0.7193856239318848 0.17962150275707245 0.6709847450256348 255 127 0
0.5536772012710571 0.15260817110538483 0.818628191947937 255 127 0
0.4344758987426758 0.3471015393733978 0.8311144113540649 255 127 0
0.4510643184185028 0.3800313174724579 0.8075377345085144 255 127 0
0.47833237051963806 0.4414421021938324 0.7591620683670044 255 127 0
0.47576209902763367 0.38810086250305176 0.7893213629722595 255 127 0
0.48651009798049927 0.13521288335323334 0.86314857006073 255 127 0
0.17383497953414917 -0.11995773762464523 0.9774412512779236 255 127 0
-0.06058456003665924 -0.2295065075159073 0.9714196920394897 255 127 0
0.20982626080513 0.1846587210893631 0.9601427912712097 255 127 0
0.3384034335613251 0.07077986001968384 0.9383354187011719 255 127 0
0.4053080081939697 -0.012165585532784462 0.9140992760658264 255 127 0
0.29683178663253784 0.0250382199883461 0.9546014666557312 255 127 0
0.3531171679496765 0.29650765657424927 0.887350857257843 255 127 0
0.2525954842567444 0.31216683983802795 0.9158315062522888 255 127 0
0.14769324660301208 0.29613858461380005 0.9436570405960083 255 127 0
0.1527876853942871 0.41320857405662537 0.8977274894714355 255 127 0
0.04292779415845871 0.2268618941307068 0.9729803800582886 255 127 0
0.06490225344896317 -0.09987925738096237 0.9928805828094482 255 127 0
0.07061600685119629 -0.4136958420276642 0.9076724052429199 255 127 0
-0.0185556560754776 -0.4624519646167755 0.8864502310752869 255 127 0
-0.0393393412232399 -0.4345952272415161 0.8997662663459778 255 127 0
0.19320747256278992 -0.27057111263275146 0.9431130290031433 255 127 0
0.316626638174057 -0.22434765100479126 0.9216374754905701 255 127 0
0.2902317941188812 -0.14333990216255188 0.9461602568626404 255 127 0
0.21775512397289276 -0.16645722091197968 0.9617040157318115 255 127 0
0.06635480374097824 -0.18144604563713074 0.9811596870422363 255 127 0
-0.06818912923336029 -0.35452160239219666 0.9325581789016724 255 127 0
-0.15674179792404175 -0.47741758823394775 0.864583432674408 255 127 0
-0.18514274060726166 -0.5021762847900391 0.8447136878967285 255 127 0
-0.07567603141069412 -0.5560250878334045 0.8277133107185364 255 127 0
-0.07412867248058319 -0.4402569532394409 0.8948065042495728 255 127 0
0.11847677081823349 -0.24646829068660736 0.9618817567825317 255 127 0
0.07686319202184677 -0.14953678846359253 0.9857640862464905 255 127 0
0.0642777532339096 -0.003934734500944614 0.9979243278503418 255 127 0
0.19159284234046936 -0.05164271965622902 0.9801148772239685 255 127 0
0.18785320222377777 -0.04860854521393776 0.9809935092926025 255 127 0
0.19860778748989105 -0.15570145845413208 0.9676321744918823 255 127 0
0.1520199328660965 -0.2895923852920532 0.9450005888938904 255 127 0
0.17662250995635986 -0.4399402439594269 0.880486786365509 255 127 0
