ply
format ascii 1.0
element vertex 679
property float x
property float y
property float z
property uchar red
property uchar green
property uchar blue
end_header
-0.6180039644241333 -0.10979039967060089 -0.7784709930419922 208 77 115
-0.6264234185218811 -0.10612693428993225 -0.7722246050834656 208 77 115
-0.6171565651893616 -0.10583988577127457 -0.7796894907951355 204 72 118
-0.60969078540802 -0.11114761978387833 -0.7848078012466431 207 75 116
-0.6181676387786865 -0.0632716715335846 -0.7834956049919128 207 75 116
-0.6124382615089417 -0.07296624034643173 -0.7871437072753906 208 77 115
-0.5945109724998474 -0.06670047342777252 -0.8013162612915039 233 114 87
-0.6055604815483093 -0.05774933844804764 -0.793701171875 234 116 85
-0.5849789381027222 -0.09830552339553833 -0.8050687909126282 234 115 86
-0.5900877118110657 -0.09334293007850647 -0.8019249439239502 230 109 90
-0.5711473226547241 -0.08227139711380005 -0.8167142271995544 232 112 89
-0.5759449601173401 -0.13585327565670013 -0.8061211705207825 205 73 117
-0.5717929601669312 -0.10654401779174805 -0.8134502172470093 224 100 97
-0.5738802552223206 -0.07831229269504547 -0.8151862621307373 222 96 100
-0.6017860174179077 -0.10731860995292664 -0.7914141416549683 231 110 90
-0.6117978692054749 -0.08843542635440826 -0.7860550284385681 230 109 90
-0.6067429780960083 -0.1141083687543869 -0.7866653203964233 229 108 91
-0.6280041933059692 -0.1423398107290268 -0.7650817632675171 232 113 88
-0.6312680244445801 -0.12256098538637161 -0.7658194303512573 233 114 87
-0.6460385322570801 -0.1389622539281845 -0.7505489587783813 237 123 81
-0.6485437750816345 -0.1288348138332367 -0.7501949667930603 194 61 128
-0.6608656644821167 -0.10035937279462814 -0.74376380443573 192 59 129
-0.6781230568885803 -0.1195991113781929 -0.7251518964767456 229 108 91
-0.7030811309814453 -0.11885416507720947 -0.7011067271232605 230 109 90
-0.7148826122283936 -0.09271614253520966 -0.6930703520774841 237 123 81
-0.7248185873031616 -0.12493856251239777 -0.6775162220001221 194 61 128
-0.7312988638877869 -0.10643783956766129 -0.6737009882926941 240 128 77
-0.7565330266952515 -0.09789787977933884 -0.6465862989425659 240 128 77
-0.7413544654846191 -0.09153874218463898 -0.6648414731025696 239 126 78
-0.7550025582313538 -0.11136332899332047 -0.6461961269378662 238 124 80
-0.7471703290939331 -0.12619967758655548 -0.6525412201881409 237 123 81
-0.717693030834198 -0.14563003182411194 -0.6809614896774292 234 116 85
-0.6983593702316284 -0.1619238704442978 -0.6971906423568726 204 72 118
-0.6852560043334961 -0.14648687839508057 -0.7134183049201965 187 53 134
-0.7093925476074219 -0.15847048163414001 -0.6867672801017761 230 109 90
-0.7087746262550354 -0.15435177087783813 -0.6883415579795837 238 124 80
-0.6837251782417297 -0.19062776863574982 -0.7044011354446411 240 128 77
-0.6833913326263428 -0.15273505449295044 -0.7138964533805847 210 80 112
-0.666245698928833 -0.16876010596752167 -0.7263860702514648 239 125 79
-0.6719645261764526 -0.20080453157424927 -0.7128402590751648 240 128 77
-0.674151599407196 -0.16099652647972107 -0.7208327054977417 242 132 75
-0.6922902464866638 -0.17533186078071594 -0.6999949216842651 244 137 71
-0.7140387892723083 -0.15993084013462067 -0.6815942525863647 241 130 76
-0.7162905335426331 -0.17580272257328033 -0.6752935647964478 240 128 77
-0.7371063232421875 -0.15166528522968292 -0.6585376858711243 242 133 74
-0.7784536480903625 -0.1499936580657959 -0.6095176339149475 240 129 77
-0.8115854263305664 -0.12675021588802338 -0.5703187584877014 239 126 78
-0.8201023936271667 -0.14015544950962067 -0.5547868013381958 237 123 81
-0.8174008131027222 -0.14770092070102692 -0.5568126440048218 242 132 75
-0.82133549451828 -0.1522844135761261 -0.5497429966926575 245 139 70
-0.829248309135437 -0.15407967567443848 -0.5372213125228882 250 157 58
-0.8319091796875 -0.13179562985897064 -0.5390334129333496 226 102 96
-0.8404471278190613 -0.13847824931144714 -0.523901104927063 248 149 64
-0.8331432342529297 -0.1551765650510788 -0.5308414697647095 236 120 83
-0.825579047203064 -0.15652401745319366 -0.5421433448791504 231 110 90
-0.8182851672172546 -0.18125195801258087 -0.5454879999160767 218 90 104
-0.8158262372016907 -0.14896050095558167 -0.5587828755378723 211 81 111
-0.8167392015457153 -0.17409901320934296 -0.5501151084899902 241 130 76
-0.8309252262115479 -0.16834121942520142 -0.5303061604499817 236 119 84
-0.8418141603469849 -0.18815423548221588 -0.5059120059013367 239 125 79
-0.8431684374809265 -0.18408480286598206 -0.505153238773346 236 120 83
-0.8427780866622925 -0.18813368678092957 -0.50431227684021 232 113 88
-0.8468189835548401 -0.19337156414985657 -0.4954846203327179 232 113 88
-0.8582035899162292 -0.1949930489063263 -0.47483089566230774 237 123 81
-0.8702326416969299 -0.17907503247261047 -0.4589414596557617 227 103 95
-0.8755121827125549 -0.188146710395813 -0.4450608491897583 207 75 116
-0.8761415481567383 -0.19244793057441711 -0.4419727027416229 230 109 90
-0.8683990836143494 -0.19543859362602234 -0.45572665333747864 226 102 96
-0.858435332775116 -0.19766739010810852 -0.4733036160469055 231 110 90
-0.8787645101547241 -0.21089057624340057 -0.4281332492828369 238 124 80
-0.8875954151153564 -0.19686797261238098 -0.41643422842025757 241 130 76
-0.8918465971946716 -0.19801262021064758 -0.40669482946395874 240 128 77
-0.8970609903335571 -0.19955956935882568 -0.39428091049194336 243 135 72
-0.9044645428657532 -0.19436560571193695 -0.3796917498111725 235 118 84
-0.8932201862335205 -0.19555936753749847 -0.40486326813697815 221 95 101
-0.8934913277626038 -0.18191009759902954 -0.41058745980262756 211 81 111
-0.8941317200660706 -0.19989974796772003 -0.4007101058959961 231 110 90
-0.889986515045166 -0.2038523554801941 -0.40788254141807556 207 75 116
-0.8989601135253906 -0.19749294221401215 -0.3909825086593628 239 125 79
-0.89874666929245 -0.20215891301631927 -0.3890838027000427 243 134 73
-0.906517505645752 -0.18157026171684265 -0.38112765550613403 245 139 70
-0.909435510635376 -0.19166822731494904 -0.3690396845340729 246 142 68
-0.9139024615287781 -0.19268397986888885 -0.3572887182235718 246 145 66
-0.9035037159919739 -0.2002764344215393 -0.37890681624412537 247 146 65
-0.9024707674980164 -0.1844477355480194 -0.38926267623901367 248 149 64
-0.8973850011825562 -0.21417030692100525 -0.3857865333557129 246 145 66
-0.8889359831809998 -0.22390250861644745 -0.3995755612850189 247 146 65
-0.8896007537841797 -0.21246486902236938 -0.4043132960796356 246 143 67
-0.8935517072677612 -0.21174241602420807 -0.39589205384254456 244 137 71
-0.9062924981117249 -0.22058619558811188 -0.36052125692367554 246 142 68
-0.9158046245574951 -0.2188349813222885 -0.33676877617836 244 138 71
-0.9153278470039368 -0.2081797569990158 -0.3447263240814209 249 153 61
-0.9349007606506348 -0.2044857293367386 -0.29007938504219055 250 156 59
-0.942346453666687 -0.18757176399230957 -0.2771282196044922 250 156 59
-0.9516087174415588 -0.19352766871452332 -0.23872128129005432 249 154 60
-0.9503670334815979 -0.2119493931531906 -0.2277715504169464 250 156 59
-0.9525781273841858 -0.20107506215572357 -0.22839349508285522 249 154 60
-0.9564228057861328 -0.22259609401226044 -0.1889612376689911 250 159 58
-0.9659389853477478 -0.20809856057167053 -0.15380807220935822 250 159 58
-0.9663038849830627 -0.21102584898471832 -0.14739392697811127 248 149 64
-0.9651473760604858 -0.2234053611755371 -0.13631007075309753 245 141 69
-0.9617117643356323 -0.21638578176498413 -0.16818968951702118 245 139 70
-0.9693393707275391 -0.19261109828948975 -0.15258486568927765 243 135 72
-0.9702885746955872 -0.2093362808227539 -0.12131974846124649 244 137 71
-0.971233069896698 -0.1889692097902298 -0.1449030339717865 240 128 77
-0.9668729901313782 -0.21701905131340027 -0.13438518345355988 232 113 88
-0.970300555229187 -0.18705369532108307 -0.1533871591091156 232 113 88
-0.9721933603286743 -0.19783709943294525 -0.12530183792114258 228 106 93
-0.9813461899757385 -0.1650329977273941 -0.09860984236001968 226 102 96
-0.9790635108947754 -0.183054119348526 -0.08902636170387268 220 93 102
-0.9792293906211853 -0.18658702075481415 -0.0793410912156105 218 90 104
-0.974203884601593 -0.19513604044914246 -0.11335233598947525 215 86 108
-0.9726619720458984 -0.19851960241794586 -0.12049362808465958 216 88 106
-0.9725724458694458 -0.18957741558551788 -0.13477057218551636 216 88 106
-0.9729307889938354 -0.17954854667186737 -0.14549243450164795 223 98 98
-0.9760002493858337 -0.177928626537323 -0.12555867433547974 231 110 90
-0.9765599370002747 -0.1779431700706482 -0.12110699713230133 225 101 96
-0.9777200222015381 -0.17097032070159912 -0.1217891201376915 226 102 96
-0.980721652507782 -0.15713946521282196 -0.1161559596657753 214 85 109
-0.9750745296478271 -0.18649841845035553 -0.12020017206668854 193 60 128
-0.9796187281608582 -0.16393636167049408 -0.11606872081756592 194 61 128
-0.9755748510360718 -0.19216668605804443 -0.10642245411872864 187 53 134
-0.974118173122406 -0.19145271182060242 -0.12016504257917404 194 61 128
-0.9648221135139465 -0.22982928156852722 -0.12765884399414062 197 64 125
-0.95937180519104 -0.22878947854042053 -0.16510948538780212 205 73 117
-0.9691262245178223 -0.20949721336364746 -0.13001985847949982 218 90 104
-0.9712604880332947 -0.21941566467285156 -0.09224878251552582 224 100 97
-0.9778383374214172 -0.18130703270435333 -0.1046895682811737 225 101 96
-0.9707340598106384 -0.2282651960849762 -0.07463496178388596 203 71 119
-0.9710865020751953 -0.22829429805278778 -0.06980452686548233 223 98 98
-0.9683495163917542 -0.24169650673866272 -0.06230596825480461 230 109 90
-0.9688745141029358 -0.24246470630168915 -0.049929480999708176 229 107 92
-0.9714753031730652 -0.23115506768226624 -0.05294274911284447 193 60 128
-0.9691207408905029 -0.24154606461524963 -0.049602702260017395 192 59 129
-0.9832570552825928 -0.18179354071617126 0.012517767027020454 203 71 119
-0.9743105173110962 -0.1927107572555542 0.11654001474380493 192 59 129
-0.9776023626327515 -0.18057318031787872 0.108106330037117 194 61 128
-0.9756367802619934 -0.18284142017364502 0.12125185132026672 195 62 127
-0.9704352021217346 -0.2202731966972351 0.09866760671138763 195 62 127
-0.9807600975036621 -0.15585048496723175 0.11756003648042679 202 70 120
-0.9755243062973022 -0.1395062953233719 0.16997162997722626 200 68 122
-0.9537441730499268 -0.18314948678016663 0.23838695883750916 198 65 124
-0.9588873982429504 -0.1867527812719345 0.21367819607257843 196 63 126
-0.9544294476509094 -0.17107540369033813 0.24453552067279816 237 121 82
-0.9280301332473755 -0.2532358467578888 0.2731879949569702 206 74 117
-0.9289122819900513 -0.26578518748283386 0.25783753395080566 209 79 113
-0.9346391558647156 -0.2284802347421646 0.27248191833496094 203 71 119
-0.9443563222885132 -0.23618386685848236 0.22892875969409943 206 74 117
-0.9634547829627991 -0.08360940963029861 0.2544885575771332 234 115 86
-0.9466666579246521 -0.1555875688791275 0.28216081857681274 202 70 120
-0.9512184858322144 -0.0948576033115387 0.29357367753982544 214 85 109
-0.9064474701881409 -0.05284789949655533 0.41899892687797546 205 73 117
-0.8825779557228088 -0.015281856060028076 0.4699177145957947 214 85 109
-0.8980433940887451 -0.14971071481704712 0.4136481285095215 214 85 109
-0.9067224264144897 0.02047235146164894 0.4212305247783661 215 87 107
-0.8360799551010132 0.0930209830403328 0.5406638979911804 208 77 115
-0.8220582008361816 0.032514531165361404 0.5684744715690613 209 79 113
-0.8033903241157532 0.06802945584058762 0.5915539264678955 209 79 113
-0.779711902141571 0.0931096151471138 0.6191768646240234 214 85 109
-0.7392929196357727 0.09813708811998367 0.6661944389343262 218 90 104
-0.7272093296051025 0.04430593550205231 0.6849843263626099 211 81 111
-0.7110836505889893 0.13544395565986633 0.6899383664131165 211 81 111
-0.702660858631134 0.016071030870079994 0.7113433480262756 212 82 110
-0.7771695852279663 0.03831504285335541 0.6281236410140991 209 78 114
-0.7635794878005981 0.03325169160962105 0.6448571085929871 211 81 111
-0.7712374925613403 0.057139184325933456 0.6339778304100037 215 87 107
-0.7104700207710266 0.03375856205821037 0.7029172778129578 215 87 107
-0.7466107606887817 0.04406695067882538 0.663800060749054 218 90 104
-0.7611042261123657 0.08171451836824417 0.6434618234634399 213 83 109
-0.8276592493057251 -0.0119484206661582 0.5611038208007812 217 89 105
-0.821030855178833 -0.01477138977497816 0.570692777633667 218 90 104
-0.8776543736457825 -0.04680439084768295 0.4770033061504364 220 93 102
-0.8962168097496033 -0.08329248428344727 0.43572670221328735 223 98 98
-0.9213239550590515 -0.07934723794460297 0.38061293959617615 227 104 94
-0.927653431892395 -0.1250753551721573 0.35187381505966187 229 108 91
-0.9420318007469177 -0.08254585415124893 0.32521122694015503 229 107 92
-0.9245864748954773 -0.10068674385547638 0.36742621660232544 232 112 89
-0.8887642025947571 -0.07488293945789337 0.45220649242401123 253 181 45
-0.8950207829475403 -0.1274830400943756 0.4274176359176636 237 123 81
-0.9004155397415161 -0.11002542078495026 0.420887291431427 229 107 92
-0.847447395324707 -0.06636224687099457 0.5267152786254883 252 169 52
-0.7992696762084961 -0.02690965123474598 0.6003696918487549 253 181 45
-0.8505462408065796 -0.030851466581225395 0.5249945521354675 232 112 89
-0.8242485523223877 -0.00047273351810872555 0.5662279725074768 253 185 43
-0.7141603827476501 0.09168963879346848 0.693950891494751 252 172 50
-0.7135160565376282 0.06714893132448196 0.6974136829376221 253 175 49
-0.7372925281524658 0.10439393669366837 0.6674590706825256 253 178 47
-0.723704993724823 0.07531317323446274 0.6859875917434692 252 204 37
-0.8232585787773132 0.08227145671844482 0.5616731643676758 248 221 36
-0.8638217449188232 0.05262855067849159 0.5010412335395813 243 238 38
-0.8991851210594177 0.06441538780927658 0.4328013062477112 247 226 37
-0.8935064673423767 0.055648405104875565 0.4455889165401459 252 203 37
-0.9065735340118408 0.05280575901269913 0.4187313914299011 253 179 46
-0.8801225423812866 0.09969423711299896 0.4641609787940979 248 223 36
-0.8724375367164612 0.06814631819725037 0.48395106196403503 251 208 36
-0.8723777532577515 0.048347823321819305 0.48643556237220764 251 209 36
-0.9091547131538391 0.02274872362613678 0.4158368706703186 253 193 40
-0.9111489057540894 0.031094826757907867 0.4109024107456207 253 176 48
-0.9238380193710327 0.023378320038318634 0.3820689618587494 253 176 48
-0.9206925630569458 0.01968010701239109 0.38979217410087585 252 172 50
-0.9387067556381226 0.01907358132302761 0.3441886603832245 252 170 51
-0.9381807446479797 0.02776014432311058 0.3450307846069336 253 175 49
-0.9219719767570496 0.03580004721879959 0.3855983018875122 253 175 49
-0.9286257028579712 0.018435979261994362 0.37055957317352295 253 187 43
-0.9329735040664673 0.0022744019515812397 0.35993778705596924 253 188 42
-0.9475380182266235 0.02989845722913742 0.31824183464050293 252 170 51
-0.9592403769493103 0.02026388607919216 0.2818640172481537 253 192 41
-0.9586580991744995 0.004867444280534983 0.2845188081264496 253 190 41
-0.954383373260498 0.009945061057806015 0.2984183132648468 253 192 41
-0.958970844745636 0.00017818012565840036 0.2835046947002411 253 185 43
-0.9436109662055969 0.01025437843054533 0.33089756965637207 253 175 49
-0.9512947797775269 0.03361375257372856 0.30644458532333374 238 124 80
-0.9337361454963684 0.047436945140361786 0.35480499267578125 253 185 43
-0.9354383945465088 0.038184281438589096 0.351421594619751 242 240 38
-0.9332067966461182 0.019319357350468636 0.3588201403617859 253 187 43
-0.9342147707939148 0.03253128007054329 0.3552245795726776 252 199 38
-0.9282545447349548 0.030187342315912247 0.3707185387611389 252 206 37
-0.9256414771080017 0.03395301476120949 0.3768754005432129 251 211 36
-0.9319902062416077 0.0130536537617445 0.36224815249443054 253 198 38
-0.9421775341033936 0.003504717955365777 0.33509567379951477 253 188 42
-0.9477207660675049 -0.0021023238077759743 0.3190939426422119 253 181 45
-0.9624210596084595 -0.004336075391620398 0.27152714133262634 251 208 36
-0.9685974717140198 0.027510415762662888 0.24710719287395477 253 175 49
-0.9616411924362183 0.023266078904271126 0.27332180738449097 252 203 37
-0.9562801718711853 0.020861713215708733 0.29170718789100647 252 206 37
-0.9561910629272461 0.05466408282518387 0.2875942885875702 252 203 37
-0.9607377648353577 0.04668508842587471 0.27350226044654846 245 231 38
-0.9685835838317871 0.04588373750448227 0.24441874027252197 253 196 39
-0.9633390307426453 0.051919277757406235 0.2632153034210205 253 198 38
-0.9560409784317017 0.06917821615934372 0.2849562466144562 252 203 37
-0.9387134313583374 0.10458775609731674 0.32844874262809753 252 204 37
-0.9197497367858887 0.11040263622999191 0.3766586482524872 253 195 40
-0.8847935199737549 0.12387488782405853 0.44921645522117615 253 192 41
-0.868620753288269 0.16688421368598938 0.4665273129940033 253 192 41
-0.8418378829956055 0.16539934277534485 0.5137627720832825 249 153 61
-0.8137849569320679 0.17650504410266876 0.5537146329879761 252 199 38
-0.8308980464935303 0.1644696593284607 0.5315619707107544 252 201 38
-0.8296471834182739 0.1644970327615738 0.5335038304328918 253 198 38
-0.8400689363479614 0.16766910254955292 0.5159178376197815 253 190 41
-0.835335373878479 0.16574329137802124 0.5241602063179016 253 175 49
-0.8373976349830627 0.16219556331634521 0.5219748020172119 252 172 50
-0.8452268242835999 0.16492678225040436 0.5083215832710266 253 179 46
-0.8245379328727722 0.15568619966506958 0.5439660549163818 253 178 47
-0.8331652879714966 0.184764564037323 0.5212461948394775 253 182 45
-0.8264077305793762 0.17349790036678314 0.5356759428977966 253 187 43
-0.848014771938324 0.1619563102722168 0.5046198964118958 253 192 41
-0.8615917563438416 0.13780468702316284 0.4885382056236267 253 190 41
-0.8602196574211121 0.15079045295715332 0.4871184527873993 253 196 39
-0.8660053610801697 0.1474519520998001 0.47779983282089233 253 184 44
-0.8945422768592834 0.12210329622030258 0.4299824833869934 251 164 54
-0.905241072177887 0.11196395009756088 0.4098811447620392 252 166 53
-0.9172083139419556 0.09983459115028381 0.38569673895835876 250 157 58
-0.9340468645095825 0.09858375787734985 0.3432748019695282 252 169 52
-0.93489009141922 0.0928172618150711 0.34258633852005005 248 149 64
-0.9448652267456055 0.07238239794969559 0.3193594515323639 248 223 36
-0.9485041499137878 0.041524168103933334 0.31403109431266785 248 152 62
-0.9667248725891113 0.024715831503272057 0.25462162494659424 250 157 58
-0.9871968626976013 -0.027620000764727592 0.15709693729877472 253 176 48
-0.9786931276321411 -0.0041694785468280315 0.20528577268123627 253 175 49
-0.9858773946762085 -0.0037288737948983908 0.16742752492427826 253 185 43
-0.9859676957130432 -0.0304409209638834 0.1641373336315155 252 201 38
-0.9893045425415039 -0.007080842275172472 0.1456931233406067 252 201 38
-0.9861323833465576 -0.024902809411287308 0.1640816628932953 252 204 37
-0.9864138960838318 -0.017832404002547264 0.16330838203430176 252 204 37
-0.9792118668556213 -0.024216303601861 0.2013893574476242 252 206 37
-0.9720045924186707 -0.011914826929569244 0.23465916514396667 252 201 38
-0.9793031215667725 -0.02040611207485199 0.20136788487434387 252 201 38
-0.9832806587219238 -0.033152610063552856 0.17905300855636597 251 208 36
-0.985811173915863 -0.032922204583883286 0.16459792852401733 252 203 37
-0.9853954911231995 -0.058860212564468384 0.15978485345840454 252 199 38
-0.9897698163986206 -0.06156788393855095 0.12870553135871887 252 206 37
-0.9870230555534363 -0.07661263644695282 0.14112374186515808 250 213 36
-0.9901590347290039 -0.0616825632750988 0.1256195604801178 250 216 36
-0.9873149991035461 -0.07949274033308029 0.13744060695171356 250 213 36
-0.9861147403717041 -0.08139440417289734 0.1447509527206421 250 213 36
-0.9879738688468933 -0.14013536274433136 0.06534209102392197 247 226 37
-0.9960256218910217 -0.08448952436447144 0.02818557433784008 244 234 38
-0.9894009232521057 -0.0993155911564827 0.10593470185995102 244 234 38
-0.9920846819877625 -0.07182800024747849 0.10299869626760483 242 240 38
-0.9901423454284668 -0.10899794846773148 0.0879637748003006 239 248 33
-0.9886138439178467 -0.10242666304111481 0.11023406684398651 250 216 36
-0.9892780780792236 -0.10820911824703217 0.09808050096035004 250 216 36
-0.9887324571609497 -0.11645433306694031 0.09405595809221268 248 221 36
-0.9875226616859436 -0.09099289774894714 0.12852728366851807 251 211 36
-0.990716278553009 -0.08098779618740082 0.10918895155191422 252 203 37
-0.9911183714866638 -0.11073104292154312 0.07364062964916229 252 201 38
-0.9910334944725037 -0.06992737203836441 0.11385443806648254 252 201 38
-0.9864495992660522 -0.09338413923978806 0.13489468395709991 252 204 37
-0.9832329750061035 -0.07983078807592392 0.16395097970962524 252 204 37
-0.9782277941703796 -0.04956250265240669 0.20152904093265533 252 204 37
-0.9782452583312988 -0.04985646903514862 0.20137163996696472 252 204 37
-0.9781068563461304 -0.051257140934467316 0.2016921490430832 253 198 38
-0.9792316555976868 -0.06673842668533325 0.19144538044929504 251 209 36
-0.9814013838768005 -0.08879067003726959 0.1701984852552414 251 209 36
-0.9861211776733398 -0.0802561566233635 0.1453409194946289 251 209 36
-0.9851727485656738 -0.09656059741973877 0.1418123096227646 247 224 36
-0.9857943654060364 -0.10191665589809418 0.1335008591413498 247 224 36
-0.9892210364341736 -0.0919681116938591 0.11394591629505157 245 233 38
-0.9906988143920898 -0.08750603348016739 0.10420387983322144 245 233 38
-0.987247884273529 -0.09642545133829117 0.12666431069374084 248 221 36
-0.984442412853241 -0.08847831934690475 0.15180474519729614 252 206 37
-0.9857622981071472 -0.09590385109186172 0.13811300694942474 250 216 36
-0.9953063130378723 -0.08127060532569885 0.05253969132900238 250 216 36
-0.9942073822021484 0.06814011186361313 0.08311746269464493 249 217 36
-0.6112496852874756 -0.5064470171928406 0.608181893825531 191 57 130
-0.8037763833999634 -0.035353951156139374 0.5938801765441895 190 56 131
0.35132354497909546 0.1781647503376007 0.9191458821296692 189 55 132
-0.5567579865455627 0.10175277292728424 0.8244191408157349 188 54 133
-0.3117174506187439 0.2296149730682373 0.9220137000083923 237 121 82
-0.23550920188426971 0.047570791095495224 0.9707072377204895 236 120 83
-0.5544694066047668 0.15532228350639343 0.8175809979438782 234 116 85
-0.559184193611145 0.07648090273141861 0.8255081176757812 233 114 87
-0.48226937651634216 0.09342874586582184 0.8710265755653381 234 115 86
-0.4410306513309479 0.11232563108205795 0.8904352784156799 234 116 85
-0.39577534794807434 0.16457761824131012 0.903480052947998 239 126 78
-0.36808454990386963 0.1294695883989334 0.920734167098999 240 128 77
-0.2934381663799286 0.1540249139070511 0.9434884190559387 243 134 73
-0.2888282239437103 0.17933596670627594 0.9404343366622925 240 129 77
-0.25664710998535156 0.1772715002298355 0.9501090049743652 240 128 77
-0.2680969536304474 0.18177254498004913 0.9460881352424622 239 126 78
-0.2922708988189697 0.18874001502990723 0.9375259876251221 234 115 86
-0.3628447353839874 0.18974536657333374 0.9123269319534302 229 107 92
-0.3168317377567291 0.1937597393989563 0.9284798502922058 222 96 100
-0.30212992429733276 0.1561606526374817 0.9403889179229736 224 100 97
-0.27169060707092285 0.1716507226228714 0.9469531178474426 230 109 90
-0.25592249631881714 0.21900957822799683 0.9415616989135742 232 112 89
-0.2534237802028656 0.17640143632888794 0.9511355757713318 232 112 89
-0.23361945152282715 0.22160309553146362 0.946738600730896 231 110 90
-0.2933494448661804 0.20160731673240662 0.9345055222511292 230 109 90
-0.28668323159217834 0.2017529010772705 0.9365406632423401 221 95 101
-0.2617546021938324 0.21725615859031677 0.9403639435768127 220 93 102
-0.31450992822647095 0.1995876133441925 0.9280346632003784 219 91 103
-0.3008710741996765 0.235760897397995 0.9240635633468628 222 96 100
-0.3565637469291687 0.18724189698696136 0.9153156876564026 234 115 86
-0.30226337909698486 0.14236508309841156 0.9425333142280579 233 114 87
-0.27892807126045227 0.14812840521335602 0.9488188624382019 231 110 90
-0.27784264087677 0.10923855006694794 0.9543952941894531 234 116 85
-0.32808053493499756 0.14175379276275635 0.9339534044265747 234 116 85
-0.36837315559387207 0.12272237241268158 0.9215424060821533 239 126 78
-0.34917783737182617 0.14632222056388855 0.9255618453025818 242 132 75
-0.3235923647880554 0.15985135734081268 0.9325960874557495 242 132 75
-0.3862709403038025 0.14709921181201935 0.9105803370475769 234 116 85
-0.3643961548805237 0.14677153527736664 0.9196050763130188 231 110 90
-0.34186288714408875 0.14279869198799133 0.9288370609283447 228 106 93
-0.3542249798774719 0.14478811621665955 0.9238836765289307 222 96 100
-0.3173871338367462 0.14550994336605072 0.9370657801628113 217 89 105
-0.32721245288848877 0.1598128229379654 0.9313386678695679 213 83 109
-0.28419947624206543 0.1953938901424408 0.9386436343193054 211 81 111
-0.3166355490684509 0.17504426836967468 0.9322561025619507 211 81 111
-0.30791181325912476 0.1701650321483612 0.936073899269104 210 80 112
-0.27293410897254944 0.18868465721607208 0.9433478116989136 219 91 103
-0.23347878456115723 0.15367141366004944 0.9601420164108276 227 103 95
-0.1665886789560318 0.20701630413532257 0.9640499949455261 230 109 90
-0.15838581323623657 0.1591348648071289 0.9744691848754883 236 119 84
-0.17888742685317993 0.2444307655096054 0.9530230164527893 238 124 80
-0.21956835687160492 0.19002510607242584 0.9569118022918701 240 128 77
-0.18403950333595276 0.23521257936954498 0.954360842704773 239 126 78
-0.18037757277488708 0.18893378973007202 0.9652813076972961 237 121 82
-0.13323017954826355 0.2211509793996811 0.9660962224006653 232 113 88
-0.14792588353157043 0.19928407669067383 0.9687123894691467 233 114 87
-0.11033228039741516 0.21461696922779083 0.9704464673995972 236 120 83
-0.11090166121721268 0.20195059478282928 0.9730965495109558 252 206 37
-0.1710275411605835 0.21333423256874084 0.9618929624557495 253 182 45
-0.17015932500362396 0.21472038328647614 0.9617385268211365 243 134 73
-0.2096436321735382 0.20761175453662872 0.955482542514801 253 179 46
-0.21429456770420074 0.23435960710048676 0.9482370615005493 252 170 51
-0.20293958485126495 0.20563939213752747 0.957354724407196 227 103 95
-0.1629742830991745 0.24359242618083954 0.9560868740081787 220 93 102
-0.08397556096315384 0.2754034996032715 0.9576539397239685 224 100 97
-0.031000753864645958 0.3437312841415405 0.9385562539100647 230 109 90
0.05652442201972008 0.35319849848747253 0.9338393807411194 234 115 86
0.06694873422384262 0.37520715594291687 0.9245200753211975 230 109 90
0.09692458063364029 0.3617030382156372 0.9272413849830627 227 103 95
0.151952862739563 0.412627249956131 0.8981364965438843 228 106 93
0.08922531455755234 0.4279709458351135 0.8993774056434631 227 104 94
0.08499470353126526 0.3945850729942322 0.9149199724197388 227 103 95
0.1152927577495575 0.36400917172431946 0.9242320656776428 223 97 99
0.16351716220378876 0.3406541049480438 0.9258601069450378 224 100 97
0.1901811957359314 0.3413033187389374 0.9205123782157898 223 98 98
0.15962322056293488 0.290504515171051 0.9434657096862793 226 102 96
0.1088789775967598 0.277389794588089 0.9545681476593018 226 102 96
0.07502042502164841 0.26309454441070557 0.961848795413971 227 104 94
0.04333426058292389 0.28671032190322876 0.9570367336273193 228 106 93
0.0187324658036232 0.2683620750904083 0.9631359577178955 233 114 87
0.0340547077357769 0.2614839971065521 0.9646068215370178 237 121 82
0.03325534984469414 0.2215941846370697 0.9745717644691467 240 129 77
-0.015221758745610714 0.2196664661169052 0.9754562973976135 242 132 75
-0.03932017832994461 0.23195227980613708 0.9719321131706238 237 123 81
-0.07506711781024933 0.22289949655532837 0.9719468951225281 238 124 80
-0.1367586851119995 0.1862345039844513 0.9729408025741577 242 132 75
-0.20726865530014038 0.1862867921590805 0.9603837132453918 239 126 78
-0.17053882777690887 0.20486900210380554 0.9638180136680603 239 126 78
-0.15916091203689575 0.2005425989627838 0.9666697382926941 242 132 75
-0.20155099034309387 0.17242619395256042 0.9641817808151245 243 134 73
-0.23262333869934082 0.16049011051654816 0.9592337608337402 245 141 69
-0.22284264862537384 0.13893812894821167 0.9649027585983276 239 248 33
-0.2041148841381073 0.10470213741064072 0.9733316898345947 246 145 66
-0.204081192612648 0.1394260972738266 0.9689742922782898 248 150 63
-0.20517881214618683 0.1043432429432869 0.9731464385986328 240 128 77
-0.23624059557914734 0.15690338611602783 0.9589430093765259 244 138 71
-0.27925294637680054 0.14861208200454712 0.9486474990844727 239 126 78
-0.21277591586112976 0.13536810874938965 0.9676786065101624 231 110 90
-0.19345727562904358 0.21538078784942627 0.9571757912635803 234 115 86
-0.22457623481750488 0.2532465159893036 0.9409737586975098 237 123 81
-0.07211509346961975 0.2872835099697113 0.9551270008087158 238 124 80
-0.24067451059818268 0.46268266439437866 0.8532294631004333 240 128 77
-0.3360826373100281 0.43271735310554504 0.8365429639816284 241 130 76
-0.43946364521980286 0.4977665841579437 0.7477299571037292 239 125 79
-0.5672011971473694 0.4510287642478943 0.6890977621078491 239 126 78
-0.5806427001953125 0.39342668652534485 0.7127899527549744 234 115 86
-0.47404351830482483 0.3519366979598999 0.8071079850196838 230 109 90
-0.4074172079563141 0.35006555914878845 0.8434839844703674 223 97 99
-0.1897639036178589 0.4751969575881958 0.859172523021698 213 83 109
-0.18475671112537384 0.24331100285053253 0.9521894454956055 212 82 110
-0.24159274995326996 0.16835355758666992 0.9556620717048645 209 78 114
-0.2325282096862793 0.21419042348861694 0.9487113356590271 196 63 126
-0.2177160680294037 0.29959532618522644 0.9288930296897888 194 61 128
-0.24882309138774872 0.3357068598270416 0.9085085988044739 199 66 123
-0.24935747683048248 0.22666065394878387 0.9415125250816345 197 64 125
-0.24322742223739624 0.24920912086963654 0.9374087452888489 193 60 128
-0.1682834029197693 0.28746160864830017 0.9428926110267639 186 52 135
-0.2157566249370575 0.3832050561904907 0.8981108069419861 181 46 140
-0.2612006664276123 0.15719954669475555 0.9523983001708984 184 50 137
-0.3920261561870575 0.1876676380634308 0.9006088972091675 182 47 139
-0.4454038441181183 0.1635390967130661 0.8802672028541565 150 18 160
-0.47766047716140747 0.1861942857503891 0.8585872650146484 143 13 163
-0.4603847563266754 0.13531653583049774 0.8773455619812012 136 7 165
-0.3517621159553528 0.09434284269809723 0.9313231706619263 149 17 161
-0.2873338460922241 0.10977751761674881 0.9515187740325928 144 14 163
-0.3630370497703552 0.07676906138658524 0.9286068081855774 136 7 165
-0.2694132924079895 0.17804720997810364 0.9464225172996521 127 3 167
-0.3693060874938965 0.12011896073818207 0.9215120673179626 123 2 168
-0.40150752663612366 0.21975962817668915 0.8890992403030396 120 1 168
-0.40319913625717163 0.1826237440109253 0.8967045545578003 51 4 151
-0.265169620513916 0.30931195616722107 0.9132421612739563 118 1 168
-0.4238797724246979 0.209215447306633 0.8812234997749329 121 1 168
-0.46288204193115234 0.13383997976779938 0.8762573599815369 143 13 163
-0.5244746804237366 0.11120417714118958 0.8441326022148132 130 4 167
-0.6678518652915955 0.19591696560382843 0.7180463075637817 142 12 164
-0.6783686876296997 0.08186116069555283 0.7301469445228577 147 16 161
-0.664481520652771 0.13891424238681793 0.7342799305915833 124 2 167
-0.6584686040878296 0.07218965888023376 0.7491380572319031 120 1 168
-0.7160720229148865 0.08460108190774918 0.6928806304931641 123 2 168
-0.7691389322280884 0.10573150962591171 0.6302746534347534 114 0 168
-0.7727226614952087 0.07486162334680557 0.6303138136863708 109 0 168
-0.7702826261520386 0.027305535972118378 0.6371178030967712 103 0 167
-0.7945992350578308 0.03620661422610283 0.6060537695884705 109 0 168
-0.8266406059265137 0.0587475523352623 0.5596552491188049 104 0 167
-0.815160870552063 0.03845270350575447 0.5779569149017334 95 0 166
-0.7933186292648315 0.0383739247918129 0.6075961589813232 101 0 167
-0.7665846943855286 0.013307083398103714 0.642005205154419 100 0 167
-0.747909665107727 0.08503226935863495 0.6583316326141357 108 0 168
-0.7953224182128906 0.039747204631567 0.604882001876831 90 0 165
-0.8195231556892395 0.010974771343171597 0.5729408860206604 100 0 167
-0.8036820292472839 0.005387759301811457 0.5950345396995544 104 0 167
-0.8086252212524414 -0.050592876970767975 0.586144745349884 100 0 167
-0.7449337840080261 -0.09402044862508774 0.6604798436164856 98 0 166
-0.768269956111908 -0.07118301093578339 0.6361557841300964 109 0 168
-0.8178396224975586 -0.07431749254465103 0.5706270933151245 112 0 168
-0.8086951971054077 -0.0657959133386612 0.584536612033844 114 0 168
-0.8004115223884583 -0.07512764632701874 0.5947244763374329 114 0 168
-0.7287936806678772 -0.10389155894517899 0.6768059730529785 106 0 167
-0.6494988203048706 -0.09981100261211395 0.7537831664085388 94 0 165
-0.5950772166252136 -0.2116418480873108 0.7753005027770996 86 1 163
-0.6002969145774841 -0.1473049819469452 0.786094605922699 94 0 165
-0.631631076335907 -0.19876651465892792 0.7493557333946228 94 0 165
-0.571600079536438 -0.13420407474040985 0.8094829320907593 94 0 165
-0.6465370059013367 -0.1384570300579071 0.750213086605072 101 0 167
-0.5500891208648682 -0.12545301020145416 0.8256291151046753 103 0 167
-0.6252362728118896 -0.16396942734718323 0.7630161046981812 111 0 168
-0.6621879935264587 -0.26688337326049805 0.7002002596855164 120 1 168
-0.636528730392456 -0.37934383749961853 0.6715128421783447 120 1 168
-0.7271007895469666 -0.3889182507991791 0.5657445788383484 123 2 168
-0.8318994641304016 -0.39504146575927734 0.3897249102592468 124 2 167
-0.8054882287979126 -0.42424148321151733 0.41377291083335876 129 4 167
-0.8103952407836914 -0.38862717151641846 0.43843865394592285 136 7 165
-0.8313645720481873 -0.3469269275665283 0.4341367483139038 130 4 167
-0.8103111982345581 -0.3606913089752197 0.4618414640426636 124 2 167
-0.8454234600067139 -0.29573604464530945 0.44474634528160095 126 3 167
-0.823998749256134 -0.3068472445011139 0.4763094484806061 129 4 167
-0.8027990460395813 -0.32301899790763855 0.5011709332466125 126 3 167
-0.7952700853347778 -0.3963911533355713 0.4587150514125824 118 1 168
-0.8218572735786438 -0.4658786952495575 0.32788339257240295 120 1 168
-0.8164699673652649 -0.45506879687309265 0.3553719222545624 126 3 167
-0.8427387475967407 -0.41425400972366333 0.3437805771827698 134 7 166
-0.8225602507591248 -0.4685223698616028 0.32230645418167114 132 5 166
-0.8180848360061646 -0.5043988227844238 0.27625909447669983 130 4 167
-0.8283709287643433 -0.49750906229019165 0.25746169686317444 133 6 166
-0.8399274945259094 -0.4943386912345886 0.22394447028636932 132 5 166
-0.8377895951271057 -0.5111145377159119 0.19201692938804626 129 4 167
-0.7563208341598511 -0.6011833548545837 0.2579871416091919 133 6 166
-0.7943781018257141 -0.5623405575752258 0.22964443266391754 134 7 166
-0.8089800477027893 -0.547393262386322 0.21427087485790253 137 8 165
-0.8305841684341431 -0.5382846593856812 0.14275702834129333 143 13 163
-0.819789469242096 -0.5344347953796387 0.20572948455810547 142 12 164
-0.8637903928756714 -0.49487218260765076 0.09469746798276901 142 12 164
-0.8096774816513062 -0.5558321475982666 0.18834276497364044 144 14 163
-0.7774896025657654 -0.5975041389465332 0.19621099531650543 139 9 164
-0.7559803128242493 -0.6095917224884033 0.2385200411081314 136 7 165
-0.6865174174308777 -0.6662260890007019 0.29126736521720886 139 9 164
-0.672735869884491 -0.6652957201004028 0.32374078035354614 139 9 164
-0.6470012664794922 -0.7426450252532959 0.1728227436542511 137 8 165
-0.4984092116355896 -0.8226146697998047 0.27366647124290466 137 8 165
-0.5978869199752808 -0.7770327925682068 0.19685323536396027 134 7 166
-0.44422003626823425 -0.8640847206115723 0.23669837415218353 139 9 164
-0.2506960332393646 -0.9137672781944275 0.31965750455856323 142 12 164
-0.14880980551242828 -0.9535195231437683 0.26202327013015747 143 13 163
-0.09075173735618591 -0.9935082197189331 0.06859647482633591 140 10 164
-0.2570081651210785 -0.9660767316818237 0.025349687784910202 133 6 166
0.008497068658471107 -0.9949079751968384 0.10042848438024521 136 7 165
0.07370512932538986 -0.9965194463729858 0.0389428548514843 142 12 164
0.2374209463596344 -0.9709717035293579 -0.02907382883131504 142 12 164
0.033744096755981445 -0.9845147132873535 -0.17202362418174744 142 12 164
0.1367267221212387 -0.9817234873771667 -0.13238151371479034 140 10 164
-0.05114368349313736 -0.9809104204177856 -0.1876140534877777 136 7 165
-0.1441231518983841 -0.9563896656036377 -0.2540615200996399 121 1 168
-0.1851053684949875 -0.9174239039421082 -0.35223469138145447 121 1 168
-0.2941257357597351 -0.8727238774299622 -0.3896704614162445 104 0 167
-0.3675912320613861 -0.8804813027381897 -0.2993817925453186 97 0 166
-0.4450821876525879 -0.8824031949043274 -0.1525331288576126 100 0 167
-0.44992589950561523 -0.8666894435882568 -0.215443953871727 86 1 163
-0.5409266352653503 -0.7940572500228882 -0.27725711464881897 31 5 142
-0.6023730635643005 -0.7812966704368591 -0.16346928477287292 74 2 160
-0.7888215184211731 -0.5958126783370972 -0.15089058876037598 54 4 152
-0.7694253325462341 -0.6076292991638184 -0.19690434634685516 243 236 38
-0.8004359006881714 -0.5993950963020325 -0.005272379610687494 249 219 36
-0.8840204477310181 -0.4658297002315521 0.03886529803276062 31 5 142
-0.9092040061950684 -0.39132875204086304 0.14216165244579315 252 201 38
-0.830366849899292 -0.5139226913452148 0.21534700691699982 247 224 36
-0.855083167552948 -0.5117127299308777 0.08356371521949768 239 248 33
-0.8005348443984985 -0.5685984492301941 0.18931375443935394 246 228 37
-0.9075719118118286 -0.41690367460250854 0.05004492029547691 19 6 137
-0.7570670247077942 -0.631972074508667 0.16571302711963654 16 7 135
-0.747707188129425 -0.6539041996002197 0.11551355570554733 242 241 38
-0.7028597593307495 -0.709711492061615 0.0479341521859169 19 6 137
-0.7281562089920044 -0.6854078769683838 -0.002149827079847455 27 6 140
-0.7666728496551514 -0.6410316228866577 0.035932525992393494 12 7 134
-0.6882320046424866 -0.7254871726036072 -0.0022257885430008173 241 243 38
-0.6486972570419312 -0.7546326518058777 -0.09859755635261536 21 6 138
-0.7008624076843262 -0.713075578212738 -0.017750496044754982 19 6 137
-0.6436309218406677 -0.7271266579627991 0.23880143463611603 240 246 35
-0.5695140361785889 -0.8212619423866272 0.034389518201351166 242 241 38
-0.5844935178756714 -0.8113977313041687 0.0009934849804267287 242 241 38
-0.6866245269775391 -0.7264434695243835 0.028750823810696602 243 236 38
-0.6948476433753967 -0.708695650100708 0.12221752107143402 245 233 38
-0.4470647871494293 -0.8821656107902527 0.1480434536933899 245 233 38
-0.38532185554504395 -0.9190496206283569 -0.08291405439376831 245 233 38
-0.3420713245868683 -0.9393823742866516 0.023409994319081306 244 234 38
-0.21638351678848267 -0.9607933163642883 -0.17336203157901764 244 234 38
-0.14560773968696594 -0.9504286050796509 -0.27474308013916016 244 234 38
-0.10868652164936066 -0.9059877395629883 -0.4091131091117859 245 233 38
-0.14554664492607117 -0.9029669165611267 -0.4043102562427521 243 238 38
-0.06503529846668243 -0.8834187984466553 -0.46404919028282166 243 238 38
-0.15908145904541016 -0.7960355281829834 -0.5839695930480957 242 241 38
-0.01139556709676981 -0.894717276096344 -0.44648751616477966 242 241 38
0.10339060425758362 -0.9235540628433228 -0.36926722526550293 239 248 33
0.1394444704055786 -0.9352428317070007 -0.325386106967926 31 5 142
0.1364743858575821 -0.8952487707138062 -0.42415139079093933 54 4 152
0.11618050187826157 -0.9204491972923279 -0.3731961250305176 64 3 156
-0.10389471799135208 -0.9358143210411072 -0.33683446049690247 81 1 162
-0.22908711433410645 -0.8796106576919556 -0.41689831018447876 81 1 162
-0.31573256850242615 -0.7925357818603516 -0.5217278599739075 82 1 163
-0.12337763607501984 -0.9288967847824097 -0.34918302297592163 81 1 162
0.2996578514575958 -0.9141710996627808 -0.2729402482509613 78 2 161
0.4678068161010742 -0.8350812196731567 -0.28947561979293823 74 2 160
0.4845448136329651 -0.8329218029975891 -0.26731565594673157 64 3 156
0.5174242258071899 -0.8262619376182556 -0.22262820601463318 54 4 152
0.4279724061489105 -0.814630925655365 -0.3914283812046051 39 5 146
0.5653589963912964 -0.726320743560791 -0.39093148708343506 31 5 142
0.442521870136261 -0.7156758904457092 -0.5403540134429932 21 6 138
0.4560352563858032 -0.8169001340866089 -0.35313737392425537 16 7 135
0.3727227449417114 -0.8016110062599182 -0.46743711829185486 239 248 33
0.4626420736312866 -0.8038305640220642 -0.3739234507083893 242 241 38
0.36813870072364807 -0.8208574652671814 -0.4366542100906372 246 229 37
0.22360916435718536 -0.818359375 -0.5294210910797119 247 224 36
0.3064514398574829 -0.8184697031974792 -0.4859989583492279 252 203 37
0.2942248582839966 -0.8802993893623352 -0.37216219305992126 252 199 38
0.18823692202568054 -0.8921431303024292 -0.4106671214103699 252 204 37
0.23519818484783173 -0.8288928270339966 -0.5075612664222717 252 206 37
0.24090547859668732 -0.8230940103530884 -0.5142769813537598 250 216 36
0.1769903153181076 -0.8567332029342651 -0.48444071412086487 248 221 36
0.13898350298404694 -0.8339959979057312 -0.5339796543121338 251 208 36
0.15584126114845276 -0.7598970532417297 -0.6310864090919495 251 209 36
0.15214207768440247 -0.7758440375328064 -0.6123061776161194 251 208 36
0.12783007323741913 -0.8683227896690369 -0.4792441427707672 250 213 36
0.18646065890789032 -0.9059067368507385 -0.3802174925804138 249 219 36
0.0927620604634285 -0.920630931854248 -0.3792544901371002 252 206 37
-0.14193660020828247 -0.9078243970870972 -0.394599586725235 247 226 37
-0.3111937344074249 -0.838754415512085 -0.44682154059410095 249 219 36
-0.30704230070114136 -0.8584216237068176 -0.41089823842048645 246 228 37
-0.27130112051963806 -0.8852216005325317 -0.3778603672981262 252 203 37
-0.25562313199043274 -0.8637061715126038 -0.4343598186969757 252 204 37
-0.21325236558914185 -0.8729671835899353 -0.4386931359767914 252 204 37
-0.36522218585014343 -0.7804490327835083 -0.5074564218521118 250 213 36
-0.38009482622146606 -0.7902917265892029 -0.48059016466140747 251 209 36
-0.307012677192688 -0.7854416370391846 -0.5374240875244141 250 216 36
-0.42652761936187744 -0.7029793858528137 -0.56911700963974 245 233 38
-0.3640855848789215 -0.7173749208450317 -0.5939822793006897 244 234 38
-0.2616189420223236 -0.72539222240448 -0.6366801857948303 245 233 38
-0.1023065447807312 -0.8507457971572876 -0.5155240893363953 240 245 37
-0.077726349234581 -0.8397207856178284 -0.5374268889427185 240 245 37
0.36515963077545166 -0.903396725654602 -0.2247951477766037 95 0 166
0.5091332793235779 -0.853620707988739 0.1100676953792572 95 0 166
0.8728205561637878 -0.48260509967803955 0.07263960689306259 98 0 166
0.8956415057182312 -0.440265417098999 -0.0631868988275528 103 0 167
0.9465034604072571 -0.3141613304615021 -0.07371458411216736 101 0 167
0.9155699014663696 -0.36955973505973816 -0.15861035883426666 98 0 166
0.9435029029846191 -0.3225155770778656 -0.07606571167707443 86 1 163
0.9284592270851135 -0.36849913001060486 -0.046603504568338394 84 1 163
0.9000218510627747 -0.43564286828041077 0.013264447450637817 81 1 162
0.9112161993980408 -0.401877760887146 0.09044023603200912 82 1 163
0.8873931765556335 -0.4579888582229614 0.05272143706679344 86 1 163
0.9162789583206177 -0.39712825417518616 0.052173446863889694 86 1 163
0.8667792081832886 -0.4957895576953888 0.05372806265950203 89 1 164
0.8816226720809937 -0.43276822566986084 0.18829011917114258 84 1 163
0.8860793113708496 -0.4132397770881653 0.2099911868572235 86 1 163
0.8678210973739624 -0.48364484310150146 0.11390461027622223 92 0 165
0.8953052163124084 -0.32850542664527893 0.3008534014225006 92 0 165
0.7166574597358704 -0.5640605688095093 0.41016802191734314 81 1 162
0.8105236291885376 -0.35266441106796265 0.4676314890384674 76 2 161
0.7804755568504333 -0.310968279838562 0.5423620939254761 73 2 159
0.8122081160545349 -0.25627368688583374 0.5240627527236938 51 4 151
0.9062210321426392 -0.18158464133739471 0.38182520866394043 56 4 153
0.9129114151000977 -0.19354665279388428 0.3593500256538391 54 4 152
0.9224515557289124 -0.07360267639160156 0.379032701253891 58 4 154
0.9205165505409241 -0.017616620287299156 0.39030614495277405 51 4 151
0.8688685297966003 0.013402391225099564 0.49486130475997925 59 3 154
0.8801006078720093 -0.002494065323844552 0.474780797958374 59 3 154
0.8330476880073547 0.03789376839995384 0.5519018173217773 54 4 152
0.7486988306045532 0.03931087628006935 0.661743700504303 35 5 144
0.7323550581932068 0.14587804675102234 0.6651132106781006 43 5 148
0.6506673097610474 0.22637873888015747 0.7248342633247375 43 5 148
0.7021591067314148 0.1504998356103897 0.6959326863288879 16 7 135
0.7624085545539856 0.13782872259616852 0.632247269153595 244 234 38
0.7991689443588257 0.1153768002986908 0.5899297595024109 252 199 38
0.7807630896568298 0.14708887040615082 0.6072676181793213 253 190 41
0.7698834538459778 0.15210753679275513 0.6197925209999084 253 185 43
0.7664031982421875 0.15945079922676086 0.6222552061080933 253 179 46
0.7315807938575745 0.19153879582881927 0.6542953848838806 252 172 50
0.7173556089401245 0.20291364192962646 0.6665036082267761 253 178 47
0.6963527202606201 0.21648575365543365 0.684270977973938 253 185 43
0.6707931160926819 0.22117763757705688 0.7078961133956909 252 204 37
0.6291311383247375 0.25508931279182434 0.7342503666877747 251 209 36
0.6278713345527649 0.2401849329471588 0.740330159664154 251 209 36
0.6331797242164612 0.21899670362472534 0.7423772215843201 251 209 36
0.6592829823493958 0.27981624007225037 0.6978887915611267 249 219 36
0.686035692691803 0.23122675716876984 0.6898472905158997 243 236 38
0.7124240398406982 0.30085518956184387 0.6339858770370483 252 204 37
0.7265295386314392 0.2246270328760147 0.649382472038269 252 201 38
0.7607160806655884 0.21944448351860046 0.6108643412590027 253 187 43
0.7404050827026367 0.2222805619239807 0.6343434453010559 253 187 43
0.6842369437217712 0.24774028360843658 0.6858896613121033 253 193 40
0.6768585443496704 0.2926922142505646 0.6754211783409119 253 187 43
0.6054143905639648 0.336904376745224 0.7210886478424072 253 184 44
0.6048461198806763 0.25788402557373047 0.753430187702179 253 187 43
0.7216646075248718 0.22971946001052856 0.6530154943466187 253 188 42
0.8081777095794678 0.18925072252750397 0.5577032566070557 253 188 42
0.8443109393119812 0.2012016773223877 0.49664562940597534 253 185 43
0.8714383840560913 0.18072845041751862 0.455996036529541 253 196 39
0.8917766213417053 0.17535315454006195 0.4171160161495209 252 199 38
0.8636573553085327 0.16936784982681274 0.474774032831192 251 208 36
0.8404479622840881 0.20648401975631714 0.5010106563568115 252 199 38
0.8490405678749084 0.19597628712654114 0.49063578248023987 253 192 41
0.8810301423072815 0.15509408712387085 0.4469134211540222 253 181 45
0.9066454768180847 0.15447042882442474 0.39259782433509827 253 179 46
0.8922460079193115 0.16779541969299316 0.41921576857566833 253 178 47
0.8783957362174988 0.1321748048067093 0.45929375290870667 251 163 55
0.8821735382080078 0.13025934994220734 0.45255106687545776 252 169 52
0.8810800909996033 0.12844109535217285 0.45519301295280457 250 160 57
0.8682372570037842 0.11435046046972275 0.4827919602394104 252 169 52
0.8624715209007263 0.13533303141593933 0.48767584562301636 253 176 48
0.859424352645874 0.13921935856342316 0.4919428825378418 253 182 45
0.856389582157135 0.09299768507480621 0.5078861713409424 252 199 38
0.7865389585494995 0.23318225145339966 0.5718239545822144 252 206 37
0.7347210645675659 0.22063952684402466 0.6414850950241089 251 209 36
0.7074629068374634 0.2678811848163605 0.6540152430534363 253 182 45
0.6955113410949707 0.2721339762210846 0.6649866104125977 253 182 45
0.6926072835922241 0.28693050146102905 0.6617900133132935 253 198 38
0.6952200531959534 0.2962037920951843 0.6549293398857117 253 187 43
