ply
format ascii 1.0
element vertex 692
property float x
property float y
property float z
property uchar red
property uchar green
property uchar blue
end_header
-0.8162752389907837 -0.3480951488018036 0.46100372076034546 255 127 0
-0.8181958794593811 -0.2900759279727936 0.49639856815338135 255 127 0
-0.8060683012008667 -0.2698613405227661 0.5267149806022644 255 127 0
-0.8156648278236389 -0.2816166877746582 0.505354106426239 255 127 0
-0.8215457797050476 -0.27301648259162903 0.5005242228507996 255 127 0
-0.7939416170120239 -0.23687471449375153 0.5599527955055237 255 127 0
-0.8067454099655151 -0.19557973742485046 0.5575932264328003 255 127 0
-0.8203251361846924 -0.18524885177612305 0.5410633087158203 255 127 0
-0.8110432624816895 -0.1622283011674881 0.562041699886322 255 127 0
-0.8002251982688904 -0.16236503422260284 0.5773016810417175 255 127 0
-0.8066569566726685 -0.16649925708770752 0.5670824646949768 255 127 0
-0.8188999891281128 -0.18622249364852905 0.5428849458694458 255 127 0
-0.8427398800849915 -0.16733580827713013 0.5116524696350098 255 127 0
-0.819472074508667 -0.1567116677761078 0.5512775778770447 255 127 0
-0.8446582555770874 -0.13791625201702118 0.5172345042228699 255 127 0
-0.8566129803657532 -0.16075874865055084 0.4902763068675995 255 127 0
-0.8567949533462524 -0.1503124237060547 0.4932631552219391 255 127 0
-0.8404451012611389 -0.1041049063205719 0.531802773475647 255 127 0
-0.8321947455406189 -0.10523097962141037 0.5444064140319824 255 127 0
-0.829508364200592 -0.12506382167339325 0.5443115234375 255 127 0
-0.8083503246307373 -0.12414156645536423 0.5754638910293579 255 127 0
-0.8190679550170898 -0.1393216997385025 0.5565223097801208 255 127 0
-0.807051420211792 -0.13154645264148712 0.575641930103302 255 127 0
-0.8035072684288025 -0.15170376002788544 0.5756406188011169 255 127 0
-0.7973796129226685 -0.14857132732868195 0.5849038362503052 255 127 0
-0.7980225086212158 -0.1439507007598877 0.5851823687553406 255 127 0
-0.8010455369949341 -0.13548612594604492 0.5830690860748291 255 127 0
-0.8000845313072205 -0.12355208396911621 0.587026059627533 255 127 0
-0.8013340830802917 -0.14830176532268524 0.5795431733131409 255 127 0
-0.7979375720024109 -0.12016668170690536 0.5906400680541992 255 127 0
-0.8165930509567261 -0.09550493210554123 0.5692579746246338 255 127 0
-0.8038085103034973 -0.09827840328216553 0.5867139101028442 255 127 0
-0.8284405469894409 -0.10579833388328552 0.549993634223938 255 127 0
-0.8127267956733704 -0.14840303361415863 0.5634285807609558 255 127 0
-0.8007100224494934 -0.1448531597852707 0.5812753438949585 255 127 0
-0.7946797609329224 -0.18300428986549377 0.5787860751152039 255 127 0
-0.8028566837310791 -0.23489707708358765 0.5479456782341003 255 127 0
-0.803231954574585 -0.2714814245700836 0.5302039980888367 255 127 0
-0.8110111951828003 -0.30992215871810913 0.49619463086128235 255 127 0
-0.817932665348053 -0.3342377841472626 0.46826407313346863 255 127 0
-0.8002926707267761 -0.3602098226547241 0.47935426235198975 255 127 0
-0.7916607856750488 -0.3413999676704407 0.5066747069358826 255 127 0
-0.816145122051239 -0.3207777738571167 0.4806337356567383 255 127 0
-0.7996159791946411 -0.31078410148620605 0.513836145401001 255 127 0
-0.8094964027404785 -0.29133331775665283 0.5097454190254211 255 127 0
-0.8188116550445557 -0.29708391427993774 0.4912113845348358 255 127 0
-0.8076877593994141 -0.3176625072956085 0.4967203438282013 255 127 0
-0.8057547807693481 -0.31701749563217163 0.5002591609954834 255 127 0
-0.8105440139770508 -0.3143717348575592 0.4941546618938446 255 127 0
-0.8103916049003601 -0.3352472484111786 0.48049426078796387 255 127 0
-0.8054112195968628 -0.34159180521965027 0.48438388109207153 255 127 0
-0.8016799092292786 -0.3359346091747284 0.4944261610507965 255 127 0
-0.7934598922729492 -0.3374549150466919 0.5065031051635742 255 127 0
-0.8135542273521423 -0.31507086753845215 0.48873284459114075 255 127 0
-0.7980707287788391 -0.3265247941017151 0.5064233541488647 255 127 0
-0.7946913242340088 -0.3040497601032257 0.525375485420227 255 127 0
-0.7971444725990295 -0.27779093384742737 0.5360903143882751 255 127 0
-0.7984157800674438 -0.27749335765838623 0.5343497395515442 255 127 0
-0.7929778695106506 -0.2667739987373352 0.5477388501167297 255 127 0
-0.7927017211914062 -0.25162845849990845 0.5552541017532349 255 127 0
-0.8096312880516052 -0.235301211476326 0.5377084612846375 255 127 0
-0.808764636516571 -0.25753846764564514 0.5287473201751709 255 127 0
-0.8027406334877014 -0.2352714240550995 0.5479552149772644 255 127 0
-0.8019025921821594 -0.2333366721868515 0.5500056147575378 255 127 0
-0.8056030869483948 -0.23251056671142578 0.5449243187904358 255 127 0
-0.8045899271965027 -0.2426164597272873 0.5420076251029968 255 127 0
-0.8028391003608704 -0.2798401713371277 0.5264397263526917 255 127 0
-0.7877458333969116 -0.2912144660949707 0.5428172945976257 255 127 0
-0.7823412418365479 -0.3047129511833191 0.5432239770889282 255 127 0
-0.787134051322937 -0.3234604299068451 0.5251601934432983 255 127 0
-0.7824087142944336 -0.3688164949417114 0.5018077492713928 255 127 0
-0.7863251566886902 -0.3505580723285675 0.5087255835533142 255 127 0
-0.7733122706413269 -0.34262996912002563 0.5334723591804504 255 127 0
-0.7637427449226379 -0.3786965608596802 0.5227674841880798 255 127 0
-0.787888765335083 -0.34767699241638184 0.5082833766937256 255 127 0
-0.792695939540863 -0.3564694821834564 0.49453282356262207 255 127 0
-0.7955340147018433 -0.3181362748146057 0.5156694054603577 255 127 0
-0.8132004141807556 -0.28690800070762634 0.5063485503196716 255 127 0
-0.7950425744056702 -0.2729988992214203 0.5416445732116699 255 127 0
-0.798737108707428 -0.2116515040397644 0.563225269317627 255 127 0
-0.7973113059997559 -0.22853383421897888 0.5586294531822205 255 127 0
-0.8080888390541077 -0.219904825091362 0.5464743971824646 255 127 0
-0.7934332489967346 -0.17813313007354736 0.582007110118866 255 127 0
-0.7923069596290588 -0.11240425705909729 0.5996790528297424 255 127 0
-0.7942437529563904 -0.10275420546531677 0.5988474488258362 255 127 0
-0.7912412285804749 -0.16867084801197052 0.5877817869186401 255 127 0
-0.7779227495193481 -0.11712616682052612 0.6173473596572876 255 127 0
-0.7801933288574219 -0.1131211668252945 0.6152251958847046 255 127 0
-0.7883714437484741 -0.06025354564189911 0.612241804599762 255 127 0
-0.7984167337417603 -0.11031661182641983 0.5919129252433777 255 127 0
-0.7735104560852051 -0.11590968817472458 0.6230943202972412 255 127 0
-0.7768966555595398 -0.09287621080875397 0.6227403879165649 255 127 0
-0.7912017107009888 -0.1324922740459442 0.5970306396484375 255 127 0
-0.7855998277664185 -0.15007464587688446 0.6002587080001831 255 127 0
-0.7554988265037537 -0.16397784650325775 0.6342971324920654 255 127 0
-0.7747462391853333 -0.15186631679534912 0.6137629747390747 255 127 0
-0.7720020413398743 -0.23116706311702728 0.5920934081077576 255 127 0
-0.768652081489563 -0.24834348261356354 0.5894908905029297 255 127 0
-0.740825891494751 -0.2702631950378418 0.6149266958236694 255 127 0
-0.7117610573768616 -0.26846396923065186 0.6490941643714905 255 127 0
-0.7400906682014465 -0.30508488416671753 0.5993237495422363 255 127 0
-0.713748037815094 -0.4098885953426361 0.5679393410682678 255 127 0
-0.6917324662208557 -0.3339255750179291 0.6403123736381531 255 127 0
-0.6635907292366028 -0.4288845658302307 0.6129480600357056 255 127 0
-0.6399058103561401 -0.5073757767677307 0.5771397948265076 255 127 0
-0.6279681921005249 -0.6031948924064636 0.49174365401268005 255 127 0
-0.5976532101631165 -0.6159613728523254 0.5132273435592651 255 127 0
-0.5649664402008057 -0.6921879649162292 0.44909775257110596 255 127 0
-0.5901236534118652 -0.6767536401748657 0.440180242061615 255 127 0
-0.5973107218742371 -0.584307849407196 0.5493671298027039 255 127 0
-0.6516427397727966 -0.518657922744751 0.5534940958023071 255 127 0
-0.7276791334152222 -0.4942515790462494 0.4756033420562744 255 127 0
-0.7385181188583374 -0.5432464480400085 0.3993423581123352 255 127 0
-0.7533000707626343 -0.5538384914398193 0.3546857535839081 255 127 0
-0.6616666316986084 -0.6096592545509338 0.43647778034210205 255 127 0
-0.6509327292442322 -0.533031702041626 0.5405218005180359 255 127 0
-0.6891013383865356 -0.4413968026638031 0.5747244954109192 255 127 0
-0.7199546098709106 -0.46759480237960815 0.5128551721572876 255 127 0
-0.7072553038597107 -0.4215650260448456 0.5675145983695984 255 127 0
-0.6647480130195618 -0.3749340772628784 0.646169126033783 255 127 0
-0.6052868366241455 -0.5607618689537048 0.5649548768997192 255 127 0
-0.6028720736503601 -0.41119495034217834 0.6837133169174194 255 127 0
-0.6327251195907593 -0.4147700369358063 0.6539302468299866 255 127 0
-0.5904725193977356 -0.5325068831443787 0.6064475178718567 255 127 0
-0.4591735601425171 -0.6576962471008301 0.5971559882164001 255 127 0
-0.4812158942222595 -0.5383894443511963 0.6917861104011536 255 127 0
-0.5023537874221802 -0.4358953535556793 0.7467502355575562 255 127 0
-0.5410839319229126 -0.5589651465415955 0.6283200979232788 255 127 0
-0.5209881663322449 -0.6526743173599243 0.5500797033309937 255 127 0
-0.48602110147476196 -0.513484001159668 0.7071900367736816 255 127 0
-0.5067811608314514 -0.6078127026557922 0.6113399267196655 255 127 0
-0.5119894742965698 -0.644639253616333 0.5677208304405212 255 127 0
-0.4814288020133972 -0.5498979687690735 0.6825235486030579 255 127 0
-0.5344685912132263 -0.41857460141181946 0.7342605590820312 255 127 0
-0.5287384986877441 -0.21811309456825256 0.8202818036079407 255 127 0
-0.4759581983089447 -0.1569971889257431 0.8653413653373718 255 127 0
-0.5371373891830444 -0.13206563889980316 0.8330918550491333 255 127 0
-0.6335453391075134 -0.23589849472045898 0.7368664741516113 255 127 0
-0.6609177589416504 -0.1682969480752945 0.7313438653945923 255 127 0
-0.7027324438095093 -0.1399243026971817 0.6975587606430054 255 127 0
-0.6696747541427612 0.034783411771059036 0.7418394684791565 255 127 0
-0.7017436027526855 -0.027944520115852356 0.7118812799453735 255 127 0
-0.6649854779243469 -0.08138762414455414 0.7424085140228271 255 127 0
-0.6910085082054138 -0.07705975323915482 0.7187272906303406 255 127 0
-0.7049767971038818 -0.09335752576589584 0.7030590772628784 255 127 0
-0.6887121200561523 -0.10833433270454407 0.7168955206871033 255 127 0
-0.7187216877937317 -0.11732112616300583 0.6853283047676086 255 127 0
-0.7271814942359924 -0.1847260445356369 0.6611228585243225 255 127 0
-0.6709066033363342 -0.1334422379732132 0.729436457157135 255 127 0
-0.662038266658783 -0.039593134075403214 0.7484234571456909 255 127 0
-0.653449296951294 -0.07161644101142883 0.7535749673843384 255 127 0
-0.7193506360054016 -0.09171273559331894 0.6885662078857422 255 127 0
-0.7241204977035522 -0.16710244119167328 0.6691235303878784 255 127 0
-0.6665968894958496 -0.12622883915901184 0.7346529364585876 255 127 0
-0.7204064726829529 -0.2391081154346466 0.6510314345359802 255 127 0
-0.7348136901855469 -0.24072708189487457 0.6341130137443542 255 127 0
-0.7075368762016296 -0.21020092070102692 0.6746903657913208 255 127 0
-0.7545849084854126 -0.281007319688797 0.592989444732666 255 127 0
-0.7355917096138 -0.3726012706756592 0.5657500624656677 255 127 0
-0.7462471723556519 -0.27632397413253784 0.6056072115898132 255 127 0
-0.7674952149391174 -0.3337327539920807 0.5473332405090332 255 127 0
-0.746399462223053 -0.22342705726623535 0.6268718242645264 255 127 0
-0.7444349527359009 -0.20049649477005005 0.6368812918663025 255 127 0
-0.7703371047973633 -0.2761654555797577 0.5747289657592773 255 127 0
-0.7601422667503357 -0.20265088975429535 0.6173461079597473 255 127 0
-0.7977860569953918 -0.17411451041698456 0.5772534012794495 255 127 0
-0.8088926076889038 -0.22347308695316315 0.5438313484191895 255 127 0
-0.7712897658348083 -0.2583102881908417 0.5817111134529114 255 127 0
-0.7756757736206055 -0.37807348370552063 0.5053588151931763 255 127 0
-0.8054847717285156 -0.33129817247390747 0.4913610816001892 255 127 0
-0.8004867434501648 -0.2165859341621399 0.5588483810424805 255 127 0
-0.790494441986084 -0.29503607749938965 0.5367236733436584 255 127 0
-0.805043637752533 -0.4157085418701172 0.42319151759147644 255 127 0
-0.7577410936355591 -0.5561193823814392 0.3414084017276764 255 127 0
-0.6947838664054871 -0.5794110894203186 0.42609649896621704 255 127 0
-0.664059042930603 -0.613944411277771 0.4267291724681854 255 127 0
-0.6682469248771667 -0.5807583928108215 0.464936226606369 255 127 0
-0.6726938486099243 -0.6123505234718323 0.4153430461883545 255 127 0
-0.6453475952148438 -0.6824989914894104 0.3431057035923004 255 127 0
-0.6875407099723816 -0.6620078086853027 0.2983846962451935 255 127 0
-0.6709550023078918 -0.6892715692520142 0.2733571231365204 255 127 0
-0.6242366433143616 -0.690675675868988 0.365096777677536 255 127 0
-0.5544517636299133 -0.7536735534667969 0.3529299795627594 255 127 0
-0.3710133135318756 -0.9130067229270935 0.16961072385311127 255 127 0
-0.4110121428966522 -0.910640299320221 0.04246383160352707 255 127 0
-0.65167635679245 -0.37530985474586487 0.6591361165046692 255 127 0
-0.6504464745521545 -0.35887035727500916 0.6694262027740479 255 127 0
-0.5880534648895264 -0.40829747915267944 0.6982021331787109 255 127 0
-0.3624509274959564 -0.029351618140935898 0.9315406084060669 255 127 0
-0.25963759422302246 0.4802932143211365 0.8377987742424011 255 127 0
-0.21764250099658966 0.6523661613464355 0.7259821891784668 255 127 0
-0.20541654527187347 0.7292840480804443 0.6526475548744202 255 127 0
-0.20926520228385925 0.6905726194381714 0.6923276782035828 255 127 0
-0.20004777610301971 0.653810441493988 0.7297347187995911 255 127 0
-0.25309064984321594 0.6051265597343445 0.7548291087150574 255 127 0
-0.2500801384449005 0.6160138845443726 0.746985137462616 255 127 0
-0.2413397580385208 0.6213385462760925 0.7454484701156616 255 127 0
-0.2667217254638672 0.6535174250602722 0.7083604335784912 255 127 0
-0.30340081453323364 0.6382587552070618 0.7075123190879822 255 127 0
-0.2656538784503937 0.6172100901603699 0.7405941486358643 255 127 0
-0.25952664017677307 0.601926326751709 0.7552022933959961 255 127 0
-0.2953731119632721 0.5660267472267151 0.7696548104286194 255 127 0
-0.3396359086036682 0.546726405620575 0.7653350234031677 255 127 0
-0.397016704082489 0.4717652201652527 0.7872834801673889 255 127 0
-0.3962252140045166 0.4963291883468628 0.7724395990371704 255 127 0
-0.3693729341030121 0.4913031756877899 0.7887869477272034 255 127 0
-0.3823672831058502 0.4527624845504761 0.8054820895195007 255 127 0
-0.41177743673324585 0.4094665050506592 0.8141108751296997 255 127 0
-0.4403195083141327 0.42727017402648926 0.7896575331687927 255 127 0
-0.43419894576072693 0.35408762097358704 0.8283073902130127 255 127 0
-0.39852914214134216 0.19804665446281433 0.8955177664756775 255 127 0
0.07747656106948853 -0.14769986271858215 0.985992968082428 255 127 0
0.3103015124797821 -0.41846728324890137 0.8535795211791992 255 127 0
0.48437052965164185 -0.6868944764137268 0.5418129563331604 255 127 0
-0.32322177290916443 -0.8197458982467651 0.4728047847747803 255 127 0
-0.16329912841320038 -0.9861266016960144 -0.02979462966322899 255 127 0
-0.18484309315681458 -0.9707444906234741 -0.1532583087682724 255 127 0
-0.23517918586730957 -0.9549960494041443 -0.18075770139694214 255 127 0
-0.24031098186969757 -0.9341333508491516 -0.26390430331230164 255 127 0
-0.24713242053985596 -0.9233503341674805 -0.2938530445098877 255 127 0
-0.24964706599712372 -0.9262269139289856 -0.282453715801239 255 127 0
-0.25610554218292236 -0.9290514588356018 -0.266970694065094 255 127 0
-0.3239973485469818 -0.9234453439712524 -0.2056073099374771 255 127 0
-0.38920485973358154 -0.9114974141120911 -0.13301177322864532 255 127 0
-0.42941781878471375 -0.9017506837844849 -0.04945846274495125 255 127 0
-0.47908270359039307 -0.8765235543251038 -0.04675575718283653 255 127 0
-0.39904725551605225 -0.9160688519477844 -0.03973923251032829 255 127 0
-0.4330306947231293 -0.9012010097503662 -0.01791767217218876 255 127 0
-0.4421825706958771 -0.8968836665153503 -0.008617759682238102 255 127 0
-0.41287413239479065 -0.9105241298675537 -0.021927407011389732 255 127 0
-0.3387644290924072 -0.9408601522445679 0.004558061249554157 255 127 0
-0.4289339482784271 -0.9021762609481812 0.04575671628117561 255 127 0
-0.427851140499115 -0.9031425714492798 0.03573571890592575 255 127 0
-0.37438535690307617 -0.9264354109764099 0.03940717130899429 255 127 0
-0.39661771059036255 -0.9156044125556946 0.06605223566293716 255 127 0
-0.4469085931777954 -0.8897572159767151 0.09276152402162552 255 127 0
-0.40226510167121887 -0.914120614528656 0.05065786466002464 255 127 0
-0.37346553802490234 -0.920478343963623 0.11507892608642578 255 127 0
-0.38477039337158203 -0.9151029586791992 0.120574951171875 255 127 0
-0.41584038734436035 -0.9058986902236938 0.08015211671590805 255 127 0
-0.3005114495754242 -0.9530588388442993 0.03703736886382103 255 127 0
-0.2920793890953064 -0.9555861353874207 0.03930450975894928 255 127 0
-0.3389812409877777 -0.9383127093315125 0.06827127933502197 255 127 0
-0.3153238892555237 -0.9480829834938049 0.04134564846754074 255 127 0
-0.3130822479724884 -0.9495121240615845 0.02015368826687336 255 127 0
-0.3401873707771301 -0.9395089745521545 0.039943479001522064 255 127 0
-0.3173702657222748 -0.9482147693634033 0.012836002744734287 255 127 0
-0.3252107501029968 -0.9456391334533691 -0.0021165909711271524 255 127 0
-0.2534258961677551 -0.9672600626945496 -0.013536927290260792 255 127 0
-0.22653746604919434 -0.973961591720581 0.008918882347643375 255 127 0
-0.2858278751373291 -0.9582701921463013 -0.00455778231844306 255 127 0
-0.33883336186408997 -0.9408272504806519 -0.005994842387735844 255 127 0
-0.29184582829475403 -0.9560723900794983 -0.027416318655014038 255 127 0
-0.28471899032592773 -0.9572285413742065 -0.0514647513628006 255 127 0
-0.286947637796402 -0.956612765789032 -0.05052701011300087 255 127 0
-0.3034282326698303 -0.9524383544921875 -0.028152354061603546 255 127 0
-0.30320897698402405 -0.9528428316116333 -0.012445579282939434 255 127 0
-0.3595457077026367 -0.9331238269805908 0.0026179912965744734 255 127 0
-0.3733883202075958 -0.92766934633255 0.0032951803877949715 255 127 0
-0.399421751499176 -0.9166741371154785 -0.013069272972643375 255 127 0
-0.36520829796791077 -0.930753231048584 -0.017925921827554703 255 127 0
-0.37328872084617615 -0.9276496171951294 -0.01103438064455986 255 127 0
-0.40423905849456787 -0.9140709042549133 0.03263848274946213 255 127 0
-0.3711865544319153 -0.9284881353378296 0.011420290917158127 255 127 0
-0.37104660272598267 -0.9285962581634521 0.005778241902589798 255 127 0
-0.37256717681884766 -0.9278742074966431 -0.015596086159348488 255 127 0
-0.37087103724479675 -0.9279798865318298 -0.03616785630583763 255 127 0
-0.3810243308544159 -0.9244044423103333 -0.017228344455361366 255 127 0
-0.36075806617736816 -0.9322118759155273 -0.02889166958630085 255 127 0
-0.3043867349624634 -0.9518375992774963 -0.036795031279325485 255 127 0
-0.2880342900753021 -0.955435037612915 -0.06465384364128113 255 127 0
-0.3183598220348358 -0.947632908821106 -0.025279341265559196 255 127 0
-0.29503700137138367 -0.95196932554245 -0.08189938962459564 255 127 0
-0.2102237194776535 -0.9708519577980042 -0.11511959135532379 255 127 0
-0.21919730305671692 -0.9696893095970154 -0.10795906186103821 255 127 0
-0.24196381866931915 -0.9673036336898804 -0.07600783556699753 255 127 0
-0.32339003682136536 -0.9450923800468445 -0.04710989072918892 255 127 0
-0.3760327398777008 -0.9254477024078369 -0.046324096620082855 255 127 0
-0.3884727358818054 -0.9209294319152832 -0.031271107494831085 255 127 0
-0.40690913796424866 -0.9129312634468079 -0.031328845769166946 255 127 0
-0.44713905453681946 -0.8938918113708496 -0.032001666724681854 255 127 0
-0.47263050079345703 -0.8812556862831116 -0.0029685688205063343 255 127 0
-0.493158221244812 -0.869205117225647 0.035741280764341354 255 127 0
-0.5314638018608093 -0.8415824174880981 0.09635960310697556 255 127 0
-0.5772644877433777 -0.7987259030342102 0.16971343755722046 255 127 0
-0.5427778363227844 -0.8224309682846069 0.1702926754951477 255 127 0
-0.49105018377304077 -0.848091721534729 0.19902324676513672 255 127 0
-0.5651165843009949 -0.7668539881706238 0.3042667806148529 255 127 0
-0.5806373357772827 -0.7174782752990723 0.3848184049129486 255 127 0
-0.5307325720787048 -0.7247207760810852 0.439434677362442 255 127 0
-0.5992346405982971 -0.5168736577033997 0.6113587021827698 255 127 0
-0.7067099809646606 -0.4829349219799042 0.5170443654060364 255 127 0
-0.7535774111747742 -0.5246309638023376 0.39608508348464966 255 127 0
-0.6723023056983948 -0.6988201141357422 0.2442539781332016 255 127 0
-0.6985709071159363 -0.6445997953414917 0.3106279969215393 255 127 0
-0.6448522210121155 -0.7131456732749939 0.27493441104888916 255 127 0
-0.7324501276016235 -0.6426517963409424 0.22475630044937134 255 127 0
-0.6903557181358337 -0.687478244304657 0.22535035014152527 255 127 0
-0.7231594324111938 -0.6497586965560913 0.23420965671539307 255 127 0
-0.7640442848205566 -0.5554866790771484 0.3281323313713074 255 127 0
-0.8041321635246277 -0.48883193731307983 0.3382526636123657 255 127 0
-0.8091020584106445 -0.4861934185028076 0.33010584115982056 255 127 0
-0.8090341091156006 -0.4602227210998535 0.365593820810318 255 127 0
-0.8151367902755737 -0.4303867518901825 0.38771024346351624 255 127 0
-0.805535614490509 -0.40780386328697205 0.4298935532569885 255 127 0
-0.827865719795227 -0.37170302867889404 0.42008939385414124 255 127 0
-0.829984188079834 -0.3858383297920227 0.40280911326408386 255 127 0
-0.8421809077262878 -0.35591354966163635 0.40503937005996704 255 127 0
-0.8297299146652222 -0.2994799315929413 0.4710202217102051 255 127 0
-0.8445594310760498 -0.23987548053264618 0.4787265360355377 255 127 0
-0.8548029065132141 -0.23492805659770966 0.4627317488193512 255 127 0
-0.8392354846000671 -0.27167069911956787 0.4710402488708496 255 127 0
-0.8363094329833984 -0.2335710972547531 0.49601516127586365 255 127 0
-0.8377802968025208 -0.1548074185848236 0.523601770401001 255 127 0
-0.8305952548980713 -0.16495360434055328 0.5318852066993713 255 127 0
-0.8089689612388611 -0.17578011751174927 0.5609550476074219 255 127 0
-0.8048604726791382 -0.1441061943769455 0.5757021903991699 255 127 0
-0.8183306455612183 -0.1668737530708313 0.5499891638755798 255 127 0
-0.8117903470993042 -0.19040992856025696 0.5520331263542175 255 127 0
-0.8096283078193665 -0.1887417435646057 0.5557684898376465 255 127 0
-0.8185464143753052 -0.19039355218410492 0.5419704914093018 255 127 0
-0.8306683301925659 -0.16080428659915924 0.5330403447151184 255 127 0
-0.8275477290153503 -0.09983231127262115 0.5524474382400513 255 127 0
-0.8272227048873901 -0.057370442897081375 0.5589376091957092 255 127 0
-0.8462229371070862 -0.062087103724479675 0.5291993021965027 255 127 0
-0.8414664268493652 -0.07443849742412567 0.5351571440696716 255 127 0
-0.845220148563385 -0.07470246404409409 0.5291715860366821 255 127 0
-0.8603547215461731 -0.05786081776022911 0.506401002407074 255 127 0
-0.8460311889648438 -0.013470523059368134 0.5329632759094238 255 127 0
-0.8450891971588135 -0.01420425996184349 0.5344365239143372 255 127 0
-0.8501536250114441 0.05695164203643799 0.5234456658363342 255 127 0
-0.8735985159873962 0.0403110533952713 0.4849749207496643 255 127 0
-0.8618425130844116 0.08338410407304764 0.5002745389938354 255 127 0
-0.8488168120384216 0.08675093948841095 0.521521270275116 255 127 0
-0.8531590104103088 0.07237012684345245 0.5166065096855164 255 127 0
-0.8594316244125366 0.03870829567313194 0.5097832679748535 255 127 0
-0.8592269420623779 0.014746720902621746 0.5113820433616638 255 127 0
-0.8542141318321228 0.03557832911610603 0.5187027454376221 255 127 0
-0.8314835429191589 0.04283221438527107 0.5538958311080933 255 127 0
-0.8384479880332947 0.09401601552963257 0.5368109345436096 255 127 0
-0.8324494957923889 0.12728415429592133 0.5392833948135376 255 127 0
-0.8064067959785461 0.18243122100830078 0.562518298625946 255 127 0
-0.774242103099823 0.26594972610473633 0.5742994546890259 255 127 0
-0.7513350248336792 0.313663125038147 0.5806126594543457 255 127 0
-0.7219942212104797 0.3630545139312744 0.5889955759048462 255 127 0
-0.7398158311843872 0.3554590940475464 0.5712454319000244 255 127 0
-0.7445236444473267 0.3452724516391754 0.5713768005371094 255 127 0
-0.7703768610954285 0.3388199508190155 0.5401116013526917 255 127 0
-0.760928213596344 0.372105211019516 0.5315316319465637 255 127 0
-0.7594152092933655 0.32353726029396057 0.5644574761390686 255 127 0
-0.8083957433700562 0.2757799029350281 0.5200402736663818 255 127 0
-0.8035122752189636 0.2244788259267807 0.5513414144515991 255 127 0
-0.834708571434021 0.23129522800445557 0.49976402521133423 255 127 0
-0.8115490078926086 0.2830766439437866 0.511132001876831 255 127 0
-0.825486958026886 0.28608646988868713 0.4865449070930481 255 127 0
-0.7797144055366516 0.2709779739379883 0.5644611120223999 255 127 0
-0.7972776889801025 0.25314438343048096 0.5479655861854553 255 127 0
-0.7980745434761047 0.24544338881969452 0.5503040552139282 255 127 0
-0.8147554993629456 0.20670631527900696 0.5417066216468811 255 127 0
-0.7995389103889465 0.18166495859622955 0.5724817514419556 255 127 0
-0.7950073480606079 0.1871364265680313 0.5770124793052673 255 127 0
-0.7905635237693787 0.23393164575099945 0.5659376382827759 255 127 0
-0.8084083199501038 0.1901533454656601 0.5570616722106934 255 127 0
-0.8041346073150635 0.13850528001785278 0.5780863761901855 255 127 0
-0.785735547542572 0.1596013754606247 0.5976177453994751 255 127 0
-0.7833765149116516 0.15837980806827545 0.6010299324989319 255 127 0
-0.7810463905334473 0.18349596858024597 0.5969052314758301 255 127 0
-0.7476909756660461 0.20632833242416382 0.6311789155006409 255 127 0
-0.7619820237159729 0.1968858242034912 0.6169436573982239 255 127 0
-0.7418732047080994 0.22483064234256744 0.6317241787910461 255 127 0
-0.7337546944618225 0.23649746179580688 0.636924684047699 255 127 0
-0.74214768409729 0.22729545831680298 0.6305184960365295 255 127 0
-0.7579280138015747 0.2879607081413269 0.5853407382965088 255 127 0
-0.7609477639198303 0.2869553864002228 0.5819063782691956 255 127 0
-0.7348622679710388 0.2977188527584076 0.6093775629997253 255 127 0
-0.7362952828407288 0.344551146030426 0.5823690295219421 255 127 0
-0.7337342500686646 0.3368166387081146 0.5900749564170837 255 127 0
-0.7365567088127136 0.3343340754508972 0.587966799736023 255 127 0
-0.7031751871109009 0.37593284249305725 0.6035057306289673 255 127 0
-0.6856408715248108 0.3689860701560974 0.6274917721748352 255 127 0
-0.703909158706665 0.32130366563796997 0.633463442325592 255 127 0
-0.723596453666687 0.3519552946090698 0.5937472581863403 255 127 0
-0.7113863229751587 0.36214059591293335 0.6023153066635132 255 127 0
-0.6940546631813049 0.41048309206962585 0.5914319753646851 255 127 0
-0.6991739273071289 0.43719708919525146 0.5656983256340027 255 127 0
-0.7165905237197876 0.3896307349205017 0.5785204768180847 255 127 0
-0.7337009906768799 0.3676416277885437 0.5714214444160461 255 127 0
-0.7291624546051025 0.40008726716041565 0.5552047491073608 255 127 0
-0.73841792345047 0.36205604672431946 0.568906307220459 255 127 0
-0.7294865846633911 0.41446614265441895 0.5441206097602844 255 127 0
-0.7349491119384766 0.4427379369735718 0.5136467218399048 255 127 0
-0.7220818996429443 0.38073474168777466 0.5776146054267883 255 127 0
-0.7204450368881226 0.4343634247779846 0.5406360030174255 255 127 0
-0.6938327550888062 0.4362024962902069 0.5729952454566956 255 127 0
-0.7087711691856384 0.4540118873119354 0.539922833442688 255 127 0
-0.7127562165260315 0.47018009424209595 0.5204893946647644 255 127 0
-0.7026134729385376 0.4465521275997162 0.5540086030960083 255 127 0
-0.6846632957458496 0.39878663420677185 0.6100863218307495 255 127 0
-0.7236379981040955 0.3285299837589264 0.6069729328155518 255 127 0
-0.7202543020248413 0.3275923430919647 0.6114875078201294 255 127 0
-0.7105922102928162 0.3407142460346222 0.6156074404716492 255 127 0
-0.7013570070266724 0.35724374651908875 0.6168267130851746 255 127 0
-0.7391979098320007 0.30173638463020325 0.6021142601966858 255 127 0
-0.7275528311729431 0.29430532455444336 0.6197187304496765 255 127 0
-0.7472856640815735 0.20506343245506287 0.6320704817771912 255 127 0
-0.7516244649887085 0.19776754081249237 0.6292444467544556 255 127 0
-0.7726983428001404 0.19065652787685394 0.6054645776748657 255 127 0
-0.7658594846725464 0.2433348447084427 0.5951868295669556 255 127 0
-0.7312595844268799 0.30008453130722046 0.6125428080558777 255 127 0
-0.6891438961029053 0.33171552419662476 0.6442402005195618 255 127 0
-0.6498318910598755 0.4361629784107208 0.622479259967804 255 127 0
-0.7262709140777588 0.4885512888431549 0.48357850313186646 255 127 0
-0.40102633833885193 0.41678473353385925 0.815762460231781 255 127 0
-0.25554245710372925 0.4850669801235199 0.8363062143325806 255 127 0
-0.40608105063438416 0.08528421074151993 0.9098487496376038 255 127 0
-0.502619743347168 -0.5169833302497864 0.6928936839103699 255 127 0
-0.487979531288147 -0.46729761362075806 0.737230658531189 255 127 0
-0.48623496294021606 -0.5447053909301758 0.6832799911499023 255 127 0
-0.4502823054790497 -0.630885899066925 0.6318455934524536 255 127 0
-0.4160572290420532 -0.6355658173561096 0.650347888469696 255 127 0
-0.39804184436798096 -0.6373014450073242 0.6598557233810425 255 127 0
-0.3541264832019806 -0.6345260739326477 0.6870014071464539 255 127 0
-0.40510934591293335 -0.5832441449165344 0.704068660736084 255 127 0
-0.34921491146087646 -0.46270182728767395 0.8148348927497864 255 127 0
-0.35527634620666504 -0.2796021103858948 0.8919649124145508 255 127 0
-0.26449164748191833 -0.07634644210338593 0.9613611698150635 255 127 0
-0.13309380412101746 0.03866395354270935 0.9903489947319031 255 127 0
-0.12119714170694351 0.22360819578170776 0.9671146273612976 255 127 0
-0.00012638012412935495 0.4383822977542877 0.8987886309623718 255 127 0
0.09282004833221436 0.5084189772605896 0.856092631816864 255 127 0
0.11879221349954605 0.4609324634075165 0.8794485330581665 255 127 0
0.06762675195932388 0.4781588912010193 0.8756659030914307 255 127 0
-0.05532727390527725 0.39474987983703613 0.9171212911605835 255 127 0
0.01706641912460327 0.30817320942878723 0.9511771202087402 255 127 0
0.05319012701511383 0.16550855338573456 0.9847729802131653 255 127 0
0.03816487640142441 0.09135041385889053 0.995087206363678 255 127 0
0.053934495896101 -0.03215209022164345 0.9980267882347107 255 127 0
0.09302222728729248 -0.10808663815259933 0.9897798299789429 255 127 0
0.0954747200012207 -0.16458165645599365 0.9817318916320801 255 127 0
0.13810624182224274 -0.2828461229801178 0.9491704702377319 255 127 0
0.1219559907913208 -0.3620392680168152 0.9241506457328796 255 127 0
0.06885627657175064 -0.3855777382850647 0.9201025366783142 255 127 0
0.11534547805786133 -0.39803972840309143 0.9100878238677979 255 127 0
0.15104509890079498 -0.436681866645813 0.8868451118469238 255 127 0
0.14199863374233246 -0.4531642198562622 0.88004469871521 255 127 0
0.01948084682226181 -0.4264937937259674 0.9042807221412659 255 127 0
-0.002754604909569025 -0.4040990173816681 0.914711058139801 255 127 0
0.08295965939760208 -0.3908553123474121 0.9167059063911438 255 127 0
-0.03581802919507027 -0.3991415798664093 0.9161893725395203 255 127 0
-0.05136638134717941 -0.43368738889694214 0.8995980620384216 255 127 0
-0.04812460392713547 -0.4989577531814575 0.865289032459259 255 127 0
-0.10320935398340225 -0.49691706895828247 0.8616387248039246 255 127 0
-0.13870900869369507 -0.5202270746231079 0.8426883220672607 255 127 0
-0.104637011885643 -0.5569784045219421 0.8239090442657471 255 127 0
-0.10378537327051163 -0.5433386564254761 0.8330736756324768 255 127 0
-0.11780901253223419 -0.4907773435115814 0.8632836937904358 255 127 0
-0.10371170938014984 -0.4489831328392029 0.8875009417533875 255 127 0
-0.02488670125603676 -0.4308466911315918 0.9020819664001465 255 127 0
-0.009984144009649754 -0.4592043459415436 0.8882745504379272 255 127 0
-0.030234480276703835 -0.37551799416542053 0.926321804523468 255 127 0
-0.03963836655020714 -0.3173986077308655 0.9474633932113647 255 127 0
-0.09570536017417908 -0.281377375125885 0.9548127055168152 255 127 0
-0.10971464216709137 -0.28028759360313416 0.9536254405975342 255 127 0
-0.17300336062908173 -0.3177555203437805 0.9322560429573059 255 127 0
-0.15740744769573212 -0.33921825885772705 0.9274448156356812 255 127 0
-0.1667628139257431 -0.33631032705307007 0.926868736743927 255 127 0
-0.2273963987827301 -0.34696832299232483 0.909892201423645 255 127 0
-0.20277495682239532 -0.33705103397369385 0.9193904995918274 255 127 0
-0.2325780838727951 -0.3610120415687561 0.9030934572219849 255 127 0
-0.2607574760913849 -0.40220627188682556 0.8776307106018066 255 127 0
-0.2497067004442215 -0.40448108315467834 0.8797963857650757 255 127 0
-0.2347310185432434 -0.4367799460887909 0.8684035539627075 255 127 0
-0.25844794511795044 -0.39278608560562134 0.8825666308403015 255 127 0
-0.27210307121276855 -0.40980127453804016 0.8706450462341309 255 127 0
-0.2772362530231476 -0.4099500775337219 0.8689540028572083 255 127 0
-0.2432081550359726 -0.500612199306488 0.8308051228523254 255 127 0
-0.1833532303571701 -0.6058827042579651 0.7741367816925049 255 127 0
-0.12077586352825165 -0.6532650589942932 0.7474343180656433 255 127 0
-0.14869897067546844 -0.7119989991188049 0.6862550377845764 255 127 0
-0.12101469188928604 -0.7583622336387634 0.6405014395713806 255 127 0
-0.022101281210780144 -0.8052617907524109 0.5925074219703674 255 127 0
0.07645034790039062 -0.766106367111206 0.6381507515907288 255 127 0
0.0264462698251009 -0.7175554633140564 0.6959990859031677 255 127 0
0.1920246183872223 -0.6511083245277405 0.7342918515205383 255 127 0
0.45315995812416077 -0.3535599410533905 0.8183162212371826 255 127 0
0.44787630438804626 -0.0941956490278244 0.8891198635101318 255 127 0
0.37893638014793396 0.3078065812587738 0.8727326393127441 255 127 0
0.37927719950675964 0.45258814096450806 0.8070394992828369 255 127 0
0.4690762460231781 0.5903512239456177 0.6568506956100464 255 127 0
0.4568955600261688 0.6906329393386841 0.5606001019477844 255 127 0
0.5896711349487305 0.7211419343948364 0.36365148425102234 255 127 0
0.5903958678245544 0.7301749587059021 0.3439145088195801 255 127 0
0.5206958055496216 0.7970463037490845 0.30592963099479675 255 127 0
0.6650871634483337 0.710590124130249 0.22960984706878662 255 127 0
0.7085074186325073 0.6865051984786987 0.16348664462566376 255 127 0
0.706855297088623 0.6841029524803162 0.17988528311252594 255 127 0
0.7234669923782349 0.6735879182815552 0.1512441784143448 255 127 0
0.6901382803916931 0.6811062097549438 0.24454747140407562 255 127 0
0.6221557259559631 0.7196223735809326 0.3083277642726898 255 127 0
0.6168805360794067 0.7362257242202759 0.2782628536224365 255 127 0
0.6565744280815125 0.7277166247367859 0.198339581489563 255 127 0
0.6845161318778992 0.7265663146972656 0.059491295367479324 255 127 0
0.7374933958053589 0.6750538945198059 0.020140627399086952 255 127 0
0.730391263961792 0.6815716624259949 -0.0445941723883152 255 127 0
0.7396323084831238 0.6680562496185303 -0.08151671290397644 255 127 0
0.7627438306808472 0.6443201899528503 -0.055437635630369186 255 127 0
0.7604333758354187 0.6402581930160522 -0.10867641866207123 255 127 0
0.7518303394317627 0.6466294527053833 -0.1289241909980774 255 127 0
0.723673939704895 0.6697084903717041 -0.16669322550296783 255 127 0
0.6901208162307739 0.6997321248054504 -0.184684157371521 255 127 0
0.6968562006950378 0.684173047542572 -0.21517112851142883 255 127 0
0.6996585130691528 0.6665099859237671 -0.2573757767677307 255 127 0
0.6900332570075989 0.6721861958503723 -0.2683653235435486 255 127 0
0.7335856556892395 0.6152770519256592 -0.28859344124794006 255 127 0
0.7410973310470581 0.6109936833381653 -0.2783191502094269 255 127 0
0.7484071254730225 0.5705918073654175 -0.3381001353263855 255 127 0
0.783814549446106 0.5220779180526733 -0.33625802397727966 255 127 0
0.7841609120368958 0.46750766038894653 -0.4080788195133209 255 127 0
0.7771211266517639 0.4507327377796173 -0.4392296075820923 255 127 0
0.8187541961669922 0.3460906744003296 -0.4581078588962555 255 127 0
0.8313494920730591 0.30375996232032776 -0.46538999676704407 255 127 0
0.8390723466873169 0.26645714044570923 -0.47429752349853516 255 127 0
0.8498600721359253 0.21224375069141388 -0.4823800325393677 255 127 0
0.8453541994094849 0.2879766523838043 -0.44993969798088074 255 127 0
0.828781247138977 0.23420646786689758 -0.5082016587257385 255 127 0
0.8395078182220459 0.08310000598430634 -0.5369553565979004 255 127 0
0.8670116662979126 0.13436639308929443 -0.4798296093940735 255 127 0
0.8442888259887695 -0.026687245815992355 -0.5352234244346619 255 127 0
0.8921210765838623 0.024611297994852066 -0.4511255919933319 255 127 0
0.8913148641586304 -0.050119053572416306 -0.4506060779094696 255 127 0
0.8855791091918945 -0.06014203280210495 -0.4605785310268402 255 127 0
0.9130245447158813 -0.08924897015094757 -0.3980211019515991 255 127 0
0.9319711923599243 -0.05543120950460434 -0.35826972126960754 255 127 0
0.9317631125450134 0.021552538499236107 -0.36242660880088806 255 127 0
0.922048032283783 -0.01718505471944809 -0.3866937756538391 255 127 0
0.9590979814529419 0.034699853509664536 -0.2809392809867859 255 127 0
0.97491455078125 0.04141371697187424 -0.2186928391456604 255 127 0
0.9831878542900085 0.06161985173821449 -0.1718856543302536 255 127 0
0.9931445121765137 0.11042286455631256 -0.038349878042936325 255 127 0
0.979417622089386 0.1940847486257553 -0.05542741343379021 255 127 0
0.9948285818099976 0.09326714277267456 -0.040216684341430664 255 127 0
0.9870892763137817 0.1538933515548706 0.04440348222851753 255 127 0
0.9904114007949829 0.026948971673846245 0.1354956179857254 255 127 0
0.9976820945739746 -0.02722148969769478 0.06236414611339569 255 127 0
0.9951789379119873 0.001556925242766738 0.09806348383426666 255 127 0
0.9816802740097046 0.0539105124771595 0.1827496439218521 255 127 0
0.9840824604034424 0.06581883132457733 0.1650749146938324 255 127 0
0.9837663173675537 -0.02260931208729744 0.178024560213089 255 127 0
0.9851956367492676 0.04517555609345436 0.16537423431873322 255 127 0
0.9738941788673401 0.08828618377447128 0.20913051068782806 255 127 0
0.9912118315696716 0.10958284884691238 0.0740988552570343 255 127 0
0.9390171766281128 0.3180498480796814 0.13073256611824036 255 127 0
0.8603311777114868 0.47540920972824097 0.18389266729354858 255 127 0
0.8242917656898499 0.5314220786094666 0.1952786147594452 255 127 0
0.8176924586296082 0.5358811020851135 0.2102629840373993 255 127 0
0.8718484044075012 0.4604426920413971 0.1669519692659378 255 127 0
0.872031033039093 0.47009512782096863 0.1362808644771576 255 127 0
0.9118668437004089 0.394301176071167 0.11412923038005829 255 127 0
0.931858479976654 0.3307094871997833 0.14923536777496338 255 127 0
0.9649564623832703 0.2519851624965668 0.07322976738214493 255 127 0
0.9426129460334778 0.3051784932613373 0.13545039296150208 255 127 0
0.9512587189674377 0.25262874364852905 0.17687726020812988 255 127 0
0.9333541393280029 0.2755012512207031 0.23010653257369995 255 127 0
0.8491691946983337 0.4400264024734497 0.29204192757606506 255 127 0
0.6341649293899536 0.6108302474021912 0.4740476608276367 255 127 0
0.5204342603683472 0.6777089238166809 0.5194794535636902 255 127 0
0.4518563747406006 0.7302413582801819 0.5124192237854004 255 127 0
0.3886970579624176 0.7653502225875854 0.5129850506782532 255 127 0
0.2907743752002716 0.8114703297615051 0.5069182515144348 255 127 0
0.2544116675853729 0.8693668842315674 0.4236459732055664 255 127 0
0.2655463218688965 0.8857540488243103 0.3806900680065155 255 127 0
0.27410969138145447 0.9030401706695557 0.33072999119758606 255 127 0
0.2637758255004883 0.9226301312446594 0.28138232231140137 255 127 0
0.27230599522590637 0.9213531017303467 0.277413010597229 255 127 0
0.24520720541477203 0.9264934062957764 0.2854531407356262 255 127 0
0.20115084946155548 0.9342001676559448 0.2946324348449707 255 127 0
0.23822323977947235 0.8997353315353394 0.3656855821609497 255 127 0
0.2124437689781189 0.9137344360351562 0.34634798765182495 255 127 0
0.21055705845355988 0.921607494354248 0.3260451853275299 255 127 0
0.27476659417152405 0.9324327111244202 0.2346756011247635 255 127 0
0.32782065868377686 0.9372805953025818 0.11848529428243637 255 127 0
0.3336910605430603 0.9359196424484253 0.11271561682224274 255 127 0
0.26995500922203064 0.9531221389770508 0.13668358325958252 255 127 0
0.25840818881988525 0.9571296572685242 0.130874365568161 255 127 0
0.1953817903995514 0.9702476859092712 0.14298704266548157 255 127 0
0.1932215839624405 0.9637097120285034 0.18419809639453888 255 127 0
0.15125621855258942 0.9566568732261658 0.2488555908203125 255 127 0
0.13950639963150024 0.941125214099884 0.3079306185245514 255 127 0
0.13101141154766083 0.9195833802223206 0.37040841579437256 255 127 0
0.1030438020825386 0.9114834070205688 0.3982210159301758 255 127 0
0.17726749181747437 0.9012150168418884 0.3954588770866394 255 127 0
0.24446603655815125 0.8987705111503601 0.3639339506626129 255 127 0
0.24677932262420654 0.9146015644073486 0.32031846046447754 255 127 0
0.1900779753923416 0.9227594137191772 0.335239440202713 255 127 0
0.13613665103912354 0.9171152114868164 0.37465524673461914 255 127 0
0.1118207722902298 0.8764708638191223 0.46828925609588623 255 127 0
0.06536424160003662 0.8710412979125977 0.4868415594100952 255 127 0
0.059323813766241074 0.8766821026802063 0.4773983955383301 255 127 0
0.02742985263466835 0.8908843994140625 0.4534011483192444 255 127 0
0.015363017097115517 0.8664835691452026 0.49896925687789917 255 127 0
0.023289766162633896 0.8523717522621155 0.5224173069000244 255 127 0
0.01852169819176197 0.8070322275161743 0.5902168154716492 255 127 0
-0.05843096226453781 0.7694195508956909 0.6360655426979065 255 127 0
-0.049131397157907486 0.7227944135665894 0.6893143653869629 255 127 0
0.0021351755131036043 0.7429837584495544 0.6693059802055359 255 127 0
0.03385574370622635 0.7814643383026123 0.6230307221412659 255 127 0
-0.033519357442855835 0.8132949471473694 0.5808853507041931 255 127 0
0.007591701112687588 0.7842432260513306 0.6204070448875427 255 127 0
0.06230432167649269 0.7653628587722778 0.6405762434005737 255 127 0
0.07815411686897278 0.7500438094139099 0.6567543745040894 255 127 0
0.04771462082862854 0.763866662979126 0.6436077952384949 255 127 0
0.08006865531206131 0.6996738910675049 0.7099615931510925 255 127 0
0.07033607363700867 0.7164000272750854 0.694135308265686 255 127 0
0.09016168117523193 0.7483074069023132 0.6571962237358093 255 127 0
0.09935591369867325 0.7767497897148132 0.62192302942276 255 127 0
0.1446509063243866 0.7428221106529236 0.6536752581596375 255 127 0
0.144260436296463 0.7692790031433105 0.6224136352539062 255 127 0
0.09035772830247879 0.7589067816734314 0.6449000239372253 255 127 0
0.150023952126503 0.760402262210846 0.6318870186805725 255 127 0
0.2111692577600479 0.7526690363883972 0.6236159801483154 255 127 0
0.18519362807273865 0.7956529259681702 0.5767492055892944 255 127 0
0.12907353043556213 0.7482280731201172 0.6507647633552551 255 127 0
0.14101918041706085 0.7050089836120605 0.6950365900993347 255 127 0
0.19547046720981598 0.7164231538772583 0.6697232127189636 255 127 0
0.103663869202137 0.7413729429244995 0.663038432598114 255 127 0
0.16192367672920227 0.7598267793655396 0.6296379566192627 255 127 0
0.23524212837219238 0.7639074921607971 0.6009213328361511 255 127 0
0.3474285304546356 0.7357205152511597 0.5813851356506348 255 127 0
0.2606279253959656 0.749860405921936 0.6080974340438843 255 127 0
0.12611062824726105 0.7366241812705994 0.6644402742385864 255 127 0
0.21828071773052216 0.7262071967124939 0.6519023180007935 255 127 0
0.17315809428691864 0.7125522494316101 0.6799158453941345 255 127 0
0.16992038488388062 0.7146656513214111 0.6785131096839905 255 127 0
0.12807562947273254 0.7051173448562622 0.6974282264709473 255 127 0
0.14999312162399292 0.7455009818077087 0.649407684803009 255 127 0
0.1624063402414322 0.7558509111404419 0.6342818737030029 255 127 0
0.1151062399148941 0.7446471452713013 0.6574581265449524 255 127 0
0.1075051799416542 0.6889004707336426 0.7168393731117249 255 127 0
0.2221202850341797 0.6745896339416504 0.7039825320243835 255 127 0
0.29286062717437744 0.7137383222579956 0.6362470388412476 255 127 0
0.38421860337257385 0.6777834892272949 0.6268856525421143 255 127 0
0.37209197878837585 0.6742681860923767 0.6378950476646423 255 127 0
0.28344932198524475 0.6028854250907898 0.7457785606384277 255 127 0
0.2897071838378906 0.6769386529922485 0.6766267418861389 255 127 0
0.35117074847221375 0.5885341167449951 0.7282215356826782 255 127 0
0.42470628023147583 0.5498698353767395 0.7192132472991943 255 127 0
0.4661784768104553 0.4374345541000366 0.768979012966156 255 127 0
0.5671991109848022 0.39413759112358093 0.723146378993988 255 127 0
0.5604097843170166 0.3027937114238739 0.7708805799484253 255 127 0
0.4226700961589813 0.1409418284893036 0.8952571749687195 255 127 0
0.31920912861824036 0.13119623064994812 0.9385590553283691 255 127 0
0.21968846023082733 0.13390439748764038 0.966336727142334 255 127 0
0.16248469054698944 0.1099410280585289 0.9805670380592346 255 127 0
0.13273073732852936 0.05601391941308975 0.9895680546760559 255 127 0
0.09737168997526169 0.00899774581193924 0.9952074289321899 255 127 0
0.08966899663209915 0.08507966250181198 0.9923310279846191 255 127 0
0.06369136273860931 0.14538754522800446 0.9873226284980774 255 127 0
0.2320491224527359 0.14666955173015594 0.9615826606750488 255 127 0
0.2743434011936188 0.10922994464635849 0.9554080367088318 255 127 0
0.30976781249046326 0.1484415978193283 0.9391533732414246 255 127 0
0.4008253216743469 0.20012478530406952 0.8940297365188599 255 127 0
0.465859591960907 0.2289276123046875 0.8547321557998657 255 127 0
0.49150416254997253 0.14053429663181305 0.8594613671302795 255 127 0
0.5088313817977905 0.1291009783744812 0.8511308431625366 255 127 0
0.5397980809211731 0.045529283583164215 0.8405624032020569 255 127 0
0.542719841003418 0.07091448456048965 0.8369147181510925 255 127 0
0.5853707194328308 -0.014680043794214725 0.8106328845024109 255 127 0
0.6157097816467285 -0.042009808123111725 0.7868523001670837 255 127 0
0.6466346979141235 -0.013260004110634327 0.7626845836639404 255 127 0
0.7065353393554688 -0.0373157374560833 0.7066932320594788 255 127 0
0.7128337621688843 -0.04695849120616913 0.6997591853141785 255 127 0
0.7224685549736023 -0.030370112508535385 0.6907365918159485 255 127 0
0.7008061408996582 -0.006241932045668364 0.7133245468139648 255 127 0
0.7049585580825806 0.020045466721057892 0.7089651823043823 255 127 0
0.6666292548179626 -0.031912729144096375 0.7447059154510498 255 127 0
0.6031315326690674 -0.028817160055041313 0.7971210479736328 255 127 0
0.5144421458244324 -0.0272518303245306 0.8570919632911682 255 127 0
0.4599189758300781 -0.00011508180614328012 0.8879608511924744 255 127 0
0.4558938443660736 0.04475431516766548 0.8889082074165344 255 127 0
0.4810439944267273 0.06916036456823349 0.873964250087738 255 127 0
0.4972169101238251 0.06473346799612045 0.8652080297470093 255 127 0
0.5011067986488342 0.05142195522785187 0.8638563752174377 255 127 0
0.4947827160358429 0.025065714493393898 0.8686550855636597 255 127 0
0.5315554141998291 -0.009594098664820194 0.8469691872596741 255 127 0
0.5655844807624817 -0.033731695264577866 0.8240002393722534 255 127 0
0.6039760708808899 -0.027630316093564034 0.7965233325958252 255 127 0
0.6259976029396057 -0.05344570800662041 0.7779914736747742 255 127 0
0.657701313495636 -0.01368068065494299 0.7531545758247375 255 127 0
0.6716757416725159 -0.04732160642743111 0.7393324375152588 255 127 0
0.6761478781700134 -0.027500076219439507 0.7362525463104248 255 127 0
0.6673149466514587 -0.09240933507680893 0.7390204668045044 255 127 0
0.7118780612945557 -0.11843259632587433 0.6922451853752136 255 127 0
