ply
format ascii 1.0
element vertex 671
property float x
property float y
property float z
property uchar red
property uchar green
property uchar blue
end_header
-0.4515134394168854 0.687580943107605 -0.3445846438407898 253 184 44
-0.46570783853530884 0.6717055439949036 -0.3502664268016815 253 178 47
-0.4464985728263855 0.6724297404289246 -0.3523348271846771 252 172 50
-0.40174350142478943 0.6870079636573792 -0.3722420036792755 252 166 53
-0.3988778591156006 0.6607649922370911 -0.40194419026374817 250 160 57
-0.4197697639465332 0.6449228525161743 -0.4450231194496155 250 157 58
-0.41686490178108215 0.6690338850021362 -0.3964589238166809 250 159 58
-0.3615246117115021 0.7021936774253845 -0.3505252003669739 251 162 56
-0.36021581292152405 0.7273505330085754 -0.3082389235496521 250 160 57
-0.36996951699256897 0.7312902212142944 -0.26247408986091614 248 149 64
-0.3856935203075409 0.7237263321876526 -0.2682591676712036 246 145 66
-0.3896079361438751 0.6961510181427002 -0.2872561812400818 246 143 67
-0.3495599627494812 0.7081279754638672 -0.28625357151031494 247 146 65
-0.3247640132904053 0.7394068241119385 -0.21104812622070312 247 147 65
-0.34432926774024963 0.722905158996582 -0.19165487587451935 249 154 60
-0.36145925521850586 0.6808855533599854 -0.17071714997291565 250 157 58
-0.353830486536026 0.6403535008430481 -0.15848229825496674 250 160 57
-0.35130923986434937 0.6167874336242676 -0.19434165954589844 250 160 57
-0.3025597631931305 0.6116807460784912 -0.22327178716659546 251 164 54
-0.30945682525634766 0.6129411458969116 -0.25277045369148254 253 176 48
-0.3427774906158447 0.6194791197776794 -0.26899293065071106 253 184 44
-0.3832293152809143 0.6272560358047485 -0.28854697942733765 253 184 44
-0.448942631483078 0.6078721284866333 -0.32889434695243835 253 184 44
-0.4701988101005554 0.6164509057998657 -0.2941279411315918 253 182 45
-0.443101167678833 0.6314880847930908 -0.27051371335983276 252 170 51
-0.39510318636894226 0.6222367882728577 -0.3178519904613495 252 170 51
-0.3778776228427887 0.6156343221664429 -0.32659658789634705 253 176 48
-0.3596038520336151 0.5794162750244141 -0.3203698992729187 253 179 46
-0.319255530834198 0.55391925573349 -0.38234856724739075 253 176 48
-0.309546560049057 0.5629702806472778 -0.37376314401626587 253 179 46
-0.27987051010131836 0.5538190007209778 -0.37618762254714966 253 184 44
-0.24848046898841858 0.5266953706741333 -0.3980211913585663 253 192 41
-0.2250860631465912 0.5170240998268127 -0.4049156606197357 253 196 39
-0.2284604161977768 0.5355947017669678 -0.3993532061576843 252 199 38
-0.21253691613674164 0.5130062699317932 -0.4185311198234558 252 204 37
-0.2298375368118286 0.5196933746337891 -0.44361332058906555 252 199 38
-0.22816799581050873 0.5237106084823608 -0.4508662819862366 253 192 41
-0.2510421574115753 0.5154704451560974 -0.4631083905696869 253 192 41
-0.22810810804367065 0.46636271476745605 -0.5163131952285767 253 193 40
-0.23252961039543152 0.466854065656662 -0.53447425365448 253 196 39
-0.18269266188144684 0.4456426501274109 -0.5399239659309387 253 198 38
-0.17287933826446533 0.40529873967170715 -0.5787566304206848 253 195 40
-0.15630656480789185 0.3931652903556824 -0.6084508299827576 252 199 38
-0.10792982578277588 0.38179323077201843 -0.6031782627105713 251 208 36
-0.09825333952903748 0.3571131229400635 -0.605915904045105 250 213 36
-0.06422831118106842 0.30877143144607544 -0.5904765725135803 250 213 36
-0.04121579974889755 0.31792542338371277 -0.5399729013442993 250 214 36
-0.030640983954072 0.3164796829223633 -0.5370084047317505 248 221 36
-0.012420741841197014 0.32499581575393677 -0.5113616585731506 249 217 36
0.00905361957848072 0.34790271520614624 -0.4909706115722656 247 224 36
0.038165174424648285 0.3492625653743744 -0.508958637714386 250 216 36
0.06482837349176407 0.2843910753726959 -0.5303438901901245 250 214 36
0.10091222077608109 0.24343906342983246 -0.5075193643569946 250 216 36
0.11902125179767609 0.21083484590053558 -0.507983922958374 250 216 36
0.14940804243087769 0.19179365038871765 -0.5105299353599548 250 216 36
0.1283779889345169 0.2059740126132965 -0.5010135769844055 250 216 36
0.08630254119634628 0.2183976024389267 -0.5010349750518799 250 216 36
0.05584775656461716 0.24325527250766754 -0.5196999311447144 250 214 36
0.036783818155527115 0.2528786063194275 -0.5460411310195923 251 211 36
0.05425798147916794 0.27739468216896057 -0.5312180519104004 251 209 36
0.005703600123524666 0.2956066131591797 -0.5189346671104431 252 204 37
-0.005049507599323988 0.2815271317958832 -0.5328221917152405 253 198 38
0.03866347670555115 0.2619004547595978 -0.5541722178459167 253 196 39
0.05288771539926529 0.27332934737205505 -0.5366659760475159 253 196 39
0.028392156586050987 0.2976171374320984 -0.5167075395584106 253 193 40
0.011754652485251427 0.31819286942481995 -0.4916877746582031 253 190 41
0.005133030004799366 0.35418394207954407 -0.4866965115070343 253 190 41
-0.019408831372857094 0.3271491527557373 -0.513355553150177 253 192 41
-0.030007241293787956 0.30956363677978516 -0.547100841999054 253 187 43
-0.03454110026359558 0.3136481046676636 -0.5491685271263123 252 173 49
-0.039247408509254456 0.33144357800483704 -0.5594618916511536 252 170 51
-0.025205545127391815 0.30424538254737854 -0.5841811895370483 252 169 52
0.005579967983067036 0.2906363904476166 -0.5917167663574219 252 167 53
-0.009336876682937145 0.30573341250419617 -0.5741109251976013 251 164 54
-0.03536144644021988 0.30544137954711914 -0.5699703097343445 251 163 55
0.0005520670674741268 0.29848435521125793 -0.5528765916824341 251 162 56
0.01339738816022873 0.2869158089160919 -0.5520994067192078 250 159 58
0.024537907913327217 0.2734473645687103 -0.548582136631012 248 152 62
0.026736034080386162 0.2472313493490219 -0.5699944496154785 247 146 65
0.0489141084253788 0.25290846824645996 -0.5757607817649841 246 145 66
0.09035386890172958 0.26028552651405334 -0.573498010635376 246 142 68
0.0442935973405838 0.2497563362121582 -0.6000200510025024 244 138 71
0.010708858259022236 0.26910462975502014 -0.6214879751205444 243 134 73
-0.026072101667523384 0.2862516939640045 -0.6524978876113892 240 128 77
-0.06623303145170212 0.3034229278564453 -0.6740685701370239 238 124 80
-0.07463910430669785 0.29425811767578125 -0.6842219829559326 239 126 78
-0.13299357891082764 0.2733405828475952 -0.6916057467460632 240 128 77
-0.12738214433193207 0.26001009345054626 -0.6961749196052551 240 129 77
-0.06640390306711197 0.2341061383485794 -0.7283297181129456 242 133 74
-0.09787751734256744 0.1595788300037384 -0.7930102348327637 244 137 71
-0.12359663099050522 0.09964601695537567 -0.8380788564682007 245 141 69
-0.0972750186920166 0.0033691287972033024 -0.8579660058021545 246 143 67
-0.0511944554746151 -0.1102021113038063 -0.8510584235191345 246 145 66
0.04255664348602295 -0.1959604024887085 -0.7933913469314575 247 146 65
0.14163212478160858 -0.2944689989089966 -0.7831632494926453 248 150 63
0.10185505449771881 -0.4077357351779938 -0.7230406999588013 250 156 59
0.10197281092405319 -0.48706305027008057 -0.6124326586723328 250 159 58
0.16883106529712677 -0.5155056118965149 -0.5692431330680847 250 160 57
0.13203804194927216 -0.5368303656578064 -0.5574405193328857 251 164 54
0.17028269171714783 -0.5352705717086792 -0.5354744791984558 252 166 53
0.19449253380298615 -0.5249481201171875 -0.5596969127655029 252 169 52
0.23217278718948364 -0.48881709575653076 -0.5854765176773071 252 169 52
0.25358763337135315 -0.4780590534210205 -0.6079294085502625 252 173 49
0.2905363440513611 -0.4173399806022644 -0.6103135347366333 253 176 48
0.2719798982143402 -0.3958579897880554 -0.6261324882507324 253 176 48
0.2545498311519623 -0.32657384872436523 -0.6644977927207947 253 178 47
0.2215520143508911 -0.3638712167739868 -0.6815987825393677 253 181 45
0.20462031662464142 -0.34332793951034546 -0.6751086115837097 253 181 45
0.20643821358680725 -0.3222242295742035 -0.6762406229972839 253 181 45
0.22725380957126617 -0.3065227270126343 -0.661359965801239 253 179 46
0.17214353382587433 -0.3004913032054901 -0.6557641625404358 253 179 46
0.20985007286071777 -0.26256173849105835 -0.6590758562088013 253 178 47
0.21267522871494293 -0.26416075229644775 -0.6627888679504395 253 179 46
0.21306675672531128 -0.27913936972618103 -0.6474658846855164 253 179 46
0.2281854897737503 -0.3047235310077667 -0.5875666737556458 253 178 47
0.20368337631225586 -0.2651641368865967 -0.6197124719619751 253 178 47
0.24279414117336273 -0.1754656583070755 -0.6330322027206421 252 173 49
0.277483731508255 -0.1729705035686493 -0.6196316480636597 252 167 53
0.1951977163553238 -0.13606137037277222 -0.6467410326004028 252 166 53
0.18134813010692596 -0.14077582955360413 -0.6777358055114746 250 159 58
0.16172264516353607 -0.1160489022731781 -0.6866573095321655 246 145 66
0.1983775794506073 -0.07613544166088104 -0.663774311542511 244 138 71
0.2404417097568512 -0.03923746943473816 -0.6453516483306885 238 124 80
0.1753191351890564 -0.039687156677246094 -0.6781686544418335 234 116 85
0.2157602310180664 -0.07282233238220215 -0.6468261480331421 230 109 90
0.21295353770256042 -0.05150149017572403 -0.5987415313720703 227 103 95
0.1937858760356903 0.002714270493015647 -0.5973178744316101 223 97 99
0.23916451632976532 0.018458932638168335 -0.5827096104621887 215 87 107
0.2551801800727844 0.050230905413627625 -0.5782219171524048 210 80 112
0.2853889763355255 0.09862123429775238 -0.5672600269317627 203 71 119
0.2226463258266449 0.10610851645469666 -0.5694329738616943 195 62 127
0.2373189628124237 0.08221351355314255 -0.5690393447875977 189 55 132
0.38317587971687317 0.012870699167251587 -0.5674124956130981 190 56 131
0.27826428413391113 -0.15750722587108612 -0.660507321357727 191 57 130
0.20479649305343628 -0.37484976649284363 -0.6851468086242676 187 53 134
0.21152548491954803 -0.48921263217926025 -0.6055031418800354 183 48 138
0.24543431401252747 -0.5023735165596008 -0.4680418074131012 184 50 137
0.2591562271118164 -0.5384750962257385 -0.3285823166370392 188 54 133
0.22770647704601288 -0.5610037446022034 -0.2778335511684418 192 59 129
0.2928389608860016 -0.5473395586013794 -0.23214928805828094 193 60 128
0.3188404440879822 -0.5648707151412964 -0.12246989458799362 195 62 127
0.28907909989356995 -0.5912948250770569 -0.058414846658706665 196 63 126
0.27799752354621887 -0.5679004192352295 -0.04288845136761665 195 62 127
0.26229533553123474 -0.5336651802062988 0.011736663989722729 197 64 125
0.22230413556098938 -0.5226672887802124 0.10368453711271286 200 68 122
0.18621096014976501 -0.5579575896263123 0.08535663038492203 200 68 122
0.12675082683563232 -0.5302729606628418 0.08244793862104416 200 68 122
0.10013463348150253 -0.4949221611022949 0.09866561740636826 202 70 120
0.07099681347608566 -0.4815986752510071 0.13402846455574036 205 73 117
0.028380533680319786 -0.4661889672279358 0.15207844972610474 209 79 113
0.0035032315645366907 -0.4228525161743164 0.11409618705511093 212 82 110
0.00494900718331337 -0.38120749592781067 0.12737438082695007 215 86 108
0.006160205230116844 -0.3328985273838043 0.1082894504070282 216 88 106
-0.022920778021216393 -0.29823318123817444 0.031810637563467026 215 87 107
-0.06567531824111938 -0.2956378161907196 0.021843736991286278 215 86 108
-0.1196911484003067 -0.23660880327224731 0.021443350240588188 213 83 109
-0.17102110385894775 -0.14771084487438202 -0.03173092007637024 209 79 113
-0.19991905987262726 -0.12833699584007263 -0.0749988779425621 207 75 116
-0.19092246890068054 -0.0963263213634491 -0.04361919313669205 204 72 118
-0.25631189346313477 -0.03922411426901817 0.005676707718521357 195 62 127
-0.2825450599193573 0.05839632824063301 -0.027859564870595932 186 52 135
-0.28320571780204773 0.058909401297569275 -0.05031394213438034 183 48 138
-0.2867349684238434 0.06293118000030518 -0.04560559615492821 180 45 141
-0.29383543133735657 0.0965876579284668 -0.04396870359778404 175 40 144
-0.2856284976005554 0.15952372550964355 -0.03914673253893852 167 33 151
-0.30104753375053406 0.18353353440761566 -0.02950698882341385 159 26 155
-0.30706024169921875 0.14144259691238403 -0.03698848560452461 155 23 158
-0.2672819495201111 0.10499736666679382 -0.007734258659183979 151 19 160
-0.2689025402069092 0.0964774489402771 0.0386916920542717 149 17 161
-0.30400562286376953 0.07965266704559326 0.01814522035419941 146 15 162
-0.29426082968711853 0.02201950177550316 0.00541723845526576 143 13 163
-0.2603828012943268 -0.0016617919318377972 0.008597781881690025 142 12 164
-0.23611371219158173 -0.0383773148059845 0.040175002068281174 143 13 163
-0.21891248226165771 -0.05548443645238876 0.049173567444086075 147 16 161
-0.22020365297794342 -0.09312884509563446 0.07122250646352768 149 17 161
-0.19602733850479126 -0.09009911864995956 0.08676367998123169 158 25 156
-0.18130892515182495 -0.10480709373950958 0.11377584934234619 169 35 149
-0.1837894767522812 -0.1374041885137558 0.11561073362827301 185 51 136
-0.16632847487926483 -0.1482665091753006 0.1548684537410736 194 61 128
-0.1576802134513855 -0.16247327625751495 0.17740654945373535 198 65 124
-0.14368604123592377 -0.16830629110336304 0.17099957168102264 197 64 125
-0.11276713758707047 -0.19693948328495026 0.17249098420143127 201 69 121
-0.11787981539964676 -0.2174823135137558 0.17775975167751312 203 71 119
-0.1301242560148239 -0.22590646147727966 0.21356095373630524 189 55 132
-0.13723520934581757 -0.21567511558532715 0.25230565667152405 184 50 137
-0.16379126906394958 -0.21046358346939087 0.23665107786655426 177 43 143
-0.1618342399597168 -0.2200223058462143 0.23244312405586243 177 43 143
-0.16175450384616852 -0.2108311504125595 0.24453876912593842 177 43 143
-0.17922988533973694 -0.20525392889976501 0.23910647630691528 182 47 139
-0.19334974884986877 -0.2044987976551056 0.2420591413974762 187 53 134
-0.191794753074646 -0.19463703036308289 0.26883208751678467 194 61 128
-0.20402665436267853 -0.172899529337883 0.2624991834163666 205 73 117
-0.2163931131362915 -0.14471833407878876 0.23717452585697174 215 86 108
-0.21842648088932037 -0.1546482890844345 0.24565330147743225 224 100 97
-0.24014410376548767 -0.15813060104846954 0.2472112625837326 232 113 88
-0.24872739613056183 -0.14700868725776672 0.22984552383422852 238 124 80
-0.24872790277004242 -0.14931640028953552 0.2279547154903412 240 128 77
-0.24522313475608826 -0.13947182893753052 0.2023174911737442 243 135 72
-0.24326248466968536 -0.14590170979499817 0.20872020721435547 243 134 73
-0.2545653283596039 -0.14870114624500275 0.20288118720054626 241 130 76
-0.24957290291786194 -0.14323395490646362 0.19174352288246155 237 121 82
-0.2620392143726349 -0.15764738619327545 0.192368745803833 232 113 88
-0.2545986473560333 -0.1403936892747879 0.19644364714622498 226 102 96
-0.27498874068260193 -0.13937726616859436 0.2146349996328354 221 95 101
-0.29516422748565674 -0.11656928062438965 0.2144286334514618 215 87 107
-0.32074999809265137 -0.10461392253637314 0.2218228578567505 222 96 100
-0.31158989667892456 -0.07294704765081406 0.22848981618881226 223 97 99
-0.3074377477169037 -0.0612584725022316 0.2332555055618286 219 91 103
-0.3089706003665924 -0.07224276661872864 0.24569573998451233 215 86 108
-0.29254308342933655 -0.03162234649062157 0.24406495690345764 209 79 113
-0.2773810625076294 -0.039350658655166626 0.25231918692588806 209 79 113
-0.26207804679870605 -0.055126406252384186 0.2500579357147217 213 83 109
-0.29644903540611267 -0.08269345015287399 0.25616735219955444 215 87 107
-0.309635728597641 -0.10367970913648605 0.22754129767417908 218 90 104
-0.2683049440383911 -0.09116985648870468 0.23659683763980865 220 94 102
-0.27739039063453674 -0.09889717400074005 0.22992204129695892 217 89 105
-0.29163962602615356 -0.11773745715618134 0.2302434891462326 214 85 109
-0.26676446199417114 -0.12312507629394531 0.24593140184879303 214 85 109
-0.28292664885520935 -0.1210889145731926 0.23368297517299652 217 89 105
-0.2780662178993225 -0.12554867565631866 0.22717010974884033 218 90 104
-0.26235756278038025 -0.12170389294624329 0.2350742220878601 222 96 100
-0.2718164920806885 -0.11425940692424774 0.24571110308170319 225 101 96
-0.2705405354499817 -0.11112668365240097 0.23875489830970764 219 91 103
-0.27726656198501587 -0.12147952616214752 0.24403320252895355 213 83 109
-0.28610703349113464 -0.11040536314249039 0.2469264715909958 209 79 113
-0.2717148959636688 -0.10149277001619339 0.24134595692157745 205 73 117
-0.2627013027667999 -0.09671478718519211 0.22925519943237305 199 66 123
-0.24810859560966492 -0.1058773398399353 0.2309088259935379 192 59 129
-0.25309640169143677 -0.12001866847276688 0.22448782622814178 191 57 130
-0.2731478214263916 -0.13260191679000854 0.2110755741596222 196 63 126
-0.2672717869281769 -0.1260322481393814 0.22996029257774353 198 65 124
-0.2803409695625305 -0.11167588084936142 0.24481207132339478 194 61 128
-0.2903994023799896 -0.0864773839712143 0.24588370323181152 192 59 129
-0.2739603817462921 -0.06607209891080856 0.2038668543100357 193 60 128
-0.2508910894393921 -0.08992906659841537 0.22360561788082123 189 55 132
-0.27526870369911194 -0.08437790721654892 0.25298380851745605 186 52 135
-0.29089775681495667 -0.04591284692287445 0.2504265308380127 186 52 135
-0.29696980118751526 -0.022296112030744553 0.23883140087127686 183 48 138
-0.29337409138679504 -0.02358243055641651 0.24136441946029663 170 36 148
-0.29855793714523315 -0.027405649423599243 0.2247896045446396 181 46 140
-0.2975775897502899 -0.027854565531015396 0.22115805745124817 181 46 140
-0.3010760545730591 -0.024885127320885658 0.2096298336982727 177 43 143
-0.2827277183532715 -0.02402256615459919 0.21126815676689148 169 35 149
-0.26996326446533203 -0.026323329657316208 0.23167364299297333 158 25 156
-0.2844398319721222 -0.023545701056718826 0.2238655537366867 153 20 159
-0.28399860858917236 -0.025449588894844055 0.2112295925617218 147 16 161
-0.27792027592658997 -0.03126175329089165 0.20939327776432037 133 6 166
-0.2867332398891449 -0.03178267180919647 0.20137493312358856 130 4 167
-0.28287431597709656 -0.026663577184081078 0.19467155635356903 124 2 167
-0.27758821845054626 -0.027009889483451843 0.20328961312770844 115 0 168
-0.27353137731552124 -0.027038736268877983 0.19884426891803741 108 0 168
-0.282806396484375 -0.0390387699007988 0.2007712721824646 106 0 167
-0.27858757972717285 -0.03384784981608391 0.18892964720726013 106 0 167
-0.26380684971809387 -0.0346919484436512 0.18520548939704895 111 0 168
-0.2618357539176941 -0.04639238491654396 0.19713816046714783 111 0 168
-0.26000505685806274 -0.04743523895740509 0.1925143152475357 108 0 168
-0.26787489652633667 -0.05763130262494087 0.1925283968448639 103 0 167
-0.26263371109962463 -0.06280043721199036 0.1934405118227005 103 0 167
-0.25323721766471863 -0.07519793510437012 0.2026505172252655 104 0 167
-0.24233976006507874 -0.08538181334733963 0.2165932059288025 117 0 168
-0.23171183466911316 -0.09365297108888626 0.20897570252418518 137 8 165
-0.21887250244617462 -0.09869307279586792 0.21209554374217987 149 17 161
-0.2247813642024994 -0.1221214309334755 0.20778873562812805 151 19 160
-0.22269172966480255 -0.12435930222272873 0.2051011621952057 149 17 161
-0.20979280769824982 -0.13094237446784973 0.2012893557548523 146 15 162
-0.1996956169605255 -0.1374351680278778 0.20533621311187744 143 13 163
-0.20855917036533356 -0.1459948718547821 0.20456436276435852 143 13 163
-0.20505684614181519 -0.146654412150383 0.20430003106594086 154 21 158
-0.20915070176124573 -0.14960163831710815 0.2039375901222229 155 23 158
-0.21319225430488586 -0.14687193930149078 0.19417977333068848 153 20 159
-0.21175390481948853 -0.14959537982940674 0.18477384746074677 139 9 164
-0.2055964469909668 -0.15189670026302338 0.1939501315355301 129 4 167
-0.21475864946842194 -0.15261614322662354 0.19325394928455353 133 6 166
-0.21525757014751434 -0.14788953959941864 0.18629299104213715 137 8 165
-0.20808519423007965 -0.13804057240486145 0.1870928406715393 139 9 164
-0.2041294127702713 -0.1442335695028305 0.19057141244411469 144 14 163
-0.20337730646133423 -0.14480367302894592 0.20083722472190857 147 16 161
-0.20518052577972412 -0.14783722162246704 0.19235576689243317 147 16 161
-0.20053881406784058 -0.1489868462085724 0.19720414280891418 151 19 160
-0.20377551019191742 -0.15610826015472412 0.19780707359313965 154 21 158
-0.19373288750648499 -0.14487966895103455 0.20567864179611206 160 27 155
-0.19929412007331848 -0.15924397110939026 0.19166961312294006 154 21 158
-0.19863127171993256 -0.15655092895030975 0.18911756575107574 154 21 158
-0.19110868871212006 -0.16745786368846893 0.17778797447681427 153 20 159
-0.18258601427078247 -0.17762823402881622 0.18570327758789062 163 29 153
-0.1815011352300644 -0.18166300654411316 0.1772482693195343 172 37 147
-0.1787644624710083 -0.1822434365749359 0.18021085858345032 176 42 143
-0.1717071384191513 -0.18070299923419952 0.18575213849544525 175 40 144
-0.17913393676280975 -0.19574624300003052 0.15958450734615326 177 43 143
-0.15897931158542633 -0.19936268031597137 0.1796947568655014 178 44 142
-0.15162776410579681 -0.2112569808959961 0.1727960854768753 177 43 143
-0.13015836477279663 -0.22275786101818085 0.1759023815393448 177 43 143
-0.11331699788570404 -0.2504440248012543 0.18130379915237427 174 39 145
-0.09355658292770386 -0.24455809593200684 0.1900002509355545 174 39 145
-0.0783974826335907 -0.24847334623336792 0.19403153657913208 185 51 136
-0.07590733468532562 -0.23433402180671692 0.20571616291999817 185 51 136
-0.08275698125362396 -0.23285198211669922 0.21379424631595612 192 59 129
-0.08917649835348129 -0.23022562265396118 0.2068343460559845 192 59 129
-0.07436426728963852 -0.22129249572753906 0.19820430874824524 195 62 127
-0.06583636999130249 -0.22511906921863556 0.1986696869134903 201 69 121
-0.08692280948162079 -0.2429669350385666 0.19327005743980408 206 74 117
-0.09359624236822128 -0.2476780116558075 0.19726336002349854 208 77 115
-0.10397923737764359 -0.2418040782213211 0.19617697596549988 211 81 111
-0.1308026909828186 -0.2270362228155136 0.17733381688594818 212 82 110
-0.13450194895267487 -0.18930283188819885 0.21348032355308533 210 80 112
-0.14127440750598907 -0.15682809054851532 0.19344182312488556 205 73 117
-0.1793595850467682 -0.13491976261138916 0.1866864114999771 202 70 120
-0.21525855362415314 -0.08061160147190094 0.20625899732112885 202 70 120
-0.26266905665397644 0.003519617486745119 0.2129613757133484 204 72 118
-0.32032641768455505 0.05497976019978523 0.2050173282623291 209 78 114
-0.35076385736465454 0.07426640391349792 0.1558438390493393 212 82 110
-0.35371190309524536 0.051456887274980545 0.11063409596681595 215 87 107
-0.34969910979270935 0.08245118707418442 0.1389111429452896 211 81 111
-0.3932197391986847 0.1346382200717926 0.12285098433494568 209 78 114
-0.4422098994255066 0.16584406793117523 0.08858870714902878 208 77 115
-0.4523760974407196 0.18170779943466187 0.08368424326181412 207 75 116
-0.4266083240509033 0.16941134631633759 0.1322346031665802 208 77 115
-0.43046846985816956 0.16882897913455963 0.18310196697711945 210 80 112
-0.4693639278411865 0.22076429426670074 0.19977648556232452 211 81 111
-0.4923900067806244 0.25833162665367126 0.22122693061828613 216 88 106
-0.5006475448608398 0.2980796992778778 0.20749276876449585 214 85 109
-0.47540047764778137 0.31574133038520813 0.24226370453834534 210 80 112
-0.5205743908882141 0.35154521465301514 0.23734043538570404 214 85 109
-0.5618563294410706 0.40250450372695923 0.22357212007045746 216 88 106
-0.5639471411705017 0.47161486744880676 0.14755678176879883 220 94 102
-0.5789737105369568 0.48076489567756653 0.11184176057577133 221 95 101
-0.5437412261962891 0.5042153000831604 0.10332977771759033 219 91 103
-0.5549541711807251 0.5289143323898315 0.08959726989269257 216 88 106
-0.5581395626068115 0.5776763558387756 0.07850874960422516 218 90 104
-0.510744571685791 0.5934087634086609 0.06923876702785492 223 97 99
-0.5338352918624878 0.5873717069625854 0.056582070887088776 221 95 101
-0.4875361919403076 0.6072384715080261 0.08183153718709946 214 85 109
-0.45630335807800293 0.6275498270988464 0.06074901670217514 209 79 113
-0.4265996515750885 0.664216935634613 0.03900500014424324 209 78 114
-0.38009312748908997 0.6668802499771118 0.06482475996017456 208 77 115
-0.34226855635643005 0.6797459125518799 0.08932431787252426 209 78 114
-0.3586398661136627 0.6788060665130615 0.1024702936410904 212 82 110
-0.3535773456096649 0.6761468648910522 0.11827875673770905 217 89 105
-0.32557305693626404 0.6746348738670349 0.15191851556301117 223 97 99
-0.34600630402565 0.6638205647468567 0.12152449041604996 225 101 96
-0.35607239603996277 0.6603184342384338 0.12827564775943756 227 104 94
-0.3330911695957184 0.6534119248390198 0.14156249165534973 230 109 90
-0.324337899684906 0.6440024375915527 0.12633439898490906 233 114 87
-0.31417030096054077 0.6417673230171204 0.14080747961997986 236 120 83
-0.270093709230423 0.6509376764297485 0.14139151573181152 239 125 79
-0.2802669405937195 0.6329610347747803 0.1180419772863388 240 129 77
-0.27179014682769775 0.6436015963554382 0.09883245080709457 240 129 77
-0.25529029965400696 0.6397391557693481 0.09335014224052429 239 126 78
-0.248966783285141 0.6420050263404846 0.036290451884269714 236 120 83
-0.25011587142944336 0.6414849162101746 0.0456375926733017 240 128 77
-0.24504761397838593 0.6372851729393005 0.0312870554625988 241 130 76
-0.22101028263568878 0.6410261988639832 0.021301710978150368 241 130 76
-0.22011181712150574 0.6277698278427124 -0.009279796853661537 241 130 76
-0.21699197590351105 0.6469385623931885 -0.019372321665287018 241 130 76
-0.19807350635528564 0.6342813968658447 -0.032916609197854996 242 132 75
-0.19741272926330566 0.6384108662605286 -0.038584355264902115 242 133 74
-0.17625023424625397 0.6322503685951233 -0.06167377904057503 240 129 77
-0.17521589994430542 0.620795488357544 -0.05679519474506378 239 126 78
-0.16617119312286377 0.6317957639694214 -0.08877923339605331 242 133 74
-0.17786052823066711 0.6124078035354614 -0.09828303754329681 245 141 69
-0.16373617947101593 0.6249185800552368 -0.09815964102745056 245 139 70
-0.14360478520393372 0.6506368517875671 -0.08793274313211441 244 137 71
-0.15743090212345123 0.6035746335983276 -0.0696699395775795 244 137 71
-0.13468630611896515 0.625511109828949 -0.07039550691843033 244 138 71
-0.15948709845542908 0.6071915626525879 -0.055010836571455 244 137 71
-0.14709660410881042 0.625399112701416 -0.0805673748254776 245 141 69
-0.1515336036682129 0.6317340731620789 -0.06847532838582993 246 143 67
-0.1802295744419098 0.6271896958351135 -0.06337592005729675 246 142 68
-0.1836984008550644 0.6564891934394836 -0.08977311104536057 246 145 66
-0.20778636634349823 0.6665198802947998 -0.08406008780002594 246 143 67
-0.2206466645002365 0.6649413704872131 -0.09409920871257782 245 139 70
-0.21479296684265137 0.6820321679115295 -0.11540353298187256 243 135 72
-0.21713292598724365 0.675954282283783 -0.11691977828741074 243 134 73
-0.23259972035884857 0.6770756244659424 -0.10070165991783142 243 134 73
-0.23444190621376038 0.6749162673950195 -0.12380395084619522 242 133 74
-0.22906619310379028 0.6765830516815186 -0.13461340963840485 244 138 71
-0.23228761553764343 0.6547873020172119 -0.1432829052209854 247 146 65
-0.2506057024002075 0.6613461375236511 -0.12685471773147583 249 154 60
-0.27601251006126404 0.6747065186500549 -0.12823083996772766 251 163 55
-0.2765774130821228 0.6798310279846191 -0.15137720108032227 252 172 50
-0.3071850836277008 0.7020654082298279 -0.1261385977268219 253 181 45
-0.3492840528488159 0.7174670696258545 -0.12987801432609558 253 192 41
-0.3552532196044922 0.7236883044242859 -0.15053191781044006 253 196 39
-0.3745782971382141 0.7130957245826721 -0.18413057923316956 253 198 38
-0.4142765402793884 0.7046392560005188 -0.18139496445655823 252 199 38
-0.46896588802337646 0.6894872188568115 -0.20994949340820312 252 204 37
-0.4664861261844635 0.6828019618988037 -0.20830270648002625 252 206 37
-0.5053357481956482 0.6606639623641968 -0.19900667667388916 251 209 36
-0.5384349822998047 0.625603973865509 -0.21607662737369537 250 214 36
-0.5312007665634155 0.625950038433075 -0.1961517184972763 251 211 36
-0.5362685918807983 0.675975501537323 -0.15868733823299408 251 208 36
-0.5593512058258057 0.6692870855331421 -0.1324956715106964 252 206 37
-0.5576971173286438 0.6394484639167786 -0.16507670283317566 252 199 38
-0.5640453696250916 0.5941623449325562 -0.1250017285346985 253 195 40
-0.5753676891326904 0.5856600403785706 -0.1306481659412384 253 190 41
-0.5939435958862305 0.5771569609642029 -0.04238343611359596 253 188 42
-0.6053818464279175 0.5434383153915405 -0.060273583978414536 253 193 40
-0.6166883707046509 0.5339868068695068 -0.08303256332874298 253 198 38
-0.5722235441207886 0.5063405632972717 -0.009172148071229458 252 203 37
-0.5999009609222412 0.5171871781349182 -0.034404121339321136 252 201 38
-0.6007652878761292 0.5310407280921936 -0.027143903076648712 253 196 39
-0.575995683670044 0.5481339693069458 -0.06865590810775757 253 196 39
-0.5718708038330078 0.6215661764144897 -0.031212549656629562 253 195 40
-0.5559890866279602 0.621566653251648 0.09218423813581467 253 195 40
-0.5915732383728027 0.6599234938621521 0.049402471631765366 253 195 40
-0.6426588296890259 0.6173150539398193 -0.03436087816953659 253 196 39
-0.6302724480628967 0.595176100730896 -0.03687889128923416 253 196 39
-0.5874658823013306 0.625641405582428 -0.07318896800279617 253 196 39
-0.6068117618560791 0.6216261982917786 -0.0975852683186531 253 196 39
-0.5654165148735046 0.5708028078079224 -0.06110672652721405 253 198 38
-0.6216984987258911 0.5172723531723022 -0.15481899678707123 253 192 41
-0.6275076270103455 0.5387210249900818 -0.13784798979759216 253 198 38
-0.6263543367385864 0.5380156636238098 -0.050118353217840195 252 201 38
-0.6361979246139526 0.5789217352867126 -0.023494074121117592 251 211 36
-0.5905619859695435 0.6386139988899231 0.04267633706331253 250 214 36
-0.5860843062400818 0.6577484607696533 0.037475232034921646 248 221 36
-0.6013622283935547 0.6603295207023621 -0.05962362512946129 247 224 36
-0.6156967878341675 0.6384136080741882 -0.06770563125610352 247 224 36
-0.6255427598953247 0.6218783259391785 0.030351737514138222 248 223 36
-0.6425517201423645 0.6108568906784058 -0.011168024502694607 248 221 36
-0.5959345102310181 0.660508394241333 0.13950565457344055 250 214 36
-0.4525534510612488 0.7246504426002502 0.2312289923429489 252 203 37
-0.3994302451610565 0.6484924554824829 0.17064139246940613 252 201 38
-0.4534083604812622 0.6240915656089783 0.05495832487940788 252 199 38
-0.44816216826438904 0.6910894513130188 0.1531110405921936 253 198 38
-0.49884679913520813 0.7405008673667908 0.17761684954166412 252 199 38
-0.5214326977729797 0.7486779689788818 0.10787998139858246 252 204 37
-0.5032853484153748 0.7431974411010742 0.0364750511944294 252 206 37
-0.45624956488609314 0.740712583065033 0.053014639765024185 251 208 36
-0.3644391894340515 0.7170947790145874 0.07835382223129272 251 208 36
-0.335180401802063 0.7180248498916626 0.03584570065140724 251 211 36
-0.338650643825531 0.7104153037071228 0.11161858588457108 250 214 36
-0.25245732069015503 0.67987060546875 0.10001423209905624 250 216 36
-0.263650506734848 0.6662027835845947 0.07995257526636124 249 217 36
-0.22113600373268127 0.6329595446586609 0.08867186307907104 250 216 36
-0.16037659347057343 0.6187705397605896 0.10369209945201874 250 214 36
-0.10110487788915634 0.6047073006629944 0.2639535367488861 250 214 36
-0.14490313827991486 0.6296284198760986 0.23570162057876587 250 216 36
-0.23412668704986572 0.6000387072563171 0.16477620601654053 250 213 36
-0.3041877746582031 0.6479421854019165 0.15264473855495453 251 211 36
-0.33798399567604065 0.7071709036827087 0.1398610919713974 250 213 36
-0.36484551429748535 0.7457074522972107 0.04914480447769165 251 209 36
-0.40611791610717773 0.7499058246612549 -0.02970648743212223 251 208 36
-0.46117162704467773 0.714364230632782 -0.06478418409824371 252 204 37
-0.4548167288303375 0.7266044616699219 -0.09532652050256729 252 201 38
-0.4298868179321289 0.7420840263366699 -0.09780704230070114 253 196 39
-0.4073519706726074 0.7325096130371094 -0.11343331634998322 253 193 40
-0.37900790572166443 0.732086718082428 -0.10257169604301453 253 190 41
-0.370696097612381 0.7235586047172546 -0.13000299036502838 253 187 43
-0.3531632125377655 0.7209931015968323 -0.14265912771224976 253 185 43
-0.35392484068870544 0.7251421213150024 -0.12830840051174164 253 187 43
-0.37095895409584045 0.7104617953300476 -0.11527857929468155 253 187 43
-0.3953704833984375 0.7083428502082825 -0.11786896735429764 253 192 41
-0.3590412139892578 0.7388876676559448 -0.08213488012552261 253 192 41
-0.3401774764060974 0.7312897443771362 -0.05551784113049507 253 193 40
-0.3234691619873047 0.7222933173179626 -0.07173207402229309 253 196 39
-0.31934770941734314 0.7065072059631348 -0.07788966596126556 252 199 38
-0.3054035007953644 0.6999559998512268 -0.07053891569375992 252 203 37
-0.29571154713630676 0.6918440461158752 -0.05805573612451553 252 203 37
-0.2810371220111847 0.6762611269950867 -0.0660320594906807 252 204 37
-0.2518632411956787 0.6730326414108276 -0.025950316339731216 252 204 37
-0.2361150085926056 0.6514206528663635 0.005100524052977562 252 204 37
-0.21872760355472565 0.6503013372421265 0.009221063926815987 252 201 38
-0.1895635575056076 0.664054811000824 0.043175701051950455 252 199 38
-0.20090351998806 0.6499006748199463 0.06959126144647598 253 195 40
-0.1945793479681015 0.6582990884780884 0.052712827920913696 253 195 40
-0.214683398604393 0.6609336733818054 0.050047215074300766 252 204 37
-0.24716557562351227 0.6804949641227722 0.037561893463134766 251 208 36
-0.25390738248825073 0.7085614204406738 -0.014475013129413128 251 209 36
-0.27668124437332153 0.7287997007369995 -0.04576797038316727 250 216 36
-0.29644328355789185 0.7318623661994934 -0.06003860756754875 249 217 36
-0.27759358286857605 0.7437176704406738 -0.12580837309360504 250 216 36
-0.2508685886859894 0.7632603645324707 -0.19180063903331757 250 213 36
-0.26294782757759094 0.7729331254959106 -0.1573243886232376 252 203 37
-0.27249783277511597 0.7485286593437195 -0.14206716418266296 253 193 40
-0.24000905454158783 0.7598961591720581 -0.11472605913877487 253 184 44
-0.20077449083328247 0.7622829079627991 -0.07138979434967041 253 182 45
-0.18822172284126282 0.7488563060760498 -0.08761449158191681 253 185 43
-0.19781814515590668 0.72760009765625 -0.1619374305009842 253 190 41
-0.2240661382675171 0.7507404685020447 -0.08599352091550827 253 188 42
-0.24062082171440125 0.7285182476043701 -0.11182353645563126 253 187 43
-0.2622643709182739 0.7426427006721497 -0.13377094268798828 253 187 43
-0.2901333272457123 0.7505938410758972 -0.13561001420021057 253 184 44
-0.29448413848876953 0.7676154375076294 -0.12827153503894806 253 181 45
-0.26421722769737244 0.7405692338943481 -0.17156104743480682 253 184 44
-0.24897310137748718 0.7162743210792542 -0.25340333580970764 253 176 48
-0.24659517407417297 0.7067697048187256 -0.2953259348869324 252 170 51
-0.30283990502357483 0.684181809425354 -0.37653931975364685 251 163 55
-0.2199999988079071 0.6850516200065613 -0.39039334654808044 250 160 57
-0.195769801735878 0.6262698769569397 -0.40906983613967896 250 159 58
-0.1557742804288864 0.6462987661361694 -0.42963483929634094 251 164 54
-0.19511006772518158 0.6499096155166626 -0.41627490520477295 252 169 52
-0.34630435705184937 0.6271443963050842 -0.46579521894454956 252 172 50
-0.28979697823524475 0.6474156379699707 -0.46038275957107544 252 173 49
-0.33065006136894226 0.6138058304786682 -0.4062371850013733 253 175 49
-0.2559511661529541 0.5459673404693604 -0.4879803955554962 253 178 47
-0.1886288970708847 0.4931412637233734 -0.4981828033924103 253 181 45
-0.16031533479690552 0.5174207091331482 -0.4245924651622772 253 184 44
-0.1785445213317871 0.5054088234901428 -0.4634014666080475 253 181 45
-0.20515403151512146 0.4656887352466583 -0.5742168426513672 252 173 49
-0.2920606732368469 0.5384555459022522 -0.5247637629508972 252 169 52
-0.42503565549850464 0.5163958668708801 -0.5141397714614868 251 164 54
-0.38183271884918213 0.42066434025764465 -0.6398361325263977 248 152 62
-0.4197268486022949 0.2087082415819168 -0.6736891865730286 245 141 69
-0.32283031940460205 0.12975457310676575 -0.5641070008277893 239 126 78
-0.12513437867164612 0.06094673275947571 -0.5858957171440125 232 112 89
-0.008961286395788193 -0.08977995812892914 -0.6615822315216064 228 106 93
0.20343491435050964 -0.19492490589618683 -0.5979322791099548 229 107 92
0.2563878297805786 -0.28102344274520874 -0.5376745462417603 227 104 94
0.22478005290031433 -0.2395523339509964 -0.6200905442237854 222 96 100
0.3147110939025879 -0.32256370782852173 -0.5738372206687927 221 95 101
0.29066234827041626 -0.3325083553791046 -0.5849021077156067 221 95 101
0.29258108139038086 -0.37281012535095215 -0.5167596936225891 220 93 102
0.3351106643676758 -0.36675816774368286 -0.5152363777160645 223 97 99
0.3842673897743225 -0.3950842618942261 -0.4559163451194763 227 104 94
0.40974679589271545 -0.4124383330345154 -0.3220847547054291 227 103 95
0.3802224397659302 -0.4146729111671448 -0.27748438715934753 233 114 87
0.2943143844604492 -0.43285664916038513 -0.2797257602214813 237 123 81
0.17951978743076324 -0.49255120754241943 -0.2216722071170807 242 133 74
0.07520033419132233 -0.4330250322818756 -0.19218480587005615 244 137 71
0.0898638442158699 -0.3711913228034973 -0.30522337555885315 245 139 70
0.1581496000289917 -0.41770708560943604 -0.1791190654039383 246 143 67
0.1562286615371704 -0.4547751843929291 -0.18018577992916107 248 150 63
0.21753177046775818 -0.43948525190353394 -0.17324179410934448 248 150 63
0.2516157627105713 -0.4971145689487457 -0.0539034828543663 248 152 62
0.3150911331176758 -0.48031148314476013 -0.11751631647348404 248 152 62
0.2820497453212738 -0.5191040635108948 -0.04188667610287666 248 150 63
0.288457989692688 -0.5205522775650024 -0.11874961107969284 249 153 61
0.26901957392692566 -0.5337964296340942 -0.16244423389434814 249 154 60
0.24018406867980957 -0.5407657027244568 -0.177076518535614 250 156 59
0.22004882991313934 -0.5297938585281372 -0.2850055396556854 250 157 58
0.26435497403144836 -0.4841565489768982 -0.35077786445617676 251 162 56
0.36674776673316956 -0.40287575125694275 -0.4204464256763458 252 166 53
0.3475002348423004 -0.3850569725036621 -0.43419498205184937 251 164 54
0.3668176233768463 -0.32787564396858215 -0.48352304100990295 251 162 56
0.3637884557247162 -0.3097171187400818 -0.4873477518558502 250 160 57
0.3306191861629486 -0.28045016527175903 -0.5072107315063477 246 145 66
0.3246540427207947 -0.2272283136844635 -0.5447646975517273 245 139 70
0.3034546673297882 -0.197172150015831 -0.6107017397880554 236 120 83
0.325319766998291 -0.14645984768867493 -0.6257787346839905 232 112 89
0.3999212086200714 -0.1803121417760849 -0.6132131218910217 223 98 98
0.351732075214386 -0.17178301513195038 -0.6427723169326782 215 86 108
0.35278308391571045 -0.1548079550266266 -0.6393724679946899 210 80 112
0.37011200189590454 -0.17356808483600616 -0.6642791628837585 207 75 116
0.3542327880859375 -0.13160373270511627 -0.6517779231071472 206 74 117
0.2661333978176117 -0.12974505126476288 -0.6259483098983765 205 73 117
0.15662911534309387 -0.03646013140678406 -0.6554061770439148 202 70 120
0.18184715509414673 0.05217019096016884 -0.6571460366249084 202 70 120
0.23262813687324524 0.10233086347579956 -0.5806074142456055 200 68 122
0.3016441762447357 0.06070958450436592 -0.5114015936851501 201 69 121
0.20322827994823456 0.00018347459263168275 -0.6203083992004395 202 70 120
0.2127399742603302 -0.09003368765115738 -0.6142473220825195 201 69 121
0.4292428493499756 -0.07296055555343628 -0.44641807675361633 201 69 121
0.4777497351169586 -0.1243983656167984 -0.41978949308395386 202 70 120
0.4117351174354553 -0.18430551886558533 -0.4951203763484955 202 70 120
0.43573492765426636 -0.3335169851779938 -0.36063531041145325 204 72 118
0.4002752900123596 -0.3632698357105255 -0.30245012044906616 204 72 118
0.25122973322868347 -0.4654952883720398 -0.22753535211086273 206 74 117
0.03585707023739815 -0.4352857172489166 0.002849093172699213 203 71 119
0.034570079296827316 -0.3658108413219452 0.19928865134716034 201 69 121
-0.16785484552383423 -0.22234657406806946 0.2297016829252243 196 63 126
-0.17211902141571045 -0.09413822740316391 0.17713892459869385 190 56 131
-0.2826075255870819 0.17359083890914917 0.12027869373559952 187 53 134
-0.3133107125759125 0.2897038757801056 0.13042809069156647 187 53 134
-0.4146590530872345 0.3131653964519501 0.10108927637338638 191 57 130
-0.5219402313232422 0.37817689776420593 0.098024882376194 193 60 128
-0.4465283453464508 0.6101719737052917 0.005900134798139334 193 60 128
-0.4384387731552124 0.5459780693054199 0.018728947266936302 193 60 128
-0.4255371689796448 0.4776153266429901 0.004925306886434555 195 62 127
-0.5099928379058838 0.4652468264102936 0.004384564235806465 200 68 122
-0.443400114774704 0.625521719455719 -0.12300891429185867 200 68 122
-0.3568184971809387 0.7188214063644409 -0.12332915514707565 205 73 117
-0.26840633153915405 0.8114851713180542 -0.1277056336402893 211 81 111
-0.36251959204673767 0.8015683889389038 -0.22018970549106598 214 85 109
-0.46109601855278015 0.7014626264572144 -0.29063302278518677 219 91 103
-0.2688820958137512 0.6409788131713867 -0.26553598046302795 220 93 102
-0.36250442266464233 0.52260422706604 -0.19414635002613068 221 95 101
-0.4988769590854645 0.4705726206302643 -0.14738363027572632 222 96 100
-0.4476531744003296 0.5663027763366699 -0.09290522336959839 223 97 99
-0.44920602440834045 0.5004411935806274 -0.0374830961227417 223 97 99
-0.4602475166320801 0.5260840654373169 -0.13242791593074799 222 96 100
-0.3767818212509155 0.6308323740959167 -0.16866937279701233 222 96 100
-0.40501508116722107 0.6637734174728394 -0.15830783545970917 223 97 99
-0.43771493434906006 0.6672037839889526 -0.06669718772172928 223 98 98
-0.42845553159713745 0.6283386945724487 -0.07808414846658707 226 102 96
-0.413394033908844 0.5806180834770203 -0.012325996533036232 227 104 94
-0.4614972174167633 0.5181513428688049 0.04553898051381111 228 106 93
-0.45775485038757324 0.4775961637496948 0.0897904559969902 229 107 92
-0.4244959056377411 0.47017672657966614 0.10386685281991959 231 110 90
-0.40408602356910706 0.39936521649360657 0.14714038372039795 231 110 90
-0.4366702437400818 0.33590278029441833 0.14051395654678345 231 110 90
-0.3833034038543701 0.3583667278289795 0.21099629998207092 229 108 91
-0.3328596353530884 0.3983631432056427 0.1978457123041153 229 107 92
-0.266311377286911 0.2898159623146057 0.25377216935157776 229 107 92
-0.28974753618240356 0.18391190469264984 0.2574198246002197 229 107 92
-0.28916803002357483 0.13984417915344238 0.23468297719955444 227 104 94
-0.2764105498790741 0.15032218396663666 0.2888126075267792 224 100 97
-0.32991015911102295 0.1693396121263504 0.27754494547843933 217 89 105
-0.2854651212692261 0.22708451747894287 0.3078150749206543 218 90 104
-0.2706950306892395 0.2185535728931427 0.27228376269340515 217 89 105
-0.23971061408519745 0.18205197155475616 0.2704733908176422 220 93 102
-0.22516028583049774 0.12932108342647552 0.25025200843811035 215 86 108
-0.29778599739074707 0.08101709187030792 0.2872084379196167 207 75 116
-0.33881059288978577 0.0494336262345314 0.3404799699783325 195 62 127
-0.27154210209846497 0.1650407761335373 0.3258560597896576 184 50 137
-0.21149849891662598 0.11679397523403168 0.3825458884239197 174 39 145
-0.10141373425722122 0.06428134441375732 0.4411426782608032 165 31 151
-0.06744104623794556 -0.03198320418596268 0.5214860439300537 160 27 155
-0.05252477154135704 -0.03996114060282707 0.5381625294685364 159 26 155
0.04121040552854538 -0.10725013166666031 0.5713027715682983 158 25 156
0.07288242876529694 -0.16295422613620758 0.6241969466209412 157 24 157
0.07851316034793854 -0.18064263463020325 0.6130959391593933 160 27 155
0.03431792929768562 -0.2047833800315857 0.5679697394371033 163 29 153
0.028008047491312027 -0.23432579636573792 0.5550867915153503 168 34 150
0.040524814277887344 -0.2162373661994934 0.5020048022270203 173 38 146
0.02297237142920494 -0.23649179935455322 0.4633913040161133 180 45 141
-0.018925504758954048 -0.25699591636657715 0.4043980538845062 186 52 135
-0.030062979087233543 -0.2550410330295563 0.4333953261375427 188 54 133
-0.04483840614557266 -0.2495700865983963 0.40778177976608276 194 61 128
-0.06007864326238632 -0.319560706615448 0.44135168194770813 201 69 121
-0.05174059048295021 -0.3085816502571106 0.41400933265686035 207 75 116
-0.049000468105077744 -0.30513080954551697 0.4374583065509796 210 80 112
-0.09864618629217148 -0.26993250846862793 0.42524734139442444 212 82 110
-0.08894069492816925 -0.22436992824077606 0.42868348956108093 213 83 109
-0.1541353166103363 -0.21541662514209747 0.4227255582809448 214 85 109
-0.15965276956558228 -0.26126334071159363 0.3856796324253082 214 85 109
-0.11821753531694412 -0.2484600991010666 0.4170883893966675 213 83 109
-0.1584244817495346 -0.2448635846376419 0.3640783131122589 213 83 109
-0.1758698672056198 -0.22997930645942688 0.3612310290336609 207 75 116
-0.1869090497493744 -0.22456102073192596 0.3834437429904938 205 73 117
-0.2252897173166275 -0.1964980810880661 0.40387558937072754 202 70 120
-0.201646089553833 -0.1907883733510971 0.42305970191955566 205 73 117
-0.17728376388549805 -0.2352335900068283 0.4073965549468994 205 73 117
-0.11958255618810654 -0.23544810712337494 0.44972097873687744 205 73 117
-0.0987490639090538 -0.24311445653438568 0.5127596259117126 207 75 116
-0.04498964548110962 -0.27516764402389526 0.5424260497093201 207 75 116
0.012014630250632763 -0.28856173157691956 0.5638975501060486 207 75 116
-0.02773481421172619 -0.3251803517341614 0.5663241147994995 207 75 116
-0.05332145467400551 -0.32041120529174805 0.6248520016670227 209 78 114
0.01208997331559658 -0.26493483781814575 0.7139297127723694 209 78 114
0.14579354226589203 -0.25948166847229004 0.7801000475883484 209 78 114
0.21801039576530457 -0.2861522436141968 0.7938724756240845 207 75 116
0.23888683319091797 -0.24691039323806763 0.801826000213623 209 78 114
0.2924453318119049 -0.19979488849639893 0.8101189136505127 207 75 116
0.28039097785949707 -0.17207416892051697 0.7309814691543579 209 78 114
0.29004672169685364 -0.15195587277412415 0.6721437573432922 208 77 115
0.3783636689186096 -0.10065142065286636 0.5806995630264282 208 77 115
0.36607587337493896 -0.07897069305181503 0.49089181423187256 210 80 112
0.33552128076553345 -0.014731090515851974 0.41710248589515686 209 78 114
0.3611619472503662 0.005558117292821407 0.3928906321525574 209 78 114
0.3694297969341278 0.011525914072990417 0.35019776225090027 209 79 113
0.3966606557369232 0.02756516821682453 0.36524689197540283 208 77 115
0.3958664536476135 -0.0004630267503671348 0.3489425480365753 213 83 109
0.3647874593734741 0.008515894412994385 0.3371678590774536 212 82 110
0.3564673364162445 0.023255422711372375 0.32973262667655945 211 81 111
0.3494366407394409 0.04305155575275421 0.28581857681274414 213 83 109
0.40276479721069336 0.030429085716605186 0.310453861951828 209 79 113
0.39952272176742554 0.023427067324519157 0.295297771692276 204 72 118
0.3975900411605835 0.03843168169260025 0.27175310254096985 200 68 122
0.3494892418384552 0.086668960750103 0.25062844157218933 198 65 124
0.3318343162536621 0.13422229886054993 0.23138904571533203 196 63 126
0.3338833153247833 0.14280965924263 0.17049342393875122 193 60 128
0.36674362421035767 0.14881531894207 0.1498861014842987 191 57 130
0.4459415674209595 0.13293668627738953 0.26599857211112976 193 60 128
0.47121909260749817 0.08383847773075104 0.3219677209854126 191 57 130
0.4057810306549072 -0.0015863466542214155 0.34862035512924194 184 50 137
0.3944685757160187 -0.037792500108480453 0.367230623960495 177 43 143
0.4275070130825043 -0.0021051231306046247 0.3129456043243408 176 42 143
0.4485722780227661 -0.03286482393741608 0.3203330338001251 177 43 143
0.4305354058742523 -0.08516505360603333 0.3483152389526367 181 46 140
0.43662893772125244 -0.09902899712324142 0.3780986964702606 183 48 138
