ply
format ascii 1.0
element vertex 706
property float x
property float y
property float z
property uchar red
property uchar green
property uchar blue
end_header
-0.42987698316574097 0.2154630571603775 0.3345843553543091 0 0 255
-0.4110359251499176 0.2111167311668396 0.3247837424278259 0 0 255
-0.4159678816795349 0.21609291434288025 0.32574254274368286 0 0 255
-0.42268332839012146 0.2239716351032257 0.3202425539493561 0 0 255
-0.4130661189556122 0.22115910053253174 0.322883278131485 0 0 255
-0.41306447982788086 0.22093644738197327 0.32198330760002136 0 0 255
-0.42443907260894775 0.2335750162601471 0.32403016090393066 0 0 255
-0.41126054525375366 0.21510504186153412 0.31904852390289307 0 0 255
-0.426312118768692 0.2089235782623291 0.3296767473220825 0 0 255
-0.42389553785324097 0.2201130986213684 0.32049039006233215 0 0 255
-0.4048698842525482 0.20919464528560638 0.32273024320602417 0 0 255
-0.402582585811615 0.2155483514070511 0.30405479669570923 0 0 255
-0.3912697732448578 0.2177802324295044 0.3149784207344055 0 0 255
-0.3549802005290985 0.23035600781440735 0.33462491631507874 0 0 255
-0.3199577331542969 0.23798201978206635 0.3386361300945282 0 0 255
-0.3222533166408539 0.25602373480796814 0.34183624386787415 0 0 255
-0.28948768973350525 0.2317463904619217 0.3269262909889221 0 0 255
-0.2887594997882843 0.2337893545627594 0.328351229429245 0 0 255
-0.2602557837963104 0.24746420979499817 0.34880340099334717 0 0 255
-0.2135109156370163 0.2640376687049866 0.35418662428855896 0 0 255
-0.20080845057964325 0.2833501994609833 0.376653790473938 0 0 255
-0.21276983618736267 0.2995239198207855 0.3616304099559784 0 0 255
-0.1863512247800827 0.28144994378089905 0.3693781793117523 0 0 255
-0.14286677539348602 0.29089492559432983 0.3793039917945862 0 0 255
-0.12482906132936478 0.3081277012825012 0.3800521492958069 0 0 255
-0.11163153499364853 0.3018737733364105 0.3629707992076874 0 0 255
-0.1407092809677124 0.3022192716598511 0.3725207448005676 0 0 255
-0.14843353629112244 0.31555429100990295 0.3826846778392792 0 0 255
-0.1462271362543106 0.3210945725440979 0.3901008069515228 0 0 255
-0.13327284157276154 0.31212615966796875 0.3932477533817291 0 0 255
-0.14407305419445038 0.3329896926879883 0.38583433628082275 0 0 255
-0.1386697143316269 0.3320489823818207 0.39311084151268005 0 0 255
-0.13521546125411987 0.33550506830215454 0.39236119389533997 0 0 255
-0.1621887981891632 0.3340790867805481 0.3778652548789978 0 0 255
-0.18793082237243652 0.34298673272132874 0.4026468098163605 0 0 255
-0.1654386818408966 0.35899874567985535 0.3944336473941803 0 0 255
-0.1261567622423172 0.36464980244636536 0.4197835326194763 0 0 255
-0.09171810001134872 0.3575296103954315 0.42378878593444824 0 0 255
-0.08701344579458237 0.37961047887802124 0.4191748797893524 0 0 255
-0.05864526331424713 0.3932591676712036 0.41919705271720886 0 0 255
0.006590357981622219 0.40378543734550476 0.4152458906173706 0 0 255
0.03402405232191086 0.4100337326526642 0.43560147285461426 0 0 255
0.065418541431427 0.4178091585636139 0.4360693693161011 0 0 255
0.07941728830337524 0.42458197474479675 0.4189344644546509 0 0 255
0.10114726424217224 0.421432763338089 0.4335732161998749 0 0 255
0.11145655065774918 0.4151800870895386 0.43642887473106384 0 0 255
0.165150985121727 0.4037533700466156 0.42204615473747253 0 0 255
0.1972910761833191 0.4204191565513611 0.4190927743911743 0 0 255
0.21011699736118317 0.42993322014808655 0.4290212392807007 0 0 255
0.26677289605140686 0.42819711565971375 0.4136577248573303 0 0 255
0.3315528929233551 0.4481549859046936 0.4079289734363556 0 0 255
0.367431104183197 0.4472511410713196 0.4015050530433655 0 0 255
0.3654386103153229 0.4289960265159607 0.4055177569389343 0 0 255
0.37611088156700134 0.4107871651649475 0.39686089754104614 0 0 255
0.37403127551078796 0.43710511922836304 0.40207698941230774 0 0 255
0.4139002859592438 0.4275661110877991 0.39806005358695984 0 0 255
0.416248619556427 0.41908758878707886 0.39856842160224915 0 0 255
0.410946786403656 0.41659554839134216 0.39323899149894714 0 0 255
0.4474538564682007 0.42175236344337463 0.3710900843143463 0 0 255
0.4516325891017914 0.4438086152076721 0.3735894560813904 0 0 255
0.4906883239746094 0.4221178889274597 0.36311227083206177 0 0 255
0.50340735912323 0.4079062044620514 0.34856846928596497 0 0 255
0.512192964553833 0.39353877305984497 0.35828897356987 0 0 255
0.5301856398582458 0.39737576246261597 0.34516286849975586 0 0 255
0.5341705679893494 0.4016534984111786 0.35181310772895813 0 0 255
0.51747727394104 0.4063587784767151 0.3659684658050537 0 0 255
0.49417874217033386 0.41732606291770935 0.3610385060310364 0 0 255
0.5068829655647278 0.42037397623062134 0.3567987382411957 0 0 255
0.4976603090763092 0.43299373984336853 0.3562973737716675 0 0 255
0.5271438360214233 0.42309805750846863 0.34185367822647095 0 0 255
0.5356962084770203 0.421764075756073 0.3401220440864563 0 0 255
0.5268386602401733 0.4117681682109833 0.3323201537132263 0 0 255
0.5427926182746887 0.3951340615749359 0.34378376603126526 0 0 255
0.5746990442276001 0.39034906029701233 0.32712581753730774 0 0 255
0.5808002948760986 0.40559330582618713 0.30766573548316956 0 0 255
0.5835808515548706 0.3999839425086975 0.2946561872959137 0 0 255
0.5855889320373535 0.3714025020599365 0.3015945851802826 0 0 255
0.5735704302787781 0.3776741027832031 0.3114341199398041 0 0 255
0.5612055659294128 0.3898967504501343 0.3206545412540436 0 0 255
0.5368160605430603 0.4078022539615631 0.33055976033210754 0 0 255
0.5436898469924927 0.4069432318210602 0.3202097713947296 0 0 255
0.5338819026947021 0.40521207451820374 0.35964393615722656 0 0 255
0.5494228005409241 0.3696192502975464 0.34869566559791565 0 0 255
0.5524295568466187 0.3923805058002472 0.36286604404449463 0 0 255
0.5561478734016418 0.4067070186138153 0.3524082899093628 0 0 255
0.5466467142105103 0.4116966426372528 0.33150219917297363 0 0 255
0.5401820540428162 0.39991870522499084 0.3318043351173401 0 0 255
0.5539302229881287 0.37704673409461975 0.3473287522792816 0 0 255
0.5592524409294128 0.38912880420684814 0.3389733135700226 0 0 255
0.5734031200408936 0.39548030495643616 0.3013070523738861 0 0 255
0.571372926235199 0.39487379789352417 0.3057621121406555 0 0 255
0.5894572734832764 0.3531978726387024 0.31516051292419434 0 0 255
0.559505820274353 0.3804317116737366 0.3125566244125366 0 0 255
0.572906494140625 0.38232022523880005 0.3126260042190552 0 0 255
0.5607314109802246 0.4061609208583832 0.32248786091804504 0 0 255
0.5864477753639221 0.3830904960632324 0.30978792905807495 0 0 255
0.5801329016685486 0.3821600675582886 0.3030484914779663 0 0 255
0.6018676161766052 0.3626101315021515 0.2646685242652893 0 0 255
0.6170873045921326 0.358578622341156 0.2712545096874237 0 0 255
0.6133101582527161 0.35651496052742004 0.26901865005493164 0 0 255
0.6201552748680115 0.35278791189193726 0.2617340087890625 0 0 255
0.6083799600601196 0.36156269907951355 0.2604718804359436 0 0 255
0.6091583371162415 0.36929023265838623 0.2619767189025879 0 0 255
0.6079750657081604 0.37412574887275696 0.25341877341270447 0 0 255
0.609182596206665 0.3643369972705841 0.26885223388671875 0 0 255
0.6055458784103394 0.34867212176322937 0.28199470043182373 0 0 255
0.5848356485366821 0.38570037484169006 0.2795262336730957 0 0 255
0.5817641615867615 0.39620906114578247 0.28453633189201355 0 0 255
0.5880826711654663 0.3858601152896881 0.2811364531517029 0 0 255
0.5995303988456726 0.37195563316345215 0.287153959274292 0 0 255
0.5843379497528076 0.40635842084884644 0.2688516676425934 0 0 255
0.583669900894165 0.4068816602230072 0.2801402509212494 0 0 255
0.597913920879364 0.38096168637275696 0.2713070809841156 0 0 255
0.6269374489784241 0.3713291883468628 0.24528756737709045 0 0 255
0.6193622350692749 0.3852481544017792 0.24188216030597687 0 0 255
0.6284727454185486 0.39061570167541504 0.21802689135074615 0 0 255
0.6357046961784363 0.37516406178474426 0.17051361501216888 0 0 255
0.6600235104560852 0.32198116183280945 0.17468108236789703 0 0 255
0.6360117197036743 0.2998789846897125 0.1745748519897461 0 0 255
0.6363310813903809 0.3308005630970001 0.18243400752544403 0 0 255
0.6536961197853088 0.31090453267097473 0.20391486585140228 0 0 255
0.6363762617111206 0.3181385099887848 0.18388262391090393 0 0 255
0.6247149705886841 0.31295937299728394 0.1570599228143692 0 0 255
0.6106383800506592 0.33221718668937683 0.1272232085466385 0 0 255
0.6253293752670288 0.3024333119392395 0.13443855941295624 0 0 255
0.6174917221069336 0.2748853862285614 0.11515294015407562 0 0 255
0.5831186175346375 0.2881585657596588 0.09152264147996902 0 0 255
0.55935138463974 0.2676088511943817 0.09996514767408371 0 0 255
0.502104640007019 0.2884841561317444 0.07491850852966309 0 0 255
0.46148794889450073 0.2613198757171631 0.07190263271331787 0 0 255
0.43178045749664307 0.20052678883075714 0.03009258396923542 0 0 255
0.4030540883541107 0.1690683364868164 0.009224386885762215 0 0 255
0.3482212722301483 0.17690913379192352 -0.0391555055975914 0 0 255
0.23902955651283264 0.16087999939918518 -0.027253588661551476 0 0 255
0.17247755825519562 0.08268751949071884 -0.011560331098735332 0 0 255
0.1279185712337494 0.1030365377664566 -0.004268752411007881 0 0 255
0.17547060549259186 0.19971230626106262 0.008809221908450127 0 0 255
0.18326635658740997 0.19731095433235168 0.0399492047727108 0 0 255
0.1297004669904709 0.16083483397960663 0.051234547048807144 0 0 255
0.07262413203716278 0.1781347543001175 0.03057784028351307 0 0 255
0.13506725430488586 0.19219617545604706 0.07218213379383087 0 0 255
0.1095300167798996 0.1570892333984375 0.016148284077644348 0 0 255
0.14982911944389343 0.1706162840127945 -0.026234548538923264 0 0 255
0.171280175447464 0.19021758437156677 0.022749703377485275 0 0 255
0.1469273716211319 0.10602439194917679 -0.056710947304964066 0 0 255
0.14639075100421906 0.10197097808122635 -0.05590292811393738 0 0 255
0.14486053586006165 0.04837493225932121 -0.056667130440473557 0 0 255
0.0966527909040451 0.024023469537496567 -0.1707703024148941 0 0 255
0.12423516809940338 0.031923558562994 -0.11903435736894608 0 0 255
0.15956206619739532 0.04017121344804764 -0.13088847696781158 0 0 255
0.16892564296722412 0.07214836031198502 -0.12891468405723572 0 0 255
0.15888704359531403 0.07834850251674652 -0.1297765076160431 0 0 255
0.1688813716173172 0.06688296794891357 -0.11096367985010147 0 0 255
0.18193192780017853 0.0585104376077652 -0.12391465902328491 0 0 255
0.17181396484375 0.06060338392853737 -0.13796760141849518 0 0 255
0.17141669988632202 0.021486878395080566 -0.13716748356819153 0 0 255
0.16743020713329315 0.0027272601146250963 -0.16399157047271729 0 0 255
0.1655695140361786 0.02096012607216835 -0.1639735847711563 0 0 255
0.20271705090999603 0.022719284519553185 -0.17360976338386536 0 0 255
0.19966228306293488 0.017264140769839287 -0.18384075164794922 0 0 255
0.22935648262500763 -0.0194211658090353 -0.18882691860198975 0 0 255
0.23305203020572662 -0.0372932106256485 -0.19265425205230713 0 0 255
0.2378145158290863 0.014820089563727379 -0.19104789197444916 0 0 255
0.2574652433395386 0.013255157507956028 -0.19827193021774292 0 0 255
0.2906554937362671 -0.02902962453663349 -0.20830611884593964 0 0 255
0.2721264362335205 -0.031770557165145874 -0.22966118156909943 0 0 255
0.2870800793170929 0.02339940518140793 -0.21061736345291138 0 0 255
0.2836344838142395 0.019292069599032402 -0.21069256961345673 0 0 255
0.24977321922779083 -0.012200290337204933 -0.23174232244491577 0 0 255
0.2684200406074524 -0.02058126963675022 -0.20510879158973694 0 0 255
0.29126402735710144 -0.020459318533539772 -0.20222242176532745 0 0 255
0.29782751202583313 -0.01836942881345749 -0.22910311818122864 0 0 255
0.26595747470855713 -0.02519526518881321 -0.24321486055850983 0 0 255
0.30852439999580383 -0.021852856501936913 -0.24457156658172607 0 0 255
0.29790154099464417 -0.03188658505678177 -0.2374631017446518 0 0 255
0.3048156797885895 -0.03294996917247772 -0.254252552986145 0 0 255
0.2948075830936432 -0.02296631783246994 -0.2588596045970917 0 0 255
0.3006466031074524 0.006215899717062712 -0.2618314325809479 0 0 255
0.31588315963745117 -0.013802982866764069 -0.23705442249774933 0 0 255
0.31530293822288513 -0.007466837763786316 -0.23360267281532288 0 0 255
0.29382720589637756 0.0008407529094256461 -0.2465604543685913 0 0 255
0.3222658932209015 -0.017917007207870483 -0.22809748351573944 0 0 255
0.31970298290252686 -0.02273120917379856 -0.23505496978759766 0 0 255
0.32436448335647583 0.0034739580005407333 -0.23202386498451233 0 0 255
0.33724480867385864 0.005721571855247021 -0.23435941338539124 0 0 255
0.3422371745109558 0.0361810177564621 -0.20821279287338257 0 0 255
0.39390698075294495 0.035839032381772995 -0.17259855568408966 0 0 255
0.39705514907836914 0.051227033138275146 -0.17388814687728882 0 0 255
0.3696384131908417 0.061812352389097214 -0.17267724871635437 0 0 255
0.375050812959671 0.07997395098209381 -0.15921364724636078 0 0 255
0.37535759806632996 0.07594256103038788 -0.15933403372764587 0 0 255
0.4012677073478699 0.0769493356347084 -0.15279614925384521 0 0 255
0.44470739364624023 0.07838624715805054 -0.13519172370433807 0 0 255
0.4630688726902008 0.08622797578573227 -0.15956124663352966 0 0 255
0.5942178964614868 0.09852512180805206 -0.12709549069404602 0 0 255
0.6289568543434143 0.10566152632236481 -0.04935004934668541 0 0 255
0.6232454180717468 0.08457279950380325 -0.1792944371700287 0 0 255
0.6292537450790405 0.06824120879173279 -0.2050529420375824 0 0 255
0.5932345390319824 0.08754994720220566 -0.2382390797138214 0 0 255
0.6241493821144104 0.06570583581924438 -0.19703243672847748 0 0 255
0.5706088542938232 0.07968825846910477 -0.21004807949066162 0 0 255
0.5896548628807068 0.1169920563697815 -0.20591221749782562 0 0 255
0.4171982407569885 -0.05737128108739853 -0.35572579503059387 0 0 255
0.3295048475265503 -0.07268578559160233 -0.42347055673599243 0 0 255
0.2630196213722229 -0.16434946656227112 -0.4305916130542755 0 0 255
0.25349855422973633 -0.28330716490745544 -0.44930267333984375 0 0 255
0.1973038613796234 -0.2751000225543976 -0.4744015634059906 0 0 255
0.09549267590045929 -0.3675479292869568 -0.44065743684768677 0 0 255
0.038070693612098694 -0.3546365797519684 -0.5301284193992615 0 0 255
0.10190849751234055 -0.33390307426452637 -0.489607572555542 0 0 255
0.13490860164165497 -0.27290064096450806 -0.4926833212375641 0 0 255
0.31299349665641785 -0.2741643786430359 -0.42910289764404297 0 0 255
0.2678654193878174 -0.4135761559009552 -0.34104299545288086 0 0 255
0.29360610246658325 -0.45802825689315796 -0.40628543496131897 0 0 255
0.3016670346260071 -0.3620225787162781 -0.4730100929737091 0 0 255
0.2656753659248352 -0.3731282651424408 -0.439100980758667 0 0 255
0.33039310574531555 -0.3852517008781433 -0.42514699697494507 0 0 255
0.20425540208816528 -0.42477306723594666 -0.4861656427383423 0 0 255
0.17521455883979797 -0.45421168208122253 -0.4846266210079193 0 0 255
0.08110355585813522 -0.4910057783126831 -0.4912254214286804 0 0 255
0.10092482715845108 -0.4835956394672394 -0.5314258933067322 0 0 255
0.04549183323979378 -0.46978625655174255 -0.5270146727561951 0 0 255
0.11122939735651016 -0.4593115746974945 -0.5129500031471252 0 0 255
0.03425617516040802 -0.43734967708587646 -0.54251629114151 0 0 255
-0.03247137367725372 -0.46794450283050537 -0.5710650086402893 0 0 255
0.013870825991034508 -0.5302988886833191 -0.5172482132911682 0 0 255
0.08411785960197449 -0.44693562388420105 -0.49637851119041443 0 0 255
-0.01702415756881237 -0.42119884490966797 -0.5525719523429871 0 0 255
0.16136886179447174 -0.5488520860671997 -0.474471777677536 0 0 255
0.33910444378852844 -0.41747838258743286 -0.44441863894462585 0 0 255
0.39267826080322266 -0.3418176770210266 -0.4726601541042328 0 0 255
0.3068103790283203 -0.49935272336006165 -0.42213037610054016 0 0 255
0.26172515749931335 -0.47551849484443665 -0.5073382258415222 0 0 255
0.19377651810646057 -0.5045508742332458 -0.4634176194667816 0 0 255
0.25912806391716003 -0.5677224397659302 -0.4615940451622009 0 0 255
0.09278920292854309 -0.5620189309120178 -0.5003176331520081 0 0 255
-0.0075960662215948105 -0.5031168460845947 -0.5408627390861511 0 0 255
0.022627534344792366 -0.5352187752723694 -0.48629194498062134 0 0 255
0.11026845127344131 -0.5133048892021179 -0.5174142122268677 0 0 255
0.06267105042934418 -0.5428264737129211 -0.5651586055755615 0 0 255
0.06745078414678574 -0.5409886240959167 -0.5365902185440063 0 0 255
0.014374076388776302 -0.54999178647995 -0.5198805332183838 0 0 255
0.030525242909789085 -0.5637630820274353 -0.5071243643760681 0 0 255
0.02242136560380459 -0.5402533411979675 -0.5463016629219055 0 0 255
-0.0014621217269450426 -0.4896319806575775 -0.6046494245529175 0 0 255
-0.004792659543454647 -0.5507166385650635 -0.5321276783943176 0 0 255
0.03260449320077896 -0.5478355288505554 -0.5234444737434387 0 0 255
0.031138192862272263 -0.5247901082038879 -0.5465794801712036 0 0 255
0.0716811865568161 -0.47119951248168945 -0.6143298745155334 0 0 255
0.008747663348913193 -0.4893980920314789 -0.6122743487358093 0 0 255
-0.04813220724463463 -0.5082359910011292 -0.5966061353683472 0 0 255
-0.008912690915167332 -0.5479937791824341 -0.5871695876121521 0 0 255
-0.009794246405363083 -0.5824908018112183 -0.543090283870697 0 0 255
-0.004141898825764656 -0.5574646592140198 -0.5428957343101501 0 0 255
-0.04738442599773407 -0.5242149829864502 -0.5588666796684265 0 0 255
-0.0470317117869854 -0.4781081974506378 -0.5603778958320618 0 0 255
-0.034946173429489136 -0.4673794209957123 -0.5574555397033691 0 0 255
-0.04764173552393913 -0.5178829431533813 -0.4633775055408478 0 0 255
0.052605923265218735 -0.5340060591697693 -0.45391038060188293 0 0 255
0.19604343175888062 -0.45008447766304016 -0.45433008670806885 0 0 255
0.3432903587818146 -0.40808340907096863 -0.3699226379394531 0 0 255
0.4281075596809387 -0.41477087140083313 -0.32645246386528015 0 0 255
0.5039103627204895 -0.3548145890235901 -0.3579624891281128 0 0 255
0.586894690990448 -0.31768718361854553 -0.3812471628189087 0 0 255
0.6201694011688232 -0.3224962055683136 -0.35193026065826416 0 0 255
0.6162508130073547 -0.3181268870830536 -0.3312818109989166 0 0 255
0.6067185997962952 -0.29717791080474854 -0.3333936035633087 0 0 255
0.6218181848526001 -0.30420488119125366 -0.35142508149147034 0 0 255
0.6015275120735168 -0.28904327750205994 -0.41218915581703186 0 0 255
0.5847762227058411 -0.33939677476882935 -0.39922165870666504 0 0 255
0.5840293765068054 -0.3433837890625 -0.4330413341522217 0 0 255
0.5850523114204407 -0.33349108695983887 -0.4430697560310364 0 0 255
0.5901597142219543 -0.28485244512557983 -0.42254745960235596 0 0 255
0.6178590059280396 -0.24569299817085266 -0.39642760157585144 0 0 255
0.6459689736366272 -0.21970336139202118 -0.3580685555934906 0 0 255
0.6417940855026245 -0.16890539228916168 -0.3579499125480652 0 0 255
0.6284565329551697 -0.143777534365654 -0.29991933703422546 0 0 255
0.6540548205375671 -0.0989791601896286 -0.2589114010334015 0 0 255
0.667095959186554 -0.08608569949865341 -0.25146520137786865 0 0 255
0.6825919151306152 -0.07109285145998001 -0.23424440622329712 0 0 255
0.676922619342804 -0.04511795938014984 -0.21167699992656708 0 0 255
0.6815101504325867 -0.023740287870168686 -0.1994221955537796 0 0 255
0.6746670007705688 -0.0170655008405447 -0.1937851756811142 0 0 255
0.6867386698722839 -0.046518418937921524 -0.15517756342887878 0 0 255
0.7045131325721741 -0.03638366609811783 -0.15692882239818573 0 0 255
0.7097492218017578 1.7214008039445616e-05 -0.1511770486831665 0 0 255
0.7252488136291504 0.006767590530216694 -0.1494351178407669 0 0 255
0.7319692373275757 0.023813018575310707 -0.15528692305088043 0 0 255
0.7291682362556458 0.01629490964114666 -0.1251039206981659 0 0 255
0.710440993309021 0.019900331273674965 -0.1601511687040329 0 0 255
0.6755147576332092 0.06566543877124786 -0.16365106403827667 0 0 255
0.679103672504425 0.017629588022828102 -0.13377916812896729 0 0 255
0.6371009945869446 -0.08969904482364655 -0.25330567359924316 0 0 255
0.5006296634674072 -0.2199353128671646 -0.4675856828689575 0 0 255
0.5257448554039001 -0.30651742219924927 -0.5373138189315796 0 0 255
0.5464683175086975 -0.3280632793903351 -0.5342205166816711 0 0 255
0.47679051756858826 -0.32620304822921753 -0.5356554985046387 0 0 255
0.48347944021224976 -0.3287731111049652 -0.5218888521194458 0 0 255
0.4716835916042328 -0.3711572289466858 -0.4679527282714844 0 0 255
0.4173489511013031 -0.24955743551254272 -0.4675268828868866 0 0 255
0.30098211765289307 -0.23665471374988556 -0.4817795753479004 0 0 255
0.22463445365428925 -0.31587669253349304 -0.5107634663581848 0 0 255
0.0871177390217781 -0.4532468914985657 -0.5447332859039307 0 0 255
0.02398800663650036 -0.4347164034843445 -0.5440269708633423 0 0 255
-0.0204672422260046 -0.4693352282047272 -0.5785211324691772 0 0 255
0.03999258577823639 -0.5993053913116455 -0.5247180461883545 0 0 255
0.0589837022125721 -0.5604780316352844 -0.5603102445602417 0 0 255
0.13778358697891235 -0.463888019323349 -0.600852370262146 0 0 255
0.1168263778090477 -0.5172171592712402 -0.5718530416488647 0 0 255
0.1375659704208374 -0.5697014927864075 -0.5658010840415955 0 0 255
0.13196663558483124 -0.5642774105072021 -0.5607417821884155 0 0 255
0.17516769468784332 -0.5070570707321167 -0.59940105676651 0 0 255
0.248570516705513 -0.4845176935195923 -0.5906206369400024 0 0 255
0.24734491109848022 -0.3833199441432953 -0.6175732612609863 0 0 255
0.28260567784309387 -0.245127335190773 -0.6221011281013489 0 0 255
0.26956886053085327 -0.23830710351467133 -0.6104578971862793 0 0 255
0.28339484333992004 -0.041816119104623795 -0.5268858075141907 0 0 255
0.42428967356681824 0.10195038467645645 -0.26985448598861694 0 0 255
0.45446667075157166 0.20689748227596283 -0.007333280052989721 0 0 255
0.3932044506072998 0.34392961859703064 0.10133413970470428 0 0 255
0.442104697227478 0.32288840413093567 0.21127240359783173 0 0 255
0.4644867479801178 0.34471869468688965 0.2503474950790405 0 0 255
0.49984270334243774 0.35835444927215576 0.2468564808368683 0 0 255
0.5753887891769409 0.32945141196250916 0.23849965631961823 0 0 255
0.6091321706771851 0.3233032524585724 0.23476439714431763 0 0 255
0.6548426747322083 0.30953463912010193 0.1922401785850525 0 0 255
0.6475743055343628 0.3291257321834564 0.1912020742893219 0 0 255
0.6542142629623413 0.3212960362434387 0.19481267035007477 0 0 255
0.6680393815040588 0.30850714445114136 0.1460740715265274 0 0 255
0.6750821471214294 0.2798064053058624 0.1700555384159088 0 0 255
0.6940033435821533 0.2689048945903778 0.1613290011882782 0 0 255
0.6934108138084412 0.28044044971466064 0.13251420855522156 0 0 255
0.6930835247039795 0.27984052896499634 0.1209888681769371 0 0 255
0.6906428933143616 0.2754902243614197 0.12388700246810913 0 0 255
0.6840185523033142 0.26000434160232544 0.12468419969081879 0 0 255
0.7033348083496094 0.2416933923959732 0.10041806101799011 0 0 255
0.7428723573684692 0.2163507342338562 0.07135269045829773 0 0 255
0.734531044960022 0.20795738697052002 0.037145812064409256 0 0 255
0.7391439080238342 0.1684034764766693 -0.013308587484061718 0 0 255
0.7442902326583862 0.01484444085508585 -0.17915596067905426 0 0 255
0.7024825811386108 -0.06382513046264648 -0.25728994607925415 0 0 255
0.6039392352104187 -0.037602342665195465 -0.32429566979408264 0 0 255
0.407685250043869 -0.2883327305316925 -0.47872933745384216 0 0 255
0.2888200581073761 -0.517372727394104 -0.5694941878318787 0 0 255
0.048678088933229446 -0.627311646938324 -0.564206063747406 0 0 255
-0.12485580891370773 -0.5487458109855652 -0.590897262096405 0 0 255
-0.06868796050548553 -0.5943471193313599 -0.5132416486740112 0 0 255
0.044187117367982864 -0.5441911816596985 -0.5491242408752441 0 0 255
0.09710884094238281 -0.5179337859153748 -0.5260989665985107 0 0 255
0.2185560017824173 -0.46565183997154236 -0.5065579414367676 0 0 255
0.2959018349647522 -0.3965062201023102 -0.4816684424877167 0 0 255
0.3434712290763855 -0.3634600341320038 -0.4511321485042572 0 0 255
0.35481002926826477 -0.34356287121772766 -0.42012009024620056 0 0 255
0.3835791349411011 -0.27705204486846924 -0.40866929292678833 0 0 255
0.42096951603889465 -0.2619791626930237 -0.32913967967033386 0 0 255
0.4555197060108185 -0.19851481914520264 -0.3388882875442505 0 0 255
0.4712648391723633 -0.22168664634227753 -0.2978532910346985 0 0 255
0.4874516427516937 -0.20160092413425446 -0.2668643891811371 0 0 255
0.5152567028999329 -0.14847981929779053 -0.2632191777229309 0 0 255
0.543366551399231 -0.13474124670028687 -0.21880148351192474 0 0 255
0.561928391456604 -0.0850059762597084 -0.20276546478271484 0 0 255
0.5603769421577454 -0.10015714913606644 -0.21103033423423767 0 0 255
0.5667221546173096 -0.07341888546943665 -0.20001143217086792 0 0 255
0.5728139877319336 -0.05790253356099129 -0.18251138925552368 0 0 255
0.5977465510368347 -0.0602249950170517 -0.15073932707309723 0 0 255
0.5834525227546692 -0.042962852865457535 -0.17105460166931152 0 0 255
0.5951644778251648 -0.020012209191918373 -0.13686072826385498 0 0 255
0.6074354648590088 0.040080875158309937 -0.13157285749912262 0 0 255
0.6196784377098083 0.08603872358798981 -0.06647387892007828 0 0 255
0.6080553531646729 0.13020896911621094 -0.022972572594881058 0 0 255
0.6136676073074341 0.20370732247829437 -0.006689412519335747 0 0 255
0.6222910284996033 0.2460872232913971 0.06597460806369781 0 0 255
0.6185850501060486 0.2569279670715332 0.08071251213550568 0 0 255
0.6180748343467712 0.25621846318244934 0.0993114486336708 0 0 255
0.6071814894676208 0.31483590602874756 0.13514676690101624 0 0 255
0.6325280666351318 0.28230828046798706 0.18644237518310547 0 0 255
0.6299853324890137 0.28277525305747986 0.16455690562725067 0 0 255
0.6242547631263733 0.33377277851104736 0.17324520647525787 0 0 255
0.6329233646392822 0.34689241647720337 0.18650203943252563 0 0 255
0.6315802335739136 0.3216857612133026 0.19083575904369354 0 0 255
0.6280340552330017 0.3388563394546509 0.16418048739433289 0 0 255
0.6404215693473816 0.33947139978408813 0.1873275488615036 0 0 255
0.629045844078064 0.324554443359375 0.15469686686992645 0 0 255
0.6182175874710083 0.3169417381286621 0.16560134291648865 0 0 255
0.608430027961731 0.3431139290332794 0.17632563412189484 0 0 255
0.6299035549163818 0.3241650462150574 0.19136708974838257 0 0 255
0.6077019572257996 0.31763508915901184 0.1621728092432022 0 0 255
0.6002041101455688 0.3230332136154175 0.20773769915103912 0 0 255
0.6072543263435364 0.3386603891849518 0.18866635859012604 0 0 255
0.6075887084007263 0.36212506890296936 0.21426095068454742 0 0 255
0.6145661473274231 0.3379029631614685 0.2157687544822693 0 0 255
0.6135262250900269 0.33729878067970276 0.21416132152080536 0 0 255
0.6116291880607605 0.3600827157497406 0.20837362110614777 0 0 255
0.6147992014884949 0.3846544921398163 0.21693187952041626 0 0 255
0.6221851706504822 0.35943087935447693 0.22383442521095276 0 0 255
0.635940432548523 0.34775546193122864 0.2153203785419464 0 0 255
0.6173037886619568 0.3578861653804779 0.20886357128620148 0 0 255
0.6183857917785645 0.3594070076942444 0.23416978120803833 0 0 255
0.6181043982505798 0.36045175790786743 0.2142149955034256 0 0 255
0.627531886100769 0.3476726710796356 0.2323462814092636 0 0 255
0.6156942844390869 0.3585008680820465 0.23865269124507904 0 0 255
0.6023472547531128 0.37040233612060547 0.24253368377685547 0 0 255
0.6147301197052002 0.35581082105636597 0.27506738901138306 0 0 255
0.6163502335548401 0.3325798809528351 0.23118919134140015 0 0 255
0.6301424503326416 0.3312183618545532 0.24989864230155945 0 0 255
0.6286442875862122 0.3324316143989563 0.2325957864522934 0 0 255
0.6217242479324341 0.3442687690258026 0.22373557090759277 0 0 255
0.6276882290840149 0.31382107734680176 0.22957324981689453 0 0 255
0.6190049052238464 0.3079228699207306 0.2231707125902176 0 0 255
0.6098788976669312 0.328869104385376 0.26346802711486816 0 0 255
0.5933994054794312 0.348812997341156 0.27220746874809265 0 0 255
0.571749210357666 0.3756318688392639 0.28784847259521484 0 0 255
0.5624938011169434 0.38305702805519104 0.3228624165058136 0 0 255
0.561601459980011 0.3812113106250763 0.31043651700019836 0 0 255
0.5840030908584595 0.36526134610176086 0.29789677262306213 0 0 255
0.5522268414497375 0.39949673414230347 0.3057616651058197 0 0 255
0.5234389305114746 0.42542195320129395 0.32586514949798584 0 0 255
0.4760822653770447 0.4148648679256439 0.3823135495185852 0 0 255
0.4054790139198303 0.4397192895412445 0.4156177043914795 0 0 255
0.36186960339546204 0.4323312044143677 0.4603854715824127 0 0 255
0.253364622592926 0.45120513439178467 0.4786316454410553 0 0 255
0.1775103509426117 0.44726061820983887 0.540560781955719 0 0 255
0.057818613946437836 0.49935972690582275 0.48917749524116516 0 0 255
-0.07086782902479172 0.5033865571022034 0.5626155734062195 0 0 255
-0.06298822909593582 0.49216902256011963 0.5790926218032837 0 0 255
-0.05239038169384003 0.506830096244812 0.5860537886619568 0 0 255
-0.13856405019760132 0.5743699669837952 0.5259407758712769 0 0 255
-0.11161334812641144 0.6097110509872437 0.5566219687461853 0 0 255
-0.0737541988492012 0.6034513115882874 0.620660126209259 0 0 255
-0.046879179775714874 0.6787565350532532 0.5438845753669739 0 0 255
0.07532549649477005 0.6714731454849243 0.5672504305839539 0 0 255
0.15299633145332336 0.6318217515945435 0.5575243234634399 0 0 255
0.0490863062441349 0.6700409054756165 0.5207276940345764 0 0 255
0.021670043468475342 0.6264973282814026 0.5924270749092102 0 0 255
0.06605228781700134 0.6199881434440613 0.557906448841095 0 0 255
0.040099889039993286 0.6194897294044495 0.5396590828895569 0 0 255
0.054598789662122726 0.6456973552703857 0.5519444346427917 0 0 255
0.06699468195438385 0.5791946649551392 0.5981473922729492 0 0 255
0.1434226781129837 0.5973661541938782 0.5602627992630005 0 0 255
0.12274765223264694 0.6201752424240112 0.5608116388320923 0 0 255
0.10893058031797409 0.6316050291061401 0.5555678009986877 0 0 255
0.12284587323665619 0.6022948622703552 0.5666896104812622 0 0 255
0.13782918453216553 0.6539472341537476 0.4833368957042694 0 0 255
0.3318156599998474 0.5540693402290344 0.5083283185958862 0 0 255
0.3067837357521057 0.5843053460121155 0.4782954156398773 0 0 255
0.09314371645450592 0.6344922184944153 0.4817890524864197 0 0 255
0.06131894513964653 0.6283856630325317 0.4995824694633484 0 0 255
0.031558964401483536 0.582865834236145 0.5634005069732666 0 0 255
-0.12889908254146576 0.5769209265708923 0.5208502411842346 0 0 255
-0.24919365346431732 0.5301865339279175 0.47717416286468506 0 0 255
-0.31784769892692566 0.5179355144500732 0.4585815966129303 0 0 255
-0.3001231253147125 0.5248648524284363 0.49360308051109314 0 0 255
-0.322199285030365 0.4307308495044708 0.44884729385375977 0 0 255
-0.2751530706882477 0.5315628051757812 0.39005595445632935 0 0 255
-0.2767304480075836 0.4882730543613434 0.414601594209671 0 0 255
-0.5197109580039978 0.3947608470916748 0.3730369806289673 0 0 255
-0.4421842694282532 0.4517212212085724 0.22882798314094543 0 0 255
-0.38772085309028625 0.4026281237602234 0.1319287270307541 0 0 255
-0.5814135074615479 0.3354876935482025 0.15721997618675232 0 0 255
-0.7020443677902222 0.3544887602329254 0.024810636416077614 0 0 255
-0.6891230940818787 0.2410067319869995 0.047945111989974976 0 0 255
-0.6999245882034302 0.03597775474190712 0.04143441841006279 0 0 255
-0.7030681371688843 -0.018318086862564087 0.06930028647184372 0 0 255
-0.7140890955924988 -0.039587877690792084 -0.011180921457707882 0 0 255
-0.6911101341247559 -0.03440970554947853 -0.013009787537157536 0 0 255
-0.6954258680343628 -0.05490347370505333 0.004112825263291597 0 0 255
-0.6539573669433594 -0.06937269866466522 0.05681046098470688 0 0 255
-0.6348851919174194 -0.13738954067230225 0.03379301726818085 0 0 255
-0.6884085536003113 -0.12306255847215652 -0.014375239610671997 0 0 255
-0.6527585387229919 -0.15273116528987885 0.00878029316663742 0 0 255
-0.6703783869743347 -0.18122829496860504 -0.028256548568606377 0 0 255
-0.6673269271850586 -0.1578473448753357 0.0007354255649261177 0 0 255
-0.6589459776878357 -0.1834959238767624 -0.02445806749165058 0 0 255
-0.6664782762527466 -0.16675825417041779 -0.018000254407525063 0 0 255
-0.6627427339553833 -0.1860692948102951 -0.020051058381795883 0 0 255
-0.6708036065101624 -0.15050870180130005 -0.03343851491808891 0 0 255
-0.6698147058486938 -0.2199920117855072 -0.05080144479870796 0 0 255
-0.7052855491638184 -0.23199081420898438 -0.08062737435102463 0 0 255
-0.6962339282035828 -0.20757269859313965 -0.08570821583271027 0 0 255
-0.7073192000389099 -0.14490117132663727 -0.07169529795646667 0 0 255
-0.7167120575904846 -0.20168223977088928 -0.0595940463244915 0 0 255
-0.7088282108306885 -0.2252962440252304 -0.09407606720924377 0 0 255
-0.6848430633544922 -0.18193896114826202 -0.0749344676733017 0 0 255
-0.673865795135498 -0.1707380712032318 -0.039768047630786896 0 0 255
-0.683818519115448 -0.1847979575395584 -0.07823062688112259 0 0 255
-0.6952183842658997 -0.2020256668329239 -0.08286143839359283 0 0 255
-0.7065054178237915 -0.21570296585559845 -0.12306617200374603 0 0 255
-0.6999675631523132 -0.22311623394489288 -0.07771820574998856 0 0 255
-0.7189110517501831 -0.20994976162910461 -0.016851594671607018 0 0 255
-0.7399844527244568 -0.17203332483768463 0.0017701552715152502 0 0 255
-0.7295857071876526 -0.14323078095912933 0.020927298814058304 0 0 255
-0.70862877368927 -0.13044151663780212 0.07072481513023376 0 0 255
-0.7152796983718872 -0.12723961472511292 0.06651204824447632 0 0 255
-0.7120876312255859 -0.10866354405879974 0.09153806418180466 0 0 255
-0.7099431753158569 -0.10618717968463898 0.08813037723302841 0 0 255
-0.7049732208251953 -0.11970940232276917 0.08454053103923798 0 0 255
-0.7184355854988098 -0.11088551580905914 0.05991128087043762 0 0 255
-0.7026980519294739 -0.11941784620285034 0.054025836288928986 0 0 255
-0.6860928535461426 -0.13071593642234802 0.05540752783417702 0 0 255
-0.6914191842079163 -0.13435804843902588 0.06464722752571106 0 0 255
-0.713021993637085 -0.11846951395273209 0.04850412905216217 0 0 255
-0.7035773396492004 -0.15532927215099335 0.035874322056770325 0 0 255
-0.7083194851875305 -0.15613634884357452 0.006535735446959734 0 0 255
-0.7007924318313599 -0.17825397849082947 -0.008356429636478424 0 0 255
-0.6912142038345337 -0.20886178314685822 -0.03665618970990181 0 0 255
-0.6994222402572632 -0.2267720252275467 -0.07425287365913391 0 0 255
-0.6942211389541626 -0.2400801181793213 -0.0896817296743393 0 0 255
-0.6894111037254333 -0.2448374629020691 -0.10579363256692886 0 0 255
-0.6885758638381958 -0.25806763768196106 -0.1185116097331047 0 0 255
-0.7031688094139099 -0.24536308646202087 -0.10133504867553711 0 0 255
-0.6922543048858643 -0.23818151652812958 -0.08417513221502304 0 0 255
-0.6859273910522461 -0.2520958483219147 -0.07799798250198364 0 0 255
-0.6891084313392639 -0.2603389024734497 -0.1096581518650055 0 0 255
-0.6760228872299194 -0.28951913118362427 -0.13223960995674133 0 0 255
-0.6911219358444214 -0.2713223993778229 -0.15169888734817505 0 0 255
-0.6799983978271484 -0.2717911899089813 -0.13374069333076477 0 0 255
-0.7038437128067017 -0.24436934292316437 -0.10583743453025818 0 0 255
-0.7141739130020142 -0.21862675249576569 -0.08229902386665344 0 0 255
-0.7006192803382874 -0.19011522829532623 -0.026166237890720367 0 0 255
-0.7006558775901794 -0.17752759158611298 -0.00014398711209651083 0 0 255
-0.700941801071167 -0.14566701650619507 0.007026540581136942 0 0 255
-0.7065899968147278 -0.15471449494361877 -0.00021670316345989704 0 0 255
-0.7146722674369812 -0.1284072995185852 -0.01634080335497856 0 0 255
-0.7063009142875671 -0.14668898284435272 0.015237811021506786 0 0 255
-0.7207965850830078 -0.16700080037117004 0.028568895533680916 0 0 255
-0.721106231212616 -0.17020827531814575 -0.015161998569965363 0 0 255
-0.7205213904380798 -0.1403302550315857 -0.05804775282740593 0 0 255
-0.7111907601356506 -0.16397102177143097 -0.029633047059178352 0 0 255
-0.7305869460105896 -0.1744190752506256 -0.04497214034199715 0 0 255
-0.7268111109733582 -0.16408589482307434 -0.08020706474781036 0 0 255
-0.7370377779006958 -0.1856735795736313 -0.08319617062807083 0 0 255
-0.7307206988334656 -0.20043990015983582 -0.052561160176992416 0 0 255
-0.7268158197402954 -0.17440670728683472 -0.07048971205949783 0 0 255
-0.7171584367752075 -0.2091182917356491 -0.144942969083786 0 0 255
-0.7172825932502747 -0.23129799962043762 -0.15545643866062164 0 0 255
-0.7269997000694275 -0.2606581449508667 -0.18397457897663116 0 0 255
-0.6992618441581726 -0.2584603428840637 -0.1486581265926361 0 0 255
-0.6892759799957275 -0.2596786916255951 -0.1708540916442871 0 0 255
-0.6944537162780762 -0.2176564484834671 -0.16230759024620056 0 0 255
-0.7027177214622498 -0.2621539235115051 -0.185411274433136 0 0 255
-0.7317614555358887 -0.2231382578611374 -0.14143691956996918 0 0 255
-0.6973103284835815 -0.22920027375221252 -0.15496130287647247 0 0 255
-0.6941297054290771 -0.20686891674995422 -0.16640043258666992 0 0 255
-0.6857717037200928 -0.24806451797485352 -0.1498054713010788 0 0 255
-0.6973517537117004 -0.2291317880153656 -0.17883770167827606 0 0 255
-0.6729488968849182 -0.23710547387599945 -0.18502742052078247 0 0 255
-0.6570456027984619 -0.2848679721355438 -0.22633935511112213 0 0 255
-0.690822184085846 -0.24835197627544403 -0.1811162680387497 0 0 255
-0.7273811101913452 -0.21793854236602783 -0.1624167263507843 0 0 255
-0.7140822410583496 -0.20749278366565704 -0.09043148905038834 0 0 255
-0.676737368106842 -0.21515783667564392 -0.046427544206380844 0 0 255
-0.7163864374160767 -0.14045482873916626 -0.04165031760931015 0 0 255
-0.7070408463478088 -0.106343112885952 -0.04176342487335205 0 0 255
-0.7365192174911499 -0.05081251263618469 0.040500763803720474 0 0 255
-0.6621754169464111 0.06139707937836647 0.08858644962310791 0 0 255
-0.5355095863342285 0.3540850281715393 0.2876822352409363 0 0 255
-0.1606210619211197 0.5718305706977844 0.4679219424724579 0 0 255
0.15386870503425598 0.6073832511901855 0.414829820394516 0 0 255
0.27367258071899414 0.5968262553215027 0.46242403984069824 0 0 255
0.32841956615448 0.6192798018455505 0.3597995340824127 0 0 255
0.3380354642868042 0.6146519780158997 0.3775119185447693 0 0 255
0.38049259781837463 0.5792859792709351 0.40814724564552307 0 0 255
0.3420683443546295 0.5864753723144531 0.42318210005760193 0 0 255
0.39556577801704407 0.5815125703811646 0.37771672010421753 0 0 255
0.4185630679130554 0.55475914478302 0.32409778237342834 0 0 255
0.4492074251174927 0.5199083685874939 0.3233306407928467 0 0 255
0.42196929454803467 0.4870862662792206 0.2583938241004944 0 0 255
0.44399067759513855 0.4823737144470215 0.2436489760875702 0 0 255
0.4815882742404938 0.4492200016975403 0.22453661262989044 0 0 255
0.4933706820011139 0.4407890737056732 0.24819904565811157 0 0 255
0.4877861440181732 0.43724924325942993 0.26701128482818604 0 0 255
0.4718538820743561 0.4134897291660309 0.24264727532863617 0 0 255
0.44376295804977417 0.39993053674697876 0.2556563913822174 0 0 255
0.45930957794189453 0.39572566747665405 0.21345622837543488 0 0 255
0.49443650245666504 0.3631386160850525 0.19017380475997925 0 0 255
0.5339328050613403 0.34836286306381226 0.17186082899570465 0 0 255
0.5657963752746582 0.31645888090133667 0.14714308083057404 0 0 255
0.5572896599769592 0.3284962773323059 0.13804885745048523 0 0 255
0.5847437977790833 0.30154746770858765 0.16193892061710358 0 0 255
0.5931111574172974 0.3169914186000824 0.11075368523597717 0 0 255
0.6106333136558533 0.30696478486061096 0.13321498036384583 0 0 255
0.6007606387138367 0.30298858880996704 0.11989070475101471 0 0 255
0.6118665933609009 0.2973034381866455 0.12691515684127808 0 0 255
0.6122978329658508 0.29200416803359985 0.09268646687269211 0 0 255
0.6130943894386292 0.2801637351512909 0.10710768401622772 0 0 255
0.6247918605804443 0.2718179225921631 0.10181211680173874 0 0 255
0.6347852945327759 0.26494264602661133 0.06002980098128319 0 0 255
0.6562564969062805 0.2705676555633545 0.05161966755986214 0 0 255
0.657645046710968 0.2747645378112793 0.050374697893857956 0 0 255
0.6402458548545837 0.23971648514270782 0.04478047788143158 0 0 255
0.60463947057724 0.22056272625923157 0.02496160753071308 0 0 255
0.5852593183517456 0.2065628170967102 0.004562267102301121 0 0 255
0.6030017733573914 0.18466760218143463 -0.044633787125349045 0 0 255
0.6067973375320435 0.17534959316253662 -0.022768748924136162 0 0 255
0.6021850109100342 0.11168794333934784 -0.08729732781648636 0 0 255
0.5782670378684998 0.0833556205034256 -0.12698547542095184 0 0 255
0.5656938552856445 0.024025974795222282 -0.18408551812171936 0 0 255
0.5540106892585754 0.016990885138511658 -0.22729085385799408 0 0 255
0.5353527665138245 -0.014332094229757786 -0.20691749453544617 0 0 255
0.5012813806533813 -0.03069276176393032 -0.22657932341098785 0 0 255
0.4897378087043762 -0.05258398503065109 -0.2707420885562897 0 0 255
0.49859878420829773 -0.040507059544324875 -0.28327834606170654 0 0 255
0.5016017556190491 -0.06503577530384064 -0.31732621788978577 0 0 255
0.5031414031982422 -0.08661699295043945 -0.3193782567977905 0 0 255
0.5024447441101074 -0.06309374421834946 -0.31955578923225403 0 0 255
0.5175982117652893 -0.06893018633127213 -0.2955678701400757 0 0 255
0.540939211845398 -0.055869657546281815 -0.2976696789264679 0 0 255
0.5437633395195007 -0.04168324172496796 -0.27598387002944946 0 0 255
0.5322879552841187 -0.057980604469776154 -0.25819283723831177 0 0 255
0.5198079347610474 -0.06725012511014938 -0.29039546847343445 0 0 255
0.48216769099235535 -0.09931395202875137 -0.2944921851158142 0 0 255
0.44055092334747314 -0.10017744451761246 -0.34746620059013367 0 0 255
0.4020777940750122 -0.13371364772319794 -0.3525882363319397 0 0 255
0.38082507252693176 -0.1431194245815277 -0.3583127558231354 0 0 255
0.3229723274707794 -0.14576423168182373 -0.3564774692058563 0 0 255
0.30037635564804077 -0.15415380895137787 -0.3659299314022064 0 0 255
0.2598791718482971 -0.17359012365341187 -0.3277781903743744 0 0 255
0.22258475422859192 -0.1762198507785797 -0.32219016551971436 0 0 255
0.21995408833026886 -0.19885046780109406 -0.3315763473510742 0 0 255
0.2194838970899582 -0.19196391105651855 -0.34844595193862915 0 0 255
0.23815760016441345 -0.20943765342235565 -0.35038548707962036 0 0 255
0.22277629375457764 -0.2074224203824997 -0.36409348249435425 0 0 255
0.2528659701347351 -0.19464938342571259 -0.35609370470046997 0 0 255
0.2825379967689514 -0.2043192982673645 -0.3704690933227539 0 0 255
0.2493579089641571 -0.18738995492458344 -0.38142725825309753 0 0 255
0.25918370485305786 -0.20157383382320404 -0.3501560688018799 0 0 255
0.24303224682807922 -0.21186836063861847 -0.36541974544525146 0 0 255
0.20411498844623566 -0.22169286012649536 -0.38686466217041016 0 0 255
0.17401187121868134 -0.19556327164173126 -0.3927040994167328 0 0 255
0.1724083125591278 -0.19673915207386017 -0.3630889058113098 0 0 255
0.18336790800094604 -0.19097721576690674 -0.3781268894672394 0 0 255
0.18901148438453674 -0.17271685600280762 -0.37179428339004517 0 0 255
0.21975091099739075 -0.17002059519290924 -0.3627464175224304 0 0 255
0.2442757934331894 -0.1564846783876419 -0.36381906270980835 0 0 255
0.24028092622756958 -0.14465169608592987 -0.36020106077194214 0 0 255
0.2310185432434082 -0.15437884628772736 -0.32819509506225586 0 0 255
0.23828519880771637 -0.1344260722398758 -0.3280057907104492 0 0 255
0.2590194344520569 -0.12969836592674255 -0.3149113655090332 0 0 255
0.2649061381816864 -0.12828657031059265 -0.3096533417701721 0 0 255
0.26552438735961914 -0.088238924741745 -0.3109460473060608 0 0 255
0.2982202470302582 -0.09188636392354965 -0.3159923851490021 0 0 255
0.31487375497817993 -0.12469934672117233 -0.2801516652107239 0 0 255
0.331490159034729 -0.12016018480062485 -0.2952573895454407 0 0 255
0.33166974782943726 -0.09473761916160583 -0.27668577432632446 0 0 255
0.36697325110435486 -0.11080055683851242 -0.27197355031967163 0 0 255
0.4020434021949768 -0.060442667454481125 -0.2651383578777313 0 0 255
0.4065221846103668 -0.07621163874864578 -0.24950091540813446 0 0 255
0.3717597723007202 -0.09744439274072647 -0.23484118282794952 0 0 255
0.36730363965034485 -0.10033302009105682 -0.2438284009695053 0 0 255
0.3736354410648346 -0.10780560225248337 -0.26311004161834717 0 0 255
0.3552192747592926 -0.07945551723241806 -0.24741633236408234 0 0 255
0.3309946060180664 -0.08902384340763092 -0.2342713177204132 0 0 255
0.30531227588653564 -0.11355689913034439 -0.2524597644805908 0 0 255
0.2576698064804077 -0.11817742139101028 -0.25707995891571045 0 0 255
0.20411604642868042 -0.11550790816545486 -0.2821463942527771 0 0 255
0.19787068665027618 -0.08464115858078003 -0.25834381580352783 0 0 255
0.2574881911277771 -0.072862908244133 -0.23861302435398102 0 0 255
0.2839093506336212 -0.06577340513467789 -0.2541157007217407 0 0 255
0.277326762676239 -0.029070088639855385 -0.2520974278450012 0 0 255
0.3319684565067291 -0.01721039228141308 -0.19225656986236572 0 0 255
0.40338027477264404 0.048753656446933746 -0.17531007528305054 0 0 255
0.4560459554195404 0.09094173461198807 -0.11642295122146606 0 0 255
0.4670350253582001 0.16844815015792847 -0.08145257085561752 0 0 255
0.532595157623291 0.2519311010837555 0.015902547165751457 0 0 255
0.5746892094612122 0.28697657585144043 0.10947433859109879 0 0 255
0.5462083220481873 0.34964337944984436 0.18168199062347412 0 0 255
0.509861946105957 0.3867444396018982 0.2216232866048813 0 0 255
0.4461325407028198 0.411026269197464 0.2967875003814697 0 0 255
0.40629589557647705 0.4245947301387787 0.3327511250972748 0 0 255
0.3386630713939667 0.4475213289260864 0.4011653959751129 0 0 255
0.24846336245536804 0.42341500520706177 0.3807295560836792 0 0 255
0.14663571119308472 0.39771804213523865 0.44158798456192017 0 0 255
0.06072473153471947 0.38869601488113403 0.437854140996933 0 0 255
-0.09800975024700165 0.35581761598587036 0.3995179831981659 0 0 255
-0.23054762184619904 0.2515435516834259 0.3208801746368408 0 0 255
-0.3178069591522217 0.1620500087738037 0.23089782893657684 0 0 255
-0.31265273690223694 0.21906618773937225 0.14935839176177979 0 0 255
-0.3026530146598816 0.21476666629314423 0.10711924731731415 0 0 255
-0.32419508695602417 0.16819234192371368 0.11971155554056168 0 0 255
-0.3388035297393799 0.2100764811038971 0.15963277220726013 0 0 255
-0.2586519718170166 0.21646107733249664 0.17072533071041107 0 0 255
-0.18312296271324158 0.2653052508831024 0.13805413246154785 0 0 255
-0.08608373999595642 0.19497105479240417 0.09099230915307999 0 0 255
-0.049997519701719284 0.2131430208683014 0.1212410107254982 0 0 255
-0.006840374320745468 0.29935234785079956 0.12743449211120605 0 0 255
0.08398125320672989 0.36395183205604553 0.17764919996261597 0 0 255
0.0633617639541626 0.29701873660087585 0.2027386575937271 0 0 255
0.031705092638731 0.286965936422348 0.1857946217060089 0 0 255
0.008912148885428905 0.3667747974395752 0.23209358751773834 0 0 255
0.0840272530913353 0.37318137288093567 0.23796939849853516 0 0 255
0.08105985075235367 0.4048370122909546 0.3441646993160248 0 0 255
0.004253421910107136 0.37521156668663025 0.3035125136375427 0 0 255
-0.0007264993037097156 0.3593314290046692 0.36041271686553955 0 0 255
-0.0703728124499321 0.30757272243499756 0.2789943814277649 0 0 255
-0.03765000402927399 0.19542895257472992 0.2060616910457611 0 0 255
0.04046117886900902 0.0033879545517265797 0.07726788520812988 0 0 255
0.007418683264404535 -0.08385834097862244 -0.11144717782735825 0 0 255
0.050809748470783234 -0.18650966882705688 -0.1917879730463028 0 0 255
0.012406954541802406 -0.2876541018486023 -0.2752734124660492 0 0 255
-0.007043746765702963 -0.332206666469574 -0.28015562891960144 0 0 255
0.02214961312711239 -0.27605628967285156 -0.3610483705997467 0 0 255
0.05654517933726311 -0.26480552554130554 -0.387041836977005 0 0 255
0.12441568821668625 -0.3047258257865906 -0.37040525674819946 0 0 255
0.1393054723739624 -0.2986765205860138 -0.37234896421432495 0 0 255
0.1471901684999466 -0.2877597510814667 -0.3694744110107422 0 0 255
0.14287176728248596 -0.29662880301475525 -0.37226030230522156 0 0 255
