ply
format ascii 1.0
element vertex 680
property float x
property float y
property float z
property uchar red
property uchar green
property uchar blue
end_header
0.114509217441082 -0.24915145337581635 -0.31540757417678833 133 6 166
0.12349959462881088 -0.24363476037979126 -0.32213008403778076 139 9 164
0.11875741928815842 -0.23557965457439423 -0.3230709731578827 134 7 166
0.10044457763433456 -0.22707891464233398 -0.3283235430717468 123 2 168
0.1055438295006752 -0.21580854058265686 -0.3191756010055542 117 0 168
0.12001196295022964 -0.20472531020641327 -0.3252275288105011 118 1 168
0.1276647001504898 -0.18965184688568115 -0.3189503848552704 115 0 168
0.13693955540657043 -0.19129638373851776 -0.3189144730567932 123 2 168
0.14291678369045258 -0.18413205444812775 -0.29800623655319214 118 1 168
0.127868190407753 -0.17992405593395233 -0.29293134808540344 121 1 168
0.1282384842634201 -0.1817113310098648 -0.277936190366745 124 2 167
0.12520286440849304 -0.1689542979001999 -0.25835108757019043 127 3 167
0.11480692028999329 -0.164592444896698 -0.2497151643037796 134 7 166
0.102178193628788 -0.16298122704029083 -0.21240752935409546 146 15 162
0.07440276443958282 -0.14009685814380646 -0.18466316163539886 165 31 151
0.06358206272125244 -0.11233483254909515 -0.13410614430904388 168 34 150
0.06617511063814163 -0.08965464681386948 -0.09644297510385513 163 29 153
0.06695433706045151 -0.12295854836702347 -0.0953919067978859 176 42 143
0.08003512024879456 -0.160769522190094 -0.13532637059688568 180 45 141
0.09858549386262894 -0.18496134877204895 -0.19494836032390594 177 43 143
0.09784569591283798 -0.20593328773975372 -0.2087995707988739 175 40 144
0.08157387375831604 -0.20363633334636688 -0.21417321264743805 169 35 149
0.0814095139503479 -0.1908133178949356 -0.22158192098140717 170 36 148
0.10511782020330429 -0.18512003123760223 -0.23098917305469513 169 35 149
0.10736116766929626 -0.14615412056446075 -0.23387891054153442 159 26 155
0.1332680732011795 -0.13416683673858643 -0.22910089790821075 158 25 156
0.1505180299282074 -0.10383005440235138 -0.22162982821464539 159 26 155
0.16833613812923431 -0.08951743692159653 -0.26505109667778015 159 26 155
0.17713238298892975 -0.10947390645742416 -0.2864711582660675 157 24 157
0.20120581984519958 -0.11364056915044785 -0.30322933197021484 165 31 151
0.21139466762542725 -0.1191936656832695 -0.33065032958984375 164 30 152
0.2146696299314499 -0.13585829734802246 -0.3675013482570648 164 30 152
0.22536803781986237 -0.16566932201385498 -0.3692466616630554 159 26 155
0.23687565326690674 -0.176102876663208 -0.3863386809825897 162 28 154
0.2327299863100052 -0.19369471073150635 -0.39679208397865295 167 33 151
0.24053740501403809 -0.19462385773658752 -0.40754643082618713 162 28 154
0.23291657865047455 -0.19276046752929688 -0.4086526334285736 158 25 156
0.22707292437553406 -0.1935025006532669 -0.4058634638786316 140 10 164
0.23704411089420319 -0.18051697313785553 -0.4021752178668976 155 23 158
0.24418522417545319 -0.16560479998588562 -0.4000836908817291 153 20 159
0.24668848514556885 -0.15655025839805603 -0.4180586636066437 129 4 167
0.2317061722278595 -0.16659744083881378 -0.42384758591651917 133 6 166
0.230049267411232 -0.18312303721904755 -0.4243009388446808 134 7 166
0.2248275876045227 -0.18430516123771667 -0.43410807847976685 137 8 165
0.21736976504325867 -0.19627492129802704 -0.43450990319252014 137 8 165
0.21703340113162994 -0.19912278652191162 -0.4377037584781647 159 26 155
0.21903851628303528 -0.2074713259935379 -0.4392573833465576 153 20 159
0.2125430703163147 -0.2119881510734558 -0.44150295853614807 154 21 158
0.20555487275123596 -0.21754412353038788 -0.4428701102733612 137 8 165
0.2094210833311081 -0.22208337485790253 -0.4453851580619812 143 13 163
0.20964542031288147 -0.22939065098762512 -0.4433711767196655 142 12 164
0.20739012956619263 -0.23424950242042542 -0.4437147378921509 146 15 162
0.2069634199142456 -0.2422315627336502 -0.44253620505332947 147 16 161
0.20600056648254395 -0.24523508548736572 -0.4481469690799713 160 27 155
0.20604939758777618 -0.24815215170383453 -0.45140933990478516 158 25 156
0.20809243619441986 -0.23871195316314697 -0.4545392394065857 167 33 151
0.20911142230033875 -0.2468632161617279 -0.46205416321754456 181 46 140
0.2107822597026825 -0.2520536184310913 -0.4566742479801178 192 59 129
0.2115924209356308 -0.25138959288597107 -0.463571697473526 191 57 130
0.20847827196121216 -0.25738072395324707 -0.4561086893081665 202 70 120
0.21715059876441956 -0.25244140625 -0.4569205343723297 208 77 115
0.22182433307170868 -0.25239458680152893 -0.45382171869277954 211 81 111
0.21768465638160706 -0.25160300731658936 -0.45348814129829407 236 119 84
0.21926593780517578 -0.2542768120765686 -0.4544582962989807 253 181 45
0.21965456008911133 -0.2504250109195709 -0.46208643913269043 234 115 86
0.21841296553611755 -0.2534664273262024 -0.4591040015220642 232 112 89
0.22108817100524902 -0.24894607067108154 -0.45624929666519165 238 124 80
0.21320973336696625 -0.24631838500499725 -0.44714295864105225 243 134 73
0.2036159485578537 -0.24541249871253967 -0.44651520252227783 245 139 70
0.20345886051654816 -0.2463909238576889 -0.44800451397895813 248 149 64
0.20511680841445923 -0.24976326525211334 -0.4383140802383423 242 133 74
0.191282257437706 -0.25579360127449036 -0.4286406934261322 216 88 106
0.18186382949352264 -0.2721661925315857 -0.42258983850479126 232 112 89
0.16543062031269073 -0.28344231843948364 -0.4114631712436676 215 87 107
0.16278530657291412 -0.27851420640945435 -0.40732619166374207 236 120 83
0.15581941604614258 -0.27237388491630554 -0.40291106700897217 230 109 90
0.14149530231952667 -0.2792142927646637 -0.40734803676605225 229 108 91
0.1357489824295044 -0.28315916657447815 -0.38912233710289 235 118 84
0.11429702490568161 -0.281840056180954 -0.3767629563808441 238 124 80
0.09852467477321625 -0.29094263911247253 -0.3681442141532898 232 113 88
0.09570635855197906 -0.30024218559265137 -0.34824424982070923 234 115 86
0.09946170449256897 -0.3067839741706848 -0.346716970205307 242 132 75
0.09930876642465591 -0.3164540231227875 -0.3350723087787628 241 130 76
0.09573777765035629 -0.3209531605243683 -0.3378523588180542 234 115 86
0.09272390604019165 -0.3194792866706848 -0.3512001931667328 227 104 94
0.10241581499576569 -0.321267306804657 -0.35901787877082825 227 103 95
0.10866179317235947 -0.32269224524497986 -0.36355265974998474 229 107 92
0.1211647242307663 -0.3192831873893738 -0.3724319338798523 227 104 94
0.12073196470737457 -0.3238048851490021 -0.3716382086277008 214 85 109
0.12553083896636963 -0.3267468810081482 -0.363165944814682 228 106 93
0.12317600846290588 -0.3242436945438385 -0.3613108694553375 234 115 86
0.11408647149801254 -0.32251864671707153 -0.35636118054389954 234 115 86
0.11281764507293701 -0.31772083044052124 -0.357626348733902 237 121 82
0.10986534506082535 -0.317744642496109 -0.3574061691761017 237 121 82
0.10565140843391418 -0.32062816619873047 -0.35591763257980347 236 119 84
0.10034698992967606 -0.31527772545814514 -0.3537670373916626 236 119 84
0.0995156392455101 -0.32197028398513794 -0.3475074768066406 234 115 86
0.09743276983499527 -0.32705530524253845 -0.33865970373153687 234 116 85
0.09578024595975876 -0.31689968705177307 -0.3297475278377533 234 116 85
0.09380320459604263 -0.32280778884887695 -0.33237406611442566 235 118 84
0.09133683890104294 -0.3279270529747009 -0.3315635621547699 230 109 90
0.09830150753259659 -0.3181523382663727 -0.32500725984573364 234 115 86
0.09413352608680725 -0.3213433027267456 -0.3215025067329407 236 119 84
0.08049552887678146 -0.32533514499664307 -0.32982710003852844 218 90 104
0.0918089970946312 -0.32491737604141235 -0.3352254331111908 223 97 99
0.09921684861183167 -0.3165335953235626 -0.3360062539577484 233 114 87
0.10505187511444092 -0.3127342164516449 -0.3380095958709717 224 100 97
0.11804240196943283 -0.3167172074317932 -0.34789901971817017 230 109 90
0.12187464535236359 -0.30951640009880066 -0.35957425832748413 229 108 91
0.12042418867349625 -0.30669906735420227 -0.3633398711681366 234 116 85
0.13281521201133728 -0.29612353444099426 -0.366060346364975 232 112 89
0.1357198804616928 -0.294878751039505 -0.37894490361213684 223 98 98
0.12994328141212463 -0.3027937710285187 -0.38054120540618896 225 101 96
0.13654331862926483 -0.2947414517402649 -0.3891700208187103 227 103 95
0.13488024473190308 -0.29810822010040283 -0.3901313245296478 226 102 96
0.13402940332889557 -0.28791365027427673 -0.38597074151039124 227 104 94
0.13202711939811707 -0.2828877568244934 -0.3802242875099182 223 98 98
0.12036503851413727 -0.2821248173713684 -0.3803192973136902 217 89 105
0.11692006886005402 -0.28984102606773376 -0.3755913972854614 211 81 111
0.11874724179506302 -0.2792447507381439 -0.37247782945632935 197 64 125
0.11789913475513458 -0.284444123506546 -0.3691334128379822 195 62 127
0.11491934955120087 -0.2830829918384552 -0.3630332946777344 196 63 126
0.11592275649309158 -0.28002893924713135 -0.35749420523643494 201 69 121
0.11574511975049973 -0.2760393023490906 -0.3552502989768982 198 65 124
0.11250118166208267 -0.2738344073295593 -0.3571130335330963 196 63 126
0.11132907122373581 -0.27231669425964355 -0.34927427768707275 202 70 120
0.10884479433298111 -0.27166426181793213 -0.3444150388240814 207 75 116
0.10753154009580612 -0.2712101340293884 -0.35023728013038635 198 65 124
0.11092506349086761 -0.27112945914268494 -0.34932267665863037 194 61 128
0.11207391321659088 -0.2762717306613922 -0.3470174968242645 194 61 128
0.10766366124153137 -0.2783582806587219 -0.34904658794403076 181 46 140
0.11245455592870712 -0.27349260449409485 -0.3472367823123932 181 46 140
0.11590657383203506 -0.27548426389694214 -0.34489676356315613 182 47 139
0.108209528028965 -0.2724980115890503 -0.34992510080337524 184 50 137
0.10414615273475647 -0.27296286821365356 -0.3486826419830322 182 47 139
0.10550036281347275 -0.2713087797164917 -0.3466845750808716 174 39 145
0.10783147066831589 -0.2723904252052307 -0.3506467342376709 177 43 143
0.09933259338140488 -0.27679428458213806 -0.3474074900150299 175 40 144
0.10085984319448471 -0.27877509593963623 -0.35226768255233765 174 39 145
0.09716840833425522 -0.2768554389476776 -0.34926947951316833 176 42 143
0.09356603771448135 -0.287195086479187 -0.3546115756034851 176 42 143
0.09461548924446106 -0.29464560747146606 -0.34954577684402466 177 43 143
0.10157283395528793 -0.2892783582210541 -0.34345895051956177 180 45 141
0.10159056633710861 -0.28722479939460754 -0.3442486822605133 176 42 143
0.09779158979654312 -0.2804420590400696 -0.341666042804718 175 40 144
0.09184311330318451 -0.2834838330745697 -0.3338117003440857 181 46 140
0.0874609500169754 -0.28286609053611755 -0.3463980555534363 181 46 140
0.08711739629507065 -0.2862774729728699 -0.34580764174461365 169 35 149
0.0902922973036766 -0.2891015112400055 -0.3485884666442871 168 34 150
0.0931113213300705 -0.2882770597934723 -0.3476591408252716 206 74 117
0.08396343886852264 -0.2885867655277252 -0.34771043062210083 172 37 147
0.08633395284414291 -0.3002568483352661 -0.35159003734588623 173 38 146
0.08905074745416641 -0.2918357849121094 -0.35314682126045227 176 42 143
0.08437700569629669 -0.29751527309417725 -0.35666730999946594 186 52 135
0.08478444814682007 -0.29861921072006226 -0.36581993103027344 212 82 110
0.08901278674602509 -0.304347962141037 -0.36426761746406555 213 83 109
0.09425073117017746 -0.3055294454097748 -0.3605186641216278 211 81 111
0.09873849153518677 -0.3048495054244995 -0.3667590618133545 218 90 104
0.09568317979574203 -0.3038772642612457 -0.37065622210502625 198 65 124
0.09785192459821701 -0.31612277030944824 -0.37261056900024414 201 69 121
0.11924982815980911 -0.31380560994148254 -0.36944815516471863 222 96 100
0.1253981590270996 -0.30649223923683167 -0.3568851053714752 215 87 107
0.12856456637382507 -0.3003813624382019 -0.35510018467903137 220 94 102
0.12819164991378784 -0.2930246591567993 -0.35948845744132996 221 95 101
0.12284832447767258 -0.2870044708251953 -0.36422738432884216 230 109 90
0.12009695917367935 -0.28323495388031006 -0.35880452394485474 239 126 78
0.12550267577171326 -0.28421059250831604 -0.3621646463871002 238 124 80
0.1331111639738083 -0.2819300889968872 -0.361179381608963 237 123 81
0.13134469091892242 -0.2795174717903137 -0.3620929718017578 236 120 83
0.12232581526041031 -0.28102007508277893 -0.3657604455947876 244 138 71
0.12166512757539749 -0.2809754014015198 -0.3636077344417572 243 134 73
0.12355312705039978 -0.28059354424476624 -0.3694228529930115 244 137 71
0.12284354120492935 -0.27942201495170593 -0.37439990043640137 238 124 80
0.1218814104795456 -0.2788986563682556 -0.3764633238315582 252 172 50
0.1270141750574112 -0.27696043252944946 -0.36906760931015015 253 181 45
0.12428867816925049 -0.276286780834198 -0.36755701899528503 253 184 44
0.12530051171779633 -0.2765739858150482 -0.3709079921245575 252 199 38
0.12694649398326874 -0.2781737744808197 -0.3738214075565338 246 228 37
0.12489309161901474 -0.2824920415878296 -0.37129709124565125 245 231 38
0.1282871663570404 -0.27914389967918396 -0.3724333643913269 244 234 38
0.13085909187793732 -0.28146716952323914 -0.3761793375015259 245 233 38
0.13219498097896576 -0.283232182264328 -0.38553324341773987 246 229 37
0.13419122993946075 -0.2857084274291992 -0.3883379399776459 246 228 37
0.13583357632160187 -0.2869131863117218 -0.3889530599117279 244 234 38
0.1362512707710266 -0.2890496253967285 -0.3909214437007904 12 7 134
0.13732002675533295 -0.29113954305648804 -0.3946126103401184 33 5 143
0.13771569728851318 -0.28914356231689453 -0.39746204018592834 37 5 145
0.13664379715919495 -0.2906135320663452 -0.40171435475349426 37 5 145
0.13669997453689575 -0.29125040769577026 -0.40103286504745483 39 5 146
0.14429575204849243 -0.29000481963157654 -0.40430811047554016 35 5 144
0.14490391314029694 -0.2962261140346527 -0.4114528000354767 29 6 141
0.14382757246494293 -0.29510819911956787 -0.41499775648117065 59 3 154
0.14741110801696777 -0.2985515296459198 -0.4217328131198883 64 3 156
0.1484805792570114 -0.2949810028076172 -0.4306233525276184 245 233 38
0.1531231701374054 -0.298481285572052 -0.4317934513092041 19 6 137
0.15616697072982788 -0.29942989349365234 -0.4294906258583069 45 4 148
0.1576528698205948 -0.30107390880584717 -0.4280172884464264 69 3 158
0.15532518923282623 -0.3003107011318207 -0.4359835982322693 63 3 156
0.15419092774391174 -0.30378928780555725 -0.4391937553882599 19 6 137
0.1535549908876419 -0.3030334413051605 -0.43944814801216125 21 6 138
0.15312452614307404 -0.3017244040966034 -0.43730631470680237 59 3 154
0.15270359814167023 -0.3006175458431244 -0.4385000765323639 89 1 164
0.15408764779567719 -0.30128246545791626 -0.4339388608932495 54 4 152
0.1559293270111084 -0.2975189983844757 -0.42793920636177063 246 228 37
0.15112194418907166 -0.299401193857193 -0.4267433285713196 253 188 42
0.14726285636425018 -0.29702144861221313 -0.4273873567581177 253 188 42
0.14881211519241333 -0.29662322998046875 -0.4217640161514282 253 184 44
0.15276220440864563 -0.2960265278816223 -0.42293912172317505 253 187 43
0.1536087542772293 -0.297458678483963 -0.42207586765289307 253 184 44
0.152753546833992 -0.2963699996471405 -0.42556363344192505 252 169 52
0.15358300507068634 -0.2948838472366333 -0.4220283031463623 251 163 55
0.15339329838752747 -0.29177072644233704 -0.4264683127403259 250 160 57
0.15578755736351013 -0.29536712169647217 -0.4332026541233063 250 159 58
0.15912672877311707 -0.29514646530151367 -0.4374293088912964 250 159 58
0.15873464941978455 -0.2915683388710022 -0.4388502240180969 250 156 59
0.1594417244195938 -0.29455146193504333 -0.4411010444164276 251 162 56
0.1642991006374359 -0.29708099365234375 -0.45241302251815796 252 166 53
0.16857297718524933 -0.29532667994499207 -0.460845410823822 252 169 52
0.17495112121105194 -0.29269832372665405 -0.46075358986854553 252 173 49
0.17515134811401367 -0.28769102692604065 -0.4554292857646942 253 175 49
0.18333351612091064 -0.29100582003593445 -0.4592447578907013 253 175 49
0.18398517370224 -0.29377901554107666 -0.4616163671016693 253 178 47
0.18764466047286987 -0.2953836917877197 -0.473853200674057 253 178 47
0.19430716335773468 -0.28821802139282227 -0.4759160876274109 253 182 45
0.19486437737941742 -0.2887488007545471 -0.4817637503147125 252 206 37
0.19674089550971985 -0.29233065247535706 -0.47808846831321716 251 211 36
0.19495010375976562 -0.28804534673690796 -0.4865790903568268 252 201 38
0.1962464451789856 -0.28843405842781067 -0.48793911933898926 253 193 40
0.20030179619789124 -0.2896285057067871 -0.4931745231151581 252 201 38
0.1996661126613617 -0.2814004719257355 -0.49738556146621704 253 192 41
0.19836057722568512 -0.28737133741378784 -0.5080251693725586 250 213 36
0.20838826894760132 -0.27429237961769104 -0.520883321762085 253 190 41
0.20918375253677368 -0.27346500754356384 -0.5222331881523132 253 190 41
0.2200799435377121 -0.2697916328907013 -0.5299367308616638 253 188 42
0.21369951963424683 -0.27463245391845703 -0.5325223207473755 253 188 42
0.21103151142597198 -0.2765674293041229 -0.5203512907028198 253 188 42
0.214435413479805 -0.28603923320770264 -0.5186999440193176 253 192 41
0.22136564552783966 -0.279241681098938 -0.5063633918762207 253 190 41
0.21905143558979034 -0.2801003158092499 -0.5065156817436218 253 192 41
0.2103891223669052 -0.27997350692749023 -0.5128934383392334 253 185 43
0.21339088678359985 -0.28091225028038025 -0.5190950036048889 253 185 43
0.21755769848823547 -0.2828473448753357 -0.5181712508201599 253 184 44
0.21735765039920807 -0.2772808074951172 -0.5150682926177979 253 187 43
0.2123814970254898 -0.28188490867614746 -0.5136228203773499 253 182 45
0.20465517044067383 -0.2813042104244232 -0.5219246745109558 253 184 44
0.20084986090660095 -0.2944953441619873 -0.5288168787956238 253 178 47
0.20169872045516968 -0.2828812897205353 -0.5364325046539307 253 179 46
0.20841899514198303 -0.26422587037086487 -0.5384097695350647 253 175 49
0.2063262164592743 -0.2684454619884491 -0.5505754351615906 253 175 49
0.21319176256656647 -0.2485075742006302 -0.5608302354812622 253 182 45
0.21413461863994598 -0.23112888634204865 -0.5578455924987793 253 187 43
0.21335095167160034 -0.19139190018177032 -0.5445478558540344 253 190 41
0.20267333090305328 -0.17812803387641907 -0.5309465527534485 252 172 50
0.20485351979732513 -0.13771644234657288 -0.5078386068344116 253 179 46
0.1956351399421692 -0.10127267241477966 -0.47892817854881287 253 193 40
0.18264712393283844 0.000946269603446126 -0.399819016456604 253 192 41
0.14714325964450836 0.03782356157898903 -0.3020392060279846 253 196 39
0.10674214363098145 0.08461257070302963 -0.2319040596485138 253 198 38
0.07696700096130371 0.12533357739448547 -0.18251879513263702 252 199 38
0.028961071744561195 0.16098609566688538 -0.09703616052865982 249 217 36
-0.007642197888344526 0.174896702170372 -0.030255354940891266 250 213 36
0.0006208356353454292 0.20590873062610626 0.03384234011173248 252 199 38
-0.01800140179693699 0.20428012311458588 0.06950099766254425 248 150 63
-0.011445646174252033 0.19131849706172943 0.04286709800362587 249 154 60
0.005338302347809076 0.17633196711540222 0.022713929414749146 240 128 77
0.0335717648267746 0.1421026587486267 -0.022999364882707596 232 112 89
0.06865870207548141 0.11808434128761292 -0.09638182818889618 224 100 97
0.08551882207393646 0.07492810487747192 -0.14625753462314606 219 91 103
0.13929332792758942 0.02913798950612545 -0.2795257568359375 213 83 109
0.17502935230731964 -0.07595489174127579 -0.38608577847480774 195 62 127
0.22644533216953278 -0.15229398012161255 -0.5182255506515503 181 46 140
0.2320093959569931 -0.22210444509983063 -0.5572605133056641 177 43 143
0.24200905859470367 -0.25173842906951904 -0.550485372543335 163 29 153
0.2206498086452484 -0.2720069885253906 -0.5368790030479431 153 20 159
0.19289231300354004 -0.2750731110572815 -0.5241797566413879 147 16 161
0.16292721033096313 -0.30142876505851746 -0.48536980152130127 144 14 163
0.16839054226875305 -0.29451441764831543 -0.4824661910533905 132 5 166
0.15079590678215027 -0.3023156225681305 -0.47763189673423767 127 3 167
0.13059179484844208 -0.3196336627006531 -0.4690960943698883 129 4 167
0.13152849674224854 -0.32512563467025757 -0.457099974155426 112 0 168
0.14182282984256744 -0.3332989811897278 -0.44683021306991577 101 0 167
0.14197619259357452 -0.33633753657341003 -0.45838937163352966 82 1 163
0.14197131991386414 -0.32440313696861267 -0.46513769030570984 87 1 164
0.1473461091518402 -0.3297337293624878 -0.46690812706947327 76 2 161
0.15448804199695587 -0.3199281096458435 -0.4743705987930298 84 1 163
0.14766481518745422 -0.3256833851337433 -0.4684591293334961 78 2 161
0.14479079842567444 -0.32500213384628296 -0.47611305117607117 82 1 163
0.15073442459106445 -0.32930701971054077 -0.4829764664173126 78 2 161
0.1559217870235443 -0.3316606879234314 -0.48669078946113586 82 1 163
0.15303203463554382 -0.3327760696411133 -0.4827229678630829 81 1 162
0.15545901656150818 -0.332674503326416 -0.47870346903800964 73 2 159
0.15919190645217896 -0.32700416445732117 -0.4757313132286072 82 1 163
0.1545470505952835 -0.31739816069602966 -0.4639263451099396 92 0 165
0.1551847904920578 -0.32758697867393494 -0.4739741086959839 94 0 165
0.157276451587677 -0.3270275890827179 -0.486907958984375 98 0 166
0.1565765142440796 -0.32494276762008667 -0.491080641746521 101 0 167
0.14997683465480804 -0.3219843804836273 -0.491573303937912 106 0 167
0.15781483054161072 -0.3291410505771637 -0.49575963616371155 112 0 168
0.16441386938095093 -0.33276811242103577 -0.4847440719604492 112 0 168
0.1717863529920578 -0.3288113474845886 -0.4789412319660187 109 0 168
0.16602857410907745 -0.32852473855018616 -0.47191286087036133 79 2 162
0.1672416627407074 -0.31573569774627686 -0.4651845693588257 76 2 161
0.17178957164287567 -0.314432293176651 -0.46916207671165466 78 2 161
0.1601807028055191 -0.3180130422115326 -0.47206711769104004 74 2 160
0.16116638481616974 -0.3142908215522766 -0.46706902980804443 73 2 159
0.16915485262870789 -0.31924495100975037 -0.4601927697658539 71 2 159
0.17250430583953857 -0.31765320897102356 -0.46154844760894775 79 2 162
0.168429434299469 -0.32083889842033386 -0.46504050493240356 71 2 159
0.16013096272945404 -0.31947562098503113 -0.47512388229370117 74 2 160
0.1580139845609665 -0.3119185268878937 -0.4755965769290924 84 1 163
0.15062741935253143 -0.3213236331939697 -0.45907947421073914 78 2 161
0.148421511054039 -0.31347349286079407 -0.44904422760009766 84 1 163
0.148110494017601 -0.31595560908317566 -0.438658744096756 89 1 164
0.14641381800174713 -0.3192630708217621 -0.43197572231292725 92 0 165
0.13738425076007843 -0.32142922282218933 -0.4339725971221924 87 1 164
0.1227700412273407 -0.33285337686538696 -0.41585004329681396 82 1 163
0.08999654650688171 -0.32960212230682373 -0.398147314786911 66 3 157
0.08243120461702347 -0.32783544063568115 -0.38071587681770325 61 3 155
0.06884884834289551 -0.33801180124282837 -0.39132624864578247 59 3 154
0.058123938739299774 -0.3423192501068115 -0.40590527653694153 58 4 154
0.026664212346076965 -0.3424051105976105 -0.3904796838760376 68 3 158
-0.006783296354115009 -0.3362508714199066 -0.37839174270629883 66 3 157
0.0013833186822012067 -0.31968408823013306 -0.4010888636112213 51 4 151
-0.029689166694879532 -0.29087984561920166 -0.3453655242919922 31 5 142
-0.09478610754013062 -0.2610911726951599 -0.30742430686950684 27 6 140
-0.04634234309196472 -0.29867926239967346 -0.26629748940467834 242 241 38
0.027733290567994118 -0.29169023036956787 -0.3160119950771332 39 5 146
0.07038910686969757 -0.28885358572006226 -0.3341764509677887 37 5 145
0.0877562090754509 -0.30728134512901306 -0.35120877623558044 35 5 144
0.1130935400724411 -0.32058602571487427 -0.3701257109642029 45 4 148
0.15281058847904205 -0.30725181102752686 -0.39445802569389343 56 4 153
0.1482284665107727 -0.3012858033180237 -0.4114230275154114 73 2 159
0.13160128891468048 -0.30166637897491455 -0.42914649844169617 78 2 161
0.11504396051168442 -0.2985008955001831 -0.4135909378528595 79 2 162
0.11604468524456024 -0.31162405014038086 -0.405582994222641 90 0 165
0.13541966676712036 -0.3043832778930664 -0.3897815942764282 97 0 166
0.11707544326782227 -0.3064519166946411 -0.38903743028640747 94 0 165
0.12069956213235855 -0.3186233639717102 -0.3961433470249176 86 1 163
0.13032512366771698 -0.317254900932312 -0.3876458406448364 86 1 163
0.12191087007522583 -0.29709354043006897 -0.38927239179611206 73 2 159
0.08904832601547241 -0.282346248626709 -0.34205543994903564 69 3 158
-0.11422625929117203 -0.09996989369392395 -0.15422046184539795 59 3 154
-0.34712404012680054 0.19177374243736267 0.36426687240600586 90 0 165
-0.3259996175765991 0.17314136028289795 0.5092025995254517 94 0 165
-0.2797909080982208 0.163410484790802 0.5134774446487427 86 1 163
-0.26736894249916077 0.1530066877603531 0.528364896774292 87 1 164
-0.28393059968948364 0.14001819491386414 0.5210464000701904 81 1 162
-0.30027666687965393 0.15719126164913177 0.52823805809021 81 1 162
-0.2912313640117645 0.1757095605134964 0.527184247970581 71 2 159
-0.29051169753074646 0.18324412405490875 0.5279392004013062 82 1 163
-0.28282397985458374 0.1452365666627884 0.5127649903297424 86 1 163
-0.2553676664829254 0.1403539925813675 0.4907864034175873 82 1 163
-0.2179650217294693 0.0988595187664032 0.4420176148414612 84 1 163
-0.22082427144050598 0.11610718816518784 0.4102872312068939 82 1 163
-0.2147475630044937 0.11727115511894226 0.38635632395744324 79 2 162
-0.21003378927707672 0.10360658168792725 0.36850982904434204 82 1 163
-0.1875988095998764 0.0872400626540184 0.3585883378982544 86 1 163
-0.16637858748435974 0.06154090538620949 0.3470410108566284 87 1 164
-0.15434472262859344 0.0878344178199768 0.33139491081237793 90 0 165
-0.17306286096572876 0.14188094437122345 0.3812809884548187 90 0 165
-0.20872238278388977 0.23145000636577606 0.4233095645904541 97 0 166
-0.2196899950504303 0.25580278038978577 0.4879026710987091 106 0 167
-0.2276849001646042 0.25314709544181824 0.5007535815238953 109 0 168
-0.22490568459033966 0.24827487766742706 0.4982210397720337 111 0 168
-0.21237210929393768 0.20661267638206482 0.4813397526741028 104 0 167
-0.21645903587341309 0.19882072508335114 0.46672552824020386 100 0 167
-0.20905113220214844 0.18055008351802826 0.46782606840133667 97 0 166
-0.21286322176456451 0.18723443150520325 0.46424421668052673 94 0 165
-0.20998258888721466 0.18050816655158997 0.44946998357772827 95 0 166
-0.20811031758785248 0.14235253632068634 0.4320833384990692 90 0 165
-0.19184042513370514 0.09485176205635071 0.3944825232028961 92 0 165
-0.18335740268230438 0.061271898448467255 0.3669198155403137 90 0 165
-0.14057134091854095 0.015589600428938866 0.33893412351608276 84 1 163
-0.14739632606506348 -0.019978618249297142 0.29664814472198486 81 1 162
-0.10058430582284927 -0.05166704207658768 0.20489099621772766 82 1 163
-0.042282022535800934 -0.028849195688962936 0.1044052317738533 84 1 163
-0.036218639463186264 -0.04565925896167755 0.06446290761232376 84 1 163
-0.04697396233677864 -0.016289422288537025 0.10505318641662598 84 1 163
-0.08527140319347382 0.029866721481084824 0.1649436056613922 82 1 163
-0.10608815401792526 0.06852181255817413 0.19726356863975525 73 2 159
-0.11491771042346954 0.10862770676612854 0.24799594283103943 74 2 160
-0.097144715487957 0.09916003793478012 0.24365578591823578 74 2 160
-0.10016235709190369 0.0822066143155098 0.2271917760372162 37 5 145
-0.07455741614103317 0.07185743749141693 0.18437476456165314 21 6 138
-0.028230203315615654 0.05437849462032318 0.17294777929782867 239 248 33
-0.034056149423122406 0.03418968990445137 0.16645193099975586 12 7 134
-0.052910879254341125 0.055895254015922546 0.1679970920085907 239 248 33
-0.05750172212719917 0.09570442885160446 0.18373167514801025 253 181 45
-0.055436134338378906 0.10182827711105347 0.18958722054958344 251 208 36
-0.07600101828575134 0.0804099589586258 0.18394166231155396 250 159 58
-0.05831561237573624 0.07755259424448013 0.15555597841739655 249 154 60
-0.07297809422016144 0.08653858304023743 0.18532074987888336 240 128 77
-0.05976250022649765 0.06901898980140686 0.2129976451396942 253 175 49
-0.09413736313581467 0.1346013993024826 0.26065540313720703 253 198 38
-0.11306662857532501 0.17409862577915192 0.32824912667274475 253 196 39
-0.14360657334327698 0.19302968680858612 0.35703518986701965 253 187 43
-0.15838299691677094 0.1993846595287323 0.381443589925766 253 193 40
-0.15830682218074799 0.18495696783065796 0.3802209198474884 253 190 41
-0.14878825843334198 0.17808595299720764 0.36193767189979553 253 187 43
-0.13786298036575317 0.14821848273277283 0.34379446506500244 253 192 41
-0.1046319231390953 0.09220509976148605 0.2986226975917816 253 188 42
-0.08599203824996948 0.059672705829143524 0.26491856575012207 252 204 37
-0.0894169732928276 0.03971204161643982 0.22710809111595154 253 195 40
-0.11015832424163818 0.08263414353132248 0.2643362879753113 253 198 38
-0.12796460092067719 0.08558139950037003 0.2933148741722107 251 209 36
-0.12641479074954987 0.07632742822170258 0.2979172468185425 249 219 36
-0.12302480638027191 0.06433239579200745 0.29503297805786133 249 217 36
-0.13743606209754944 0.0803331807255745 0.2961750626564026 248 223 36
-0.1770935207605362 0.10759548097848892 0.3474872410297394 243 236 38
-0.2234935462474823 0.18755239248275757 0.4414251148700714 244 234 38
-0.2355864942073822 0.24994437396526337 0.5002991557121277 241 243 38
-0.24663472175598145 0.24678052961826324 0.5110273957252502 243 238 38
-0.2567174732685089 0.23295854032039642 0.5141636729240417 243 238 38
-0.23694492876529694 0.24606738984584808 0.532586932182312 24 6 139
-0.23373648524284363 0.25371649861335754 0.5358574986457825 43 5 148
-0.23639602959156036 0.27966418862342834 0.5147949457168579 37 5 145
-0.23252886533737183 0.2828695774078369 0.5154121518135071 59 3 154
-0.21963103115558624 0.27969890832901 0.5169163346290588 59 3 154
-0.20827555656433105 0.27469590306282043 0.5115258097648621 43 5 148
-0.2034846693277359 0.27976468205451965 0.5154227614402771 49 4 150
-0.2056041657924652 0.2830016613006592 0.5115869641304016 74 2 160
-0.1988464742898941 0.28673887252807617 0.5144281387329102 74 2 160
-0.18979352712631226 0.2944967448711395 0.5120950937271118 68 3 158
-0.18694862723350525 0.2877729535102844 0.5015180706977844 49 4 150
-0.17617091536521912 0.28707969188690186 0.4821682572364807 39 5 146
-0.1759628802537918 0.28207913041114807 0.47986650466918945 63 3 156
-0.1724804788827896 0.28684988617897034 0.49303340911865234 63 3 156
-0.1731155812740326 0.28136736154556274 0.49191609025001526 66 3 157
-0.1889115273952484 0.2862500250339508 0.4906276762485504 68 3 158
-0.19825610518455505 0.2818657457828522 0.4998568892478943 49 4 150
-0.20125354826450348 0.29176443815231323 0.5111087560653687 58 4 154
-0.19867640733718872 0.286756306886673 0.5171401500701904 68 3 158
-0.21508854627609253 0.2920023500919342 0.5153761506080627 63 3 156
-0.2304607778787613 0.2921590209007263 0.5266428589820862 63 3 156
-0.23110903799533844 0.2772983908653259 0.5277273058891296 56 4 153
-0.23651349544525146 0.27059581875801086 0.5266769528388977 63 3 156
-0.24054624140262604 0.2740592062473297 0.5297950506210327 79 2 162
-0.2462252676486969 0.26630786061286926 0.5375325083732605 69 3 158
-0.2503529191017151 0.2709154188632965 0.5359164476394653 71 2 159
-0.2561129927635193 0.26394179463386536 0.5335775017738342 76 2 161
-0.2465563863515854 0.25619474053382874 0.5361682176589966 94 0 165
-0.2451431006193161 0.2586846351623535 0.5346951484680176 89 1 164
-0.24848736822605133 0.27343764901161194 0.5336602926254272 84 1 163
-0.24960413575172424 0.2678055465221405 0.5388791561126709 86 1 163
-0.2531805634498596 0.2534647285938263 0.5417811870574951 68 3 158
-0.250831663608551 0.24861067533493042 0.5435579419136047 71 2 159
-0.25760430097579956 0.23917268216609955 0.5400059223175049 69 3 158
-0.2552430033683777 0.22108303010463715 0.54184490442276 81 1 162
-0.2471594363451004 0.22544683516025543 0.5377987623214722 78 2 161
-0.2462472766637802 0.2125588357448578 0.5350019931793213 82 1 163
-0.25485971570014954 0.1936294585466385 0.5371963977813721 74 2 160
-0.25863683223724365 0.1756362020969391 0.537036657333374 76 2 161
-0.25581279397010803 0.17715591192245483 0.5360049605369568 73 2 159
-0.24840207397937775 0.19875602424144745 0.5411363244056702 76 2 161
-0.26350605487823486 0.19578330218791962 0.5340409278869629 86 1 163
-0.256131649017334 0.19159288704395294 0.5211620330810547 86 1 163
-0.23644210398197174 0.20366103947162628 0.5159370303153992 81 1 162
-0.2358144074678421 0.20395708084106445 0.5188249349594116 90 0 165
-0.23405055701732635 0.21554872393608093 0.49802926182746887 78 2 161
-0.22679835557937622 0.2291238009929657 0.49686312675476074 74 2 160
-0.22908948361873627 0.2273654341697693 0.5066182017326355 86 1 163
-0.23011040687561035 0.24230290949344635 0.5152878761291504 78 2 161
-0.22728370130062103 0.23974250257015228 0.5192489624023438 76 2 161
-0.2288731038570404 0.24218252301216125 0.5046087503433228 92 0 165
-0.24193622171878815 0.24793915450572968 0.5009602904319763 82 1 163
-0.234557643532753 0.24010249972343445 0.5059317350387573 81 1 162
-0.23652344942092896 0.23861652612686157 0.5158107280731201 81 1 162
-0.23623545467853546 0.23730988800525665 0.5221370458602905 81 1 162
-0.24406211078166962 0.23704436421394348 0.5205824375152588 81 1 162
-0.2371370792388916 0.23561258614063263 0.5140214562416077 95 0 166
-0.23974654078483582 0.2356574684381485 0.507375955581665 94 0 165
-0.24372239410877228 0.23878581821918488 0.5119152069091797 90 0 165
-0.2429286390542984 0.22990594804286957 0.525646984577179 76 2 161
-0.248122438788414 0.22976449131965637 0.5377529859542847 81 1 162
-0.24774034321308136 0.22476041316986084 0.5520002245903015 84 1 163
-0.2541869282722473 0.2241712510585785 0.5438843965530396 87 1 164
-0.2620798647403717 0.2167103886604309 0.5492388606071472 82 1 163
-0.2709383964538574 0.2156662493944168 0.5444949865341187 84 1 163
-0.2595627009868622 0.21296098828315735 0.5523903965950012 78 2 161
-0.2534772455692291 0.22340895235538483 0.5467880368232727 76 2 161
-0.2650805413722992 0.22944970428943634 0.5351024866104126 74 2 160
-0.24806369841098785 0.21615268290042877 0.5256856679916382 90 0 165
-0.2185414582490921 0.20351387560367584 0.4989911615848541 92 0 165
-0.2056201696395874 0.19770373404026031 0.4812832176685333 94 0 165
-0.19784608483314514 0.201224222779274 0.4785592555999756 89 1 164
-0.20133227109909058 0.22295472025871277 0.4865379333496094 81 1 162
-0.20262832939624786 0.2317456156015396 0.4942891299724579 73 2 159
-0.20270568132400513 0.2212069183588028 0.5127517580986023 71 2 159
-0.21834546327590942 0.2144421637058258 0.5224816799163818 89 1 164
-0.2197152078151703 0.2039220631122589 0.5315490961074829 82 1 163
-0.2307378202676773 0.20055948197841644 0.532741129398346 86 1 163
-0.23568271100521088 0.19539089500904083 0.5334400534629822 82 1 163
-0.23783479630947113 0.1917952001094818 0.5293694734573364 87 1 164
-0.23631145060062408 0.18766754865646362 0.5265815258026123 82 1 163
-0.23767101764678955 0.19503064453601837 0.5258503556251526 68 3 158
-0.22955980896949768 0.20463848114013672 0.5357276797294617 51 4 151
-0.23022755980491638 0.20565494894981384 0.5313606858253479 56 4 153
-0.23948638141155243 0.19339540600776672 0.5299896001815796 41 5 147
-0.23989707231521606 0.17900876700878143 0.5284432768821716 244 234 38
-0.2484196275472641 0.17125484347343445 0.5219593644142151 244 234 38
-0.2526904344558716 0.18370875716209412 0.5204820036888123 246 229 37
-0.2516215443611145 0.19200961291790009 0.5366091132164001 244 234 38
-0.24228085577487946 0.21257856488227844 0.5428249835968018 244 234 38
-0.26697787642478943 0.21352124214172363 0.5341033339500427 243 238 38
-0.26931121945381165 0.17982077598571777 0.543918788433075 240 246 35
-0.27165675163269043 0.183961883187294 0.5432243943214417 21 6 138
-0.2626725733280182 0.17153063416481018 0.5440727472305298 31 5 142
-0.25960826873779297 0.16405177116394043 0.5669248104095459 21 6 138
-0.2592368423938751 0.1613166332244873 0.5612949728965759 16 7 135
-0.26832154393196106 0.19562573730945587 0.5447526574134827 239 248 33
-0.24948500096797943 0.20033450424671173 0.551277756690979 246 229 37
-0.2475907951593399 0.20225127041339874 0.5329532623291016 247 224 36
-0.24342167377471924 0.22602927684783936 0.5326786637306213 246 228 37
-0.248752623796463 0.22489306330680847 0.5386810898780823 242 241 38
-0.2496253252029419 0.23824186623096466 0.558750569820404 243 238 38
-0.25655344128608704 0.25256919860839844 0.5569733381271362 241 243 38
-0.260566771030426 0.2538226544857025 0.5605965852737427 242 241 38
-0.2660716474056244 0.2562970817089081 0.5660032629966736 246 228 37
-0.2677229940891266 0.2563396692276001 0.5650257468223572 241 243 38
-0.269677996635437 0.25136277079582214 0.5656213760375977 29 6 141
-0.2664055824279785 0.25224238634109497 0.5675317049026489 35 5 144
-0.2619972229003906 0.2534066140651703 0.5725997090339661 56 4 153
-0.2528374493122101 0.2583499252796173 0.5752971768379211 59 3 154
-0.2613793909549713 0.2535095512866974 0.5691157579421997 51 4 151
-0.2587096095085144 0.2529515326023102 0.5776703953742981 41 5 147
-0.2549952268600464 0.25082558393478394 0.5753434300422668 52 4 152
-0.2621460556983948 0.2419310361146927 0.5736703872680664 64 3 156
-0.2568509876728058 0.2532433271408081 0.578889787197113 68 3 158
-0.258544921875 0.25385671854019165 0.58633953332901 61 3 155
-0.26610347628593445 0.24866603314876556 0.5760077834129333 63 3 156
-0.2714637517929077 0.24201790988445282 0.5729655623435974 59 3 154
-0.26845717430114746 0.2516566514968872 0.5738850831985474 71 2 159
-0.26283320784568787 0.2551651895046234 0.5760248303413391 66 3 157
-0.2673476040363312 0.2506694495677948 0.5686126351356506 76 2 161
-0.2666921317577362 0.25667083263397217 0.5662991404533386 68 3 158
-0.26378804445266724 0.2636415660381317 0.5638043284416199 49 4 150
-0.2655848264694214 0.2681938707828522 0.5670408606529236 52 4 152
-0.2706446349620819 0.26314008235931396 0.5737187266349792 51 4 151
-0.26467543840408325 0.2597258687019348 0.5788825750350952 69 3 158
-0.26988571882247925 0.25887686014175415 0.5795304179191589 73 2 159
-0.27396315336227417 0.25638753175735474 0.5800047516822815 78 2 161
-0.2764609456062317 0.24393796920776367 0.5811205506324768 54 4 152
-0.28155237436294556 0.241484135389328 0.58001309633255 58 4 154
-0.27697649598121643 0.24621827900409698 0.5825366377830505 73 2 159
-0.28058475255966187 0.24435611069202423 0.5819047689437866 68 3 158
-0.283577024936676 0.2415623664855957 0.5748231410980225 76 2 161
-0.2817687392234802 0.24306583404541016 0.5756022930145264 73 2 159
-0.28276994824409485 0.2461019605398178 0.5820895433425903 92 0 165
-0.2824253439903259 0.2396509051322937 0.5762749314308167 94 0 165
-0.28284406661987305 0.24802398681640625 0.5702611207962036 130 4 167
-0.28979426622390747 0.25102242827415466 0.570354163646698 164 30 152
-0.2924795150756836 0.24223405122756958 0.5789573788642883 168 34 150
-0.2962174713611603 0.23716989159584045 0.5749720335006714 159 26 155
-0.3014789819717407 0.21954765915870667 0.5804816484451294 155 23 158
-0.30229637026786804 0.21169930696487427 0.5731090903282166 164 30 152
-0.299727201461792 0.20730552077293396 0.5813671946525574 172 37 147
-0.302698016166687 0.19307206571102142 0.5799869894981384 162 28 154
-0.30146723985671997 0.20774643123149872 0.5733489990234375 168 34 150
-0.2951193153858185 0.20195403695106506 0.5830414295196533 164 30 152
-0.2950831353664398 0.19655604660511017 0.5850618481636047 169 35 149
-0.2968824803829193 0.19568341970443726 0.588316798210144 158 25 156
-0.2856637239456177 0.16099423170089722 0.5957245826721191 164 30 152
-0.2716996371746063 0.139027938246727 0.5965532660484314 165 31 151
-0.25714051723480225 0.1590242087841034 0.5868778824806213 154 21 158
-0.2716798782348633 0.1470165103673935 0.5567896366119385 146 15 162
-0.2964946925640106 0.12890399992465973 0.5183233022689819 151 19 160
-0.29518261551856995 0.15043635666370392 0.5036919116973877 155 23 158
-0.30611374974250793 0.15629057586193085 0.49896693229675293 139 9 164
-0.306356817483902 0.16946369409561157 0.4983615279197693 139 9 164
-0.3026532530784607 0.16375021636486053 0.5000531077384949 134 7 166
-0.30494800209999084 0.15674284100532532 0.49861571192741394 136 7 165
-0.30666637420654297 0.13609954714775085 0.4905681312084198 136 7 165
-0.3111560344696045 0.11448447406291962 0.4766753315925598 134 7 166
-0.2977132201194763 0.11935213208198547 0.45930323004722595 101 0 167
-0.2934185564517975 0.10365170985460281 0.43202707171440125 134 7 166
-0.2982863783836365 0.10851512849330902 0.4145762622356415 137 8 165
-0.2955339252948761 0.11176800727844238 0.4103347361087799 147 16 161
-0.30045175552368164 0.10734639316797256 0.409117728471756 154 21 158
-0.3029911518096924 0.12061919271945953 0.4086293876171112 154 21 158
-0.30206021666526794 0.13075459003448486 0.42243242263793945 167 33 151
-0.3076218068599701 0.12426035106182098 0.43546220660209656 172 37 147
-0.3069233000278473 0.1302008181810379 0.4438488185405731 169 35 149
-0.3138248920440674 0.11677917093038559 0.45075705647468567 167 33 151
-0.3224216103553772 0.11130066961050034 0.4536595940589905 168 34 150
-0.32468774914741516 0.12421296536922455 0.46660053730010986 168 34 150
-0.323394775390625 0.12497182190418243 0.4784702658653259 172 37 147
-0.3262094557285309 0.13854752480983734 0.4908413290977478 170 36 148
-0.3184434473514557 0.1477091759443283 0.506462812423706 143 13 163
-0.3139820396900177 0.1415548026561737 0.5104511976242065 118 1 168
-0.3105752468109131 0.13025939464569092 0.49938032031059265 104 0 167
-0.31031015515327454 0.10482308268547058 0.489149808883667 103 0 167
-0.2974190413951874 0.055912476032972336 0.44259005784988403 98 0 166
-0.2983284294605255 0.023225508630275726 0.39692631363868713 100 0 167
-0.27570945024490356 -0.02957523986697197 0.3240353763103485 94 0 165
-0.25353115797042847 -0.040312759578228 0.27960464358329773 95 0 166
-0.2546675205230713 -0.05119476094841957 0.26149916648864746 89 1 164
-0.27194643020629883 -0.0046001942828297615 0.29951760172843933 92 0 165
-0.2982357442378998 0.05871979147195816 0.35846254229545593 98 0 166
-0.29685190320014954 0.13206760585308075 0.42497703433036804 101 0 167
-0.29903101921081543 0.15354745090007782 0.46180132031440735 97 0 166
-0.30756720900535583 0.1695418804883957 0.48399102687835693 101 0 167
-0.29692739248275757 0.1724184900522232 0.4868297576904297 97 0 166
-0.30355939269065857 0.15821649134159088 0.49344897270202637 98 0 166
-0.3134205639362335 0.16436491906642914 0.5046519041061401 98 0 166
-0.30456891655921936 0.1649777740240097 0.5032668709754944 101 0 167
-0.30349522829055786 0.17590828239917755 0.4995681047439575 103 0 167
-0.305711567401886 0.17201422154903412 0.5001006722450256 101 0 167
-0.30542412400245667 0.1716286987066269 0.5071192383766174 104 0 167
-0.3006890118122101 0.1606345921754837 0.5103568434715271 101 0 167
-0.30008620023727417 0.16712401807308197 0.5217506289482117 98 0 166
-0.29101210832595825 0.18364819884300232 0.5315372943878174 97 0 166
-0.2856692373752594 0.19245558977127075 0.5292848944664001 101 0 167
-0.2788887917995453 0.18257229030132294 0.5338104367256165 104 0 167
-0.2854655683040619 0.18874764442443848 0.5392475128173828 121 1 168
-0.28132128715515137 0.1751718968153 0.5374531745910645 124 2 167
-0.2944565713405609 0.17756250500679016 0.5313966870307922 120 1 168
-0.2960144579410553 0.16994459927082062 0.5329276919364929 101 0 167
-0.29924947023391724 0.18095092475414276 0.5262277126312256 101 0 167
-0.2955096960067749 0.15676751732826233 0.5349434614181519 69 3 158
-0.2962755560874939 0.14635391533374786 0.5373573303222656 64 3 156
-0.3008475601673126 0.1369556486606598 0.5280532240867615 64 3 156
-0.30276018381118774 0.13003841042518616 0.5265427231788635 33 5 143
-0.304920494556427 0.10496040433645248 0.5145710110664368 21 6 138
-0.2986924648284912 0.07756657153367996 0.49334022402763367 241 243 38
-0.2870912253856659 0.05462254211306572 0.4679785668849945 245 233 38
-0.2727205455303192 -0.02009594440460205 0.41154128313064575 245 231 38
-0.25473377108573914 -0.05297312140464783 0.3334044814109802 247 226 37
-0.22286459803581238 -0.11191946268081665 0.2847166061401367 243 236 38
-0.21333380043506622 -0.1386410892009735 0.22863177955150604 245 233 38
-0.22164933383464813 -0.14050441980361938 0.22293101251125336 248 223 36
-0.23879480361938477 -0.12717537581920624 0.23777814209461212 252 199 38
-0.2357555478811264 -0.10030392557382584 0.2639162838459015 253 193 40
-0.25505784153938293 -0.06175945699214935 0.32214242219924927 253 193 40
-0.2652360200881958 -0.04195435345172882 0.36181703209877014 253 198 38
-0.27096059918403625 -0.038342949002981186 0.3887878358364105 252 206 37
-0.2682364284992218 -0.05215999111533165 0.38788580894470215 248 223 36
-0.2641940712928772 -0.042210742831230164 0.3941931426525116 248 223 36
-0.25948718190193176 -0.010559812188148499 0.42429375648498535 252 201 38
-0.2613725960254669 -0.007409230340272188 0.44611725211143494 252 201 38
-0.2656944692134857 -0.03116917796432972 0.4142719507217407 252 201 38
-0.2565903067588806 -0.034216929227113724 0.4011596441268921 253 192 41
-0.24816957116127014 -0.04878835007548332 0.3872109353542328 253 198 38
-0.26209133863449097 -0.05508948117494583 0.38761019706726074 250 216 36
-0.23910404741764069 -0.08672124147415161 0.35121384263038635 246 229 37
-0.23842447996139526 -0.10971272736787796 0.324351042509079 253 188 42
-0.22346504032611847 -0.11118680983781815 0.30070075392723083 253 184 44
-0.21755023300647736 -0.12747891247272491 0.2907239496707916 253 176 48
-0.19967728853225708 -0.13889162242412567 0.27253398299217224 253 187 43
-0.17541992664337158 -0.1718605011701584 0.2159494161605835 251 162 56
-0.15041223168373108 -0.21408484876155853 0.15032894909381866 248 152 62
-0.11031993478536606 -0.25011125206947327 0.09557564556598663 249 154 60
-0.0818394124507904 -0.2595110833644867 0.051501333713531494 248 149 64
-0.08401983231306076 -0.2609344720840454 0.026264116168022156 243 134 73
-0.08817089349031448 -0.2621961832046509 0.012569811195135117 237 123 81
-0.11118853837251663 -0.25252535939216614 0.03891263157129288 236 119 84
-0.08581726253032684 -0.26430949568748474 0.028747880831360817 222 96 100
-0.04768967255949974 -0.2730143964290619 -0.007628338877111673 216 88 106
-0.0012042465386912227 -0.2852309048175812 -0.0537162646651268 216 88 106
0.026999354362487793 -0.30637145042419434 -0.11264552175998688 218 90 104
0.06816662847995758 -0.3223925828933716 -0.20078852772712708 213 83 109
0.10424154251813889 -0.34026139974594116 -0.2696278691291809 221 95 101
0.1325962245464325 -0.3337436318397522 -0.32127994298934937 215 87 107
0.1485394686460495 -0.32413724064826965 -0.35261112451553345 216 88 106
0.15686990320682526 -0.32506394386291504 -0.37629184126853943 210 80 112
0.1595430225133896 -0.3246685862541199 -0.384517639875412 209 78 114
0.15493927896022797 -0.3130004107952118 -0.3914625346660614 196 63 126
0.15286746621131897 -0.3238767385482788 -0.37531545758247375 215 86 108
0.1570592224597931 -0.31403544545173645 -0.37409648299217224 229 108 91
0.1665090173482895 -0.310720294713974 -0.37313932180404663 215 86 108
0.1704162061214447 -0.33141881227493286 -0.3815421462059021 209 78 114
0.17575830221176147 -0.3251965343952179 -0.3980216979980469 205 73 117
0.180505633354187 -0.3219582438468933 -0.41107460856437683 208 77 115
0.18366745114326477 -0.3298420011997223 -0.4246264398097992 207 75 116
0.18304380774497986 -0.33160603046417236 -0.4326256811618805 209 78 114
0.1853625774383545 -0.3265594244003296 -0.4404412508010864 208 77 115
0.18415240943431854 -0.3246813118457794 -0.4461040794849396 209 78 114
0.17762422561645508 -0.33617106080055237 -0.4446329176425934 212 82 110
0.18260258436203003 -0.3280170261859894 -0.4372084438800812 223 97 99
0.1725882738828659 -0.3310531675815582 -0.4255942106246948 230 109 90
0.1650751680135727 -0.3331255614757538 -0.4158269166946411 253 175 49
