ply
format ascii 1.0
element vertex 681
property float x
property float y
property float z
property uchar red
property uchar green
property uchar blue
end_header
0.25266125798225403 -0.07353737950325012 0.4937310218811035 24 6 139
0.24808213114738464 -0.06464174389839172 0.4882085919380188 21 6 138
0.2229939103126526 -0.0416666679084301 0.4790036380290985 27 6 140
0.2212202399969101 -0.02091911807656288 0.4700460135936737 24 6 139
0.20183596014976501 0.01125898864120245 0.4591694176197052 21 6 138
0.16599702835083008 0.0476403534412384 0.4371683895587921 24 6 139
0.1470443159341812 0.057928308844566345 0.41777023673057556 33 5 143
0.16791892051696777 0.02508966624736786 0.44038933515548706 33 5 143
0.15992125868797302 0.017097994685173035 0.4648045301437378 33 5 143
0.18968412280082703 -0.00835464894771576 0.4751322567462921 24 6 139
0.20123571157455444 0.010281679220497608 0.4730214476585388 21 6 138
0.18464505672454834 0.03499365597963333 0.46925002336502075 21 6 138
0.1649099737405777 0.04694907367229462 0.4575313925743103 19 6 137
0.16020062565803528 0.06363645195960999 0.4547562599182129 16 7 135
0.16458307206630707 0.07983364909887314 0.4481034576892853 16 7 135
0.15682490170001984 0.07506538182497025 0.4437350928783417 16 7 135
0.12737490236759186 0.08842197805643082 0.43598082661628723 19 6 137
0.16628119349479675 0.07231561839580536 0.43087902665138245 19 6 137
0.17238567769527435 0.08378542959690094 0.442773699760437 24 6 139
0.14199195802211761 0.10272923856973648 0.4269913136959076 37 5 145
0.12273923307657242 0.11310706287622452 0.4211810231208801 43 5 148
0.14139866828918457 0.11544950306415558 0.41493746638298035 43 5 148
0.13516423106193542 0.1310538798570633 0.40841802954673767 47 4 149
0.11344591528177261 0.13702896237373352 0.39188817143440247 54 4 152
0.09824769198894501 0.15240958333015442 0.3895678222179413 49 4 150
0.1254202425479889 0.12979720532894135 0.38188281655311584 52 4 152
0.10336977988481522 0.15303504467010498 0.38219475746154785 58 4 154
0.10189781337976456 0.15541207790374756 0.3664923906326294 68 3 158
0.09620696306228638 0.15791136026382446 0.35875460505485535 92 0 165
0.07479053735733032 0.1667660027742386 0.345880389213562 89 1 164
0.07788025587797165 0.16541294753551483 0.3345683515071869 97 0 166
0.06563346087932587 0.17818254232406616 0.3483717739582062 104 0 167
0.08084245771169662 0.1590307503938675 0.34089723229408264 100 0 167
0.08268890529870987 0.18160803616046906 0.34907087683677673 106 0 167
0.08781678974628448 0.18192312121391296 0.34433162212371826 117 0 168
0.08884845674037933 0.18971934914588928 0.34269076585769653 130 4 167
0.09417152404785156 0.190958634018898 0.34061866998672485 117 0 168
0.07799231261014938 0.20434610545635223 0.33208855986595154 120 1 168
0.0513334684073925 0.2177574336528778 0.3182638883590698 133 6 166
0.049011021852493286 0.20305973291397095 0.32218366861343384 142 12 164
0.060537029057741165 0.18798679113388062 0.32203805446624756 142 12 164
0.05230990797281265 0.1983301341533661 0.33097997307777405 121 1 168
0.056892357766628265 0.1907157301902771 0.3281335234642029 109 0 168
0.06316369771957397 0.1827513426542282 0.3283439874649048 103 0 167
0.07286853343248367 0.17078685760498047 0.34350740909576416 98 0 166
0.07515686750411987 0.1635337620973587 0.3537898063659668 87 1 164
0.08048558235168457 0.1671416163444519 0.35117289423942566 78 2 161
0.07380831986665726 0.18477994203567505 0.3495798707008362 69 3 158
0.06283258646726608 0.18667840957641602 0.3375721871852875 58 4 154
0.07383625209331512 0.18179230391979218 0.3361912667751312 49 4 150
0.07120945304632187 0.18399681150913239 0.3418804407119751 45 4 148
0.06897025555372238 0.18059203028678894 0.34321314096450806 49 4 150
0.07953374087810516 0.17171058058738708 0.35686159133911133 47 4 149
0.08474665135145187 0.1655556708574295 0.3651527166366577 43 5 148
0.09135081619024277 0.16388078033924103 0.3663865923881531 39 5 146
0.0956408753991127 0.16336454451084137 0.36696919798851013 35 5 144
0.09726667404174805 0.16965363919734955 0.3640134632587433 37 5 145
0.07722797989845276 0.17870338261127472 0.35831159353256226 31 5 142
0.06593776494264603 0.18212127685546875 0.35166335105895996 35 5 144
0.08368617296218872 0.1768784523010254 0.3489302694797516 37 5 145
0.09145768731832504 0.15520335733890533 0.3629797101020813 35 5 144
0.08872397989034653 0.14764149487018585 0.3733919560909271 39 5 146
0.08376391977071762 0.15865540504455566 0.3833218514919281 47 4 149
0.11753010749816895 0.13454017043113708 0.38455668091773987 59 3 154
0.11862793564796448 0.13525429368019104 0.38637009263038635 69 3 158
0.029735999181866646 0.26720836758613586 0.25320327281951904 69 3 158
0.0994202122092247 0.30345290899276733 0.21058955788612366 68 3 158
0.13314010202884674 0.07816752791404724 0.17468564212322235 47 4 149
0.050612520426511765 -0.03756653517484665 0.16618682444095612 49 4 150
0.16910961270332336 0.0028315025847405195 0.3154873847961426 49 4 150
0.1277923882007599 0.05785641074180603 0.3958985507488251 47 4 149
0.049261294305324554 0.14498503506183624 0.4018503725528717 49 4 150
0.040001776069402695 0.13829189538955688 0.39371535181999207 45 4 148
0.044471826404333115 0.12306299060583115 0.4023851156234741 45 4 148
0.04683370143175125 0.08562038838863373 0.44444772601127625 47 4 149
0.013230814598500729 0.09970927238464355 0.46111366152763367 41 5 147
-0.005099596921354532 0.10882356017827988 0.44001296162605286 39 5 146
-0.06594274193048477 -0.04539170116186142 0.3201192319393158 33 5 143
-0.12486158311367035 -0.16930292546749115 0.34388676285743713 43 5 148
0.026680968701839447 -0.303609699010849 0.3659370541572571 41 5 147
0.07413638383150101 -0.3227940499782562 0.3205926716327667 43 5 148
0.11765388399362564 -0.36161547899246216 0.2997746169567108 33 5 143
0.1453770250082016 -0.3219037353992462 0.28138110041618347 31 5 142
0.1528405100107193 -0.2935110330581665 0.27765846252441406 31 5 142
0.17448736727237701 -0.2575162351131439 0.3295076787471771 27 6 140
0.2927829921245575 -0.29873284697532654 0.4625248610973358 27 6 140
0.30678534507751465 -0.2570464611053467 0.5555363297462463 27 6 140
0.2963438332080841 -0.20716531574726105 0.5819066762924194 21 6 138
0.3287006914615631 -0.20713751018047333 0.5794187188148499 21 6 138
0.30972930788993835 -0.18669477105140686 0.5864641666412354 24 6 139
0.30615177750587463 -0.16192275285720825 0.5949511528015137 21 6 138
0.3409951627254486 -0.13398867845535278 0.6141335964202881 21 6 138
0.3326456546783447 -0.0771251916885376 0.6194237470626831 21 6 138
0.3231041729450226 -0.04295767843723297 0.5991728901863098 29 6 141
0.24787434935569763 0.00028177586500532925 0.6013811826705933 29 6 141
0.26443707942962646 -0.0059934030286967754 0.5828651785850525 29 6 141
0.2680570185184479 -0.02990124188363552 0.570260226726532 27 6 140
0.2601616084575653 -0.06011037901043892 0.5747935175895691 29 6 141
0.27876320481300354 -0.08441697806119919 0.5824018120765686 29 6 141
0.298149973154068 -0.09107884019613266 0.582802414894104 21 6 138
0.2716861665248871 -0.09574585407972336 0.5744767189025879 19 6 137
0.27596503496170044 -0.1192007064819336 0.5703771114349365 19 6 137
0.29359912872314453 -0.1282203644514084 0.5700730681419373 16 7 135
0.300575315952301 -0.12671315670013428 0.563414990901947 16 7 135
0.2868230640888214 -0.11764226853847504 0.5736016631126404 16 7 135
0.263052761554718 -0.1082732230424881 0.5761880278587341 16 7 135
0.2824918031692505 -0.10579004883766174 0.5753262042999268 16 7 135
0.29516473412513733 -0.09568542242050171 0.570675790309906 19 6 137
0.26643815636634827 -0.08158208429813385 0.5639399886131287 19 6 137
0.2735539972782135 -0.09160304814577103 0.5581654906272888 21 6 138
0.2811063528060913 -0.11433365941047668 0.5537717938423157 31 5 142
0.2775339186191559 -0.14536118507385254 0.5528380870819092 33 5 143
0.2647193372249603 -0.13911105692386627 0.5590513348579407 35 5 144
0.28477248549461365 -0.13147130608558655 0.5672825574874878 35 5 144
0.3186688721179962 -0.12949995696544647 0.5667567849159241 37 5 145
0.2917940318584442 -0.12115047127008438 0.5674934983253479 21 6 138
0.29058974981307983 -0.14730128645896912 0.5645182728767395 35 5 144
0.3038366138935089 -0.18309345841407776 0.5435066819190979 33 5 143
0.3182511627674103 -0.18913859128952026 0.5399850606918335 31 5 142
0.299664705991745 -0.1681201308965683 0.5681999325752258 31 5 142
0.30853819847106934 -0.1624782681465149 0.5762448906898499 33 5 143
0.306272029876709 -0.1265358179807663 0.5788418054580688 29 6 141
0.32236984372138977 -0.11273612082004547 0.59077388048172 31 5 142
0.27390629053115845 -0.07632796466350555 0.5769678354263306 33 5 143
0.2398579865694046 -0.10279867053031921 0.5445861220359802 35 5 144
0.2440895438194275 -0.11916951835155487 0.5405479073524475 35 5 144
0.260971337556839 -0.11022258549928665 0.5540140271186829 37 5 145
0.28562140464782715 -0.09359578043222427 0.5727434754371643 35 5 144
0.27317315340042114 -0.08004151284694672 0.5973407030105591 37 5 145
0.25355514883995056 -0.0466759130358696 0.600412130355835 49 4 150
0.2996772527694702 -0.027265148237347603 0.6095264554023743 58 4 154
0.2880540192127228 -0.028756676241755486 0.611070990562439 63 3 156
0.25136393308639526 -0.037861090153455734 0.6207390427589417 64 3 156
0.2997669279575348 -0.10395543277263641 0.5842828750610352 61 3 155
0.2745310366153717 -0.06520690023899078 0.5841938853263855 56 4 153
0.2737540006637573 -0.045665860176086426 0.5855463743209839 52 4 152
0.2781629264354706 -0.027407532557845116 0.5590947270393372 49 4 150
0.24472284317016602 -0.0343780592083931 0.5395021438598633 45 4 148
0.245307058095932 -0.09452323615550995 0.5310383439064026 51 4 151
0.24246686697006226 -0.11998812854290009 0.543890655040741 54 4 152
0.26108086109161377 -0.12306361645460129 0.561409056186676 51 4 151
0.24290955066680908 -0.06582098454236984 0.5733810067176819 51 4 151
0.24441386759281158 -0.06249576807022095 0.5635241270065308 45 4 148
0.24171262979507446 -0.055266447365283966 0.545204222202301 47 4 149
0.25660979747772217 -0.08945376425981522 0.537074863910675 41 5 147
0.21242894232273102 -0.08245401084423065 0.5523743629455566 47 4 149
0.25172778964042664 -0.1383930891752243 0.5255884528160095 41 5 147
0.28237977623939514 -0.16203102469444275 0.5518167018890381 56 4 153
0.29638051986694336 -0.1834268867969513 0.5361001491546631 49 4 150
0.32756707072257996 -0.2331056296825409 0.5331851840019226 47 4 149
0.34717828035354614 -0.2620815634727478 0.511720597743988 43 5 148
0.3729161322116852 -0.27441760897636414 0.46706318855285645 43 5 148
0.34305378794670105 -0.2922994792461395 0.40832144021987915 41 5 147
0.33545055985450745 -0.3303890526294708 0.23841753602027893 37 5 145
0.293083518743515 -0.32796868681907654 0.0748547613620758 33 5 143
0.16825182735919952 -0.2996584475040436 0.03657325357198715 33 5 143
0.1564675122499466 -0.2830031216144562 -0.03576144948601723 43 5 148
0.22739319503307343 -0.2873900830745697 -0.07402483373880386 39 5 146
0.20494325459003448 -0.3079361617565155 -0.025721628218889236 43 5 148
0.19237120449543 -0.326596736907959 -0.013187550939619541 41 5 147
0.1635834127664566 -0.3213951587677002 -0.024588750675320625 41 5 147
0.16147296130657196 -0.33323079347610474 -0.006990950554609299 39 5 146
0.10313121974468231 -0.30259549617767334 -0.0734616070985794 37 5 145
0.11454576998949051 -0.29747816920280457 -0.09668268263339996 29 6 141
0.07506492733955383 -0.30760887265205383 -0.1054580956697464 21 6 138
0.05746274068951607 -0.2801097333431244 -0.1189117282629013 21 6 138
0.01622466742992401 -0.24696576595306396 -0.19734424352645874 21 6 138
0.020165156573057175 -0.21201953291893005 -0.1949249655008316 21 6 138
0.019227532669901848 -0.23783659934997559 -0.22418664395809174 29 6 141
0.04316658526659012 -0.24645595252513885 -0.18549668788909912 27 6 140
0.060773007571697235 -0.25373369455337524 -0.2043309509754181 29 6 141
0.05956944823265076 -0.2541244328022003 -0.1786249727010727 29 6 141
0.049292467534542084 -0.26679548621177673 -0.17625977098941803 29 6 141
0.05683957412838936 -0.2541883587837219 -0.18157455325126648 29 6 141
0.07059183716773987 -0.25427737832069397 -0.17080572247505188 27 6 140
0.08264105021953583 -0.27067843079566956 -0.1729470193386078 27 6 140
0.08707362413406372 -0.3114628493785858 -0.16276393830776215 29 6 141
0.07281336188316345 -0.3078330159187317 -0.14453797042369843 31 5 142
0.04844965785741806 -0.2734624147415161 -0.15553399920463562 39 5 146
0.07278992980718613 -0.2658977210521698 -0.17846432328224182 47 4 149
0.08949131518602371 -0.2769771218299866 -0.168602854013443 45 4 148
0.04763622209429741 -0.26111340522766113 -0.15765859186649323 43 5 148
0.035591889172792435 -0.25628894567489624 -0.1600528359413147 41 5 147
0.048213545233011246 -0.25554317235946655 -0.1743529886007309 37 5 145
0.01212421152740717 -0.22438521683216095 -0.19027593731880188 33 5 143
-0.03345773369073868 -0.1894998550415039 -0.24258355796337128 29 6 141
-0.018222805112600327 -0.19765828549861908 -0.2712708115577698 29 6 141
-0.0374368354678154 -0.16276341676712036 -0.2713768780231476 31 5 142
-0.05037159472703934 -0.1575038731098175 -0.2992444634437561 29 6 141
-0.008763948455452919 -0.1794297993183136 -0.28600257635116577 27 6 140
-0.013104941695928574 -0.19096733629703522 -0.2980329096317291 33 5 143
-0.018182076513767242 -0.20283012092113495 -0.2796500325202942 39 5 146
-0.025731202214956284 -0.21472039818763733 -0.2735697627067566 47 4 149
-0.01855352148413658 -0.2265928089618683 -0.277139276266098 56 4 153
-0.010976269841194153 -0.21889691054821014 -0.2643894553184509 71 2 159
-0.04948174208402634 -0.21191993355751038 -0.2758645713329315 74 2 160
-0.040930431336164474 -0.2114449292421341 -0.2744362950325012 74 2 160
-0.041111916303634644 -0.21398289501667023 -0.2676786184310913 69 3 158
-0.05693454667925835 -0.19666822254657745 -0.2795462906360626 66 3 157
-0.03406986594200134 -0.2080833911895752 -0.2728925943374634 64 3 156
-0.03069581836462021 -0.2072514444589615 -0.2643878161907196 52 4 152
-0.03902368247509003 -0.17073586583137512 -0.28565549850463867 56 4 153
-0.04433707892894745 -0.1631404608488083 -0.308209091424942 49 4 150
-0.026624033227562904 -0.16166085004806519 -0.32330161333084106 47 4 149
-0.01833258382976055 -0.19749712944030762 -0.29806697368621826 45 4 148
-0.017734579741954803 -0.2009957879781723 -0.2921770513057709 39 5 146
-0.010840977542102337 -0.2004123330116272 -0.2902933955192566 35 5 144
0.0011571018258109689 -0.21298541128635406 -0.26926228404045105 33 5 143
0.005393890663981438 -0.21738721430301666 -0.2704167366027832 29 6 141
0.02589832991361618 -0.2322554588317871 -0.2453484684228897 24 6 139
0.029576852917671204 -0.24749226868152618 -0.22077614068984985 27 6 140
0.052409254014492035 -0.2720003128051758 -0.19747582077980042 21 6 138
0.06751062721014023 -0.28577902913093567 -0.16490581631660461 24 6 139
0.07566718757152557 -0.30160781741142273 -0.1435745656490326 24 6 139
0.09429381042718887 -0.30887994170188904 -0.10726217925548553 21 6 138
0.09790433943271637 -0.31847918033599854 -0.10121684521436691 21 6 138
0.12022179365158081 -0.32411596179008484 -0.084021657705307 19 6 137
0.10776831954717636 -0.3332310616970062 -0.08986840397119522 21 6 138
0.09642574936151505 -0.3123652935028076 -0.09783018380403519 21 6 138
0.09671823680400848 -0.31176623702049255 -0.11209054291248322 49 4 150
0.09618718177080154 -0.3231540322303772 -0.10814309865236282 51 4 151
0.0806744322180748 -0.3228317201137543 -0.13545890152454376 12 7 134
0.07246200740337372 -0.3255680799484253 -0.150858536362648 27 6 140
0.04617144539952278 -0.3182721734046936 -0.17687848210334778 12 7 134
0.0401054210960865 -0.2949886918067932 -0.19313696026802063 16 7 135
0.029864830896258354 -0.2854160964488983 -0.21369606256484985 43 5 148
0.015132730826735497 -0.27412042021751404 -0.23032687604427338 21 6 138
0.008243394084274769 -0.2545531988143921 -0.24288475513458252 27 6 140
0.004745673853904009 -0.25127774477005005 -0.2618687152862549 24 6 139
0.0010813978733494878 -0.22559303045272827 -0.2501433491706848 29 6 141
-0.014261804521083832 -0.22841596603393555 -0.24164536595344543 19 6 137
-0.0032690868247300386 -0.24572770297527313 -0.24367447197437286 24 6 139
0.004660930018872023 -0.24845550954341888 -0.2285715639591217 27 6 140
-0.002750271698459983 -0.2553512454032898 -0.2433173507452011 21 6 138
0.005455249920487404 -0.2677997648715973 -0.23259839415550232 27 6 140
-0.004562615416944027 -0.25610125064849854 -0.22977139055728912 31 5 142
0.009220178239047527 -0.2581535279750824 -0.23298081755638123 37 5 145
-0.03165801614522934 -0.2499997317790985 -0.23137637972831726 37 5 145
-0.025980133563280106 -0.24096715450286865 -0.24202163517475128 37 5 145
-0.0308205708861351 -0.22726646065711975 -0.2553824186325073 39 5 146
-0.050194185227155685 -0.1733371913433075 -0.2821878492832184 39 5 146
-0.06886664777994156 -0.16878211498260498 -0.3056263327598572 21 6 138
-0.06577491760253906 -0.17717574536800385 -0.30155250430107117 29 6 141
-0.0616474375128746 -0.18630051612854004 -0.29009121656417847 31 5 142
-0.04383367672562599 -0.23666228353977203 -0.2683286666870117 33 5 143
-0.01640492118895054 -0.2503610849380493 -0.24173331260681152 31 5 142
0.0018940961454063654 -0.26047325134277344 -0.24283863604068756 29 6 141
-0.09475988894701004 -0.21861907839775085 -0.2962273359298706 29 6 141
-0.23507057130336761 -0.09385886788368225 -0.3583086431026459 29 6 141
-0.23525889217853546 -0.04381220415234566 -0.43145546317100525 35 5 144
-0.19635483622550964 -0.0023589699994772673 -0.44703295826911926 35 5 144
-0.18089014291763306 0.005978002212941647 -0.4616619944572449 39 5 146
-0.1865496188402176 -0.023321550339460373 -0.44190385937690735 39 5 146
-0.23410150408744812 0.027689192444086075 -0.39514756202697754 39 5 146
-0.16222511231899261 0.013269525952637196 -0.3612595498561859 33 5 143
-0.1802411526441574 0.03903450816869736 -0.29444384574890137 29 6 141
-0.28763625025749207 0.09188246726989746 -0.2521915137767792 33 5 143
-0.16294384002685547 0.07654101401567459 -0.2149328589439392 31 5 142
-0.21913039684295654 0.18029898405075073 -0.18245773017406464 31 5 142
-0.17142538726329803 0.11798195540904999 -0.14392822980880737 31 5 142
-0.19931882619857788 0.006155537907034159 0.16321471333503723 31 5 142
-0.18103355169296265 0.04420499503612518 0.25109994411468506 29 6 141
-0.23034967482089996 0.08188346028327942 0.031140772625803947 29 6 141
-0.45796123147010803 0.05250987410545349 -0.14476437866687775 29 6 141
-0.49685874581336975 -0.04613342136144638 -0.2602996528148651 27 6 140
-0.23392343521118164 -0.047151632606983185 -0.3136967718601227 29 6 141
-0.43267589807510376 0.05241129919886589 -0.25644904375076294 31 5 142
-0.4080340266227722 0.03946784511208534 -0.33607250452041626 37 5 145
-0.3437282145023346 0.02165963314473629 -0.4076695740222931 41 5 147
-0.380257248878479 0.02724333293735981 -0.47200000286102295 43 5 148
-0.355747789144516 -0.012531815096735954 -0.41487231850624084 52 4 152
-0.2685333788394928 0.1409662812948227 -0.3521611988544464 59 3 154
-0.34297797083854675 0.11745253205299377 -0.3633926808834076 61 3 155
-0.3437025547027588 0.1486348658800125 -0.32967332005500793 68 3 158
-0.34583088755607605 0.25566762685775757 -0.3220272958278656 78 2 161
-0.3222734034061432 0.2944239675998688 -0.34005898237228394 92 0 165
-0.3235953748226166 0.25234082341194153 -0.3740638196468353 100 0 167
-0.34464022517204285 0.2098158448934555 -0.39658084511756897 97 0 166
-0.43892431259155273 0.23225322365760803 -0.4186219573020935 94 0 165
-0.45733121037483215 0.3304024636745453 -0.3253791928291321 82 1 163
-0.31239280104637146 0.30599352717399597 -0.2794119119644165 63 3 156
-0.3492220342159271 0.36794570088386536 -0.2551509737968445 59 3 154
-0.28716257214546204 0.37257060408592224 -0.12478933483362198 58 4 154
-0.10968168824911118 0.23250800371170044 0.09294912964105606 45 4 148
-0.07888065278530121 0.21836255490779877 0.21827687323093414 41 5 147
-0.06663347035646439 0.1615636646747589 0.2370663285255432 47 4 149
-0.09526284039020538 0.2545807957649231 0.24989387392997742 51 4 151
-0.005308446474373341 0.17709366977214813 0.22538404166698456 59 3 154
0.0007255488890223205 0.20989511907100677 0.2498725801706314 63 3 156
-0.07072790712118149 0.2217072695493698 0.2175186574459076 71 2 159
-0.07732003927230835 0.2711619734764099 0.18398511409759521 78 2 161
-0.06487390398979187 0.24347807466983795 0.12474125623703003 79 2 162
-0.10073614865541458 0.27367663383483887 0.10189568251371384 74 2 160
-0.12110919505357742 0.29435619711875916 0.07316301017999649 73 2 159
-0.14911504089832306 0.3052699863910675 0.02127601020038128 73 2 159
-0.127234548330307 0.3164503574371338 0.01298571564257145 59 3 154
-0.11590694636106491 0.2828499674797058 -0.01116917934268713 49 4 150
-0.1662832349538803 0.2994006872177124 -0.0027672441210597754 49 4 150
-0.13595931231975555 0.2777932286262512 0.024463657289743423 41 5 147
-0.09960825741291046 0.28235313296318054 0.07360115647315979 39 5 146
-0.052634190768003464 0.2712048888206482 0.14412111043930054 37 5 145
-0.020707260817289352 0.25878626108169556 0.2051224708557129 37 5 145
0.02271459437906742 0.2487238496541977 0.2597154378890991 35 5 144
0.017590845003724098 0.23901811242103577 0.2678222358226776 37 5 145
0.007552760653197765 0.24115177989006042 0.27742865681648254 39 5 146
-0.0018483118619769812 0.25704240798950195 0.27097341418266296 39 5 146
-0.005873753689229488 0.26975834369659424 0.24158194661140442 39 5 146
-0.030441435053944588 0.27467426657676697 0.21259696781635284 39 5 146
-0.04105297848582268 0.2831178605556488 0.19121691584587097 47 4 149
-0.036082226783037186 0.2683815062046051 0.1769505888223648 51 4 151
-0.04103756323456764 0.26397743821144104 0.1879570037126541 56 4 153
-0.030156247317790985 0.2593227028846741 0.21067553758621216 68 3 158
0.014992998912930489 0.24500031769275665 0.23072759807109833 81 1 162
0.008464616723358631 0.24532343447208405 0.23771794140338898 92 0 165
-0.013775117695331573 0.2354782670736313 0.2450251430273056 92 0 165
-0.0034815981052815914 0.23537707328796387 0.24426530301570892 94 0 165
-0.014818478375673294 0.23483069241046906 0.25874465703964233 106 0 167
-0.010721774771809578 0.2296120822429657 0.26361390948295593 118 1 168
0.01480062771588564 0.20351995527744293 0.2647760212421417 132 5 166
0.001624414580874145 0.19324526190757751 0.3139221668243408 146 15 162
0.0337492935359478 0.15458504855632782 0.33454832434654236 149 17 161
0.07969354093074799 0.11531466990709305 0.3678894639015198 149 17 161
0.0857374295592308 0.1118072122335434 0.39023643732070923 142 12 164
0.09202203899621964 0.11084829270839691 0.3907233476638794 144 14 163
0.1092117503285408 0.0978807881474495 0.394758939743042 155 23 158
0.09408477693796158 0.12209200114011765 0.39004358649253845 157 24 157
0.0867186114192009 0.136801615357399 0.37272462248802185 160 27 155
0.0792648196220398 0.15193718671798706 0.3565230071544647 168 34 150
0.07413963973522186 0.1325269341468811 0.3570276200771332 170 36 148
0.0753236711025238 0.10888058692216873 0.3723409175872803 177 43 143
0.1001848354935646 0.09243809431791306 0.39148929715156555 191 57 130
0.11232736706733704 0.0993446558713913 0.39886611700057983 183 48 138
0.10606779158115387 0.10692481696605682 0.39359718561172485 165 31 151
0.09483446180820465 0.11027724295854568 0.3812452554702759 146 15 162
0.08987534791231155 0.10547535866498947 0.3816952705383301 140 10 164
0.09767282754182816 0.09587904065847397 0.3799334168434143 133 6 166
0.08767446875572205 0.09143158048391342 0.388710618019104 132 5 166
0.1166665181517601 0.07309101521968842 0.3886079788208008 144 14 163
0.11784786731004715 0.08214165270328522 0.4046718180179596 151 19 160
0.12331371009349823 0.04705505445599556 0.404259592294693 163 29 153
0.1363535076379776 0.027025682851672173 0.42730382084846497 170 36 148
0.1520894318819046 0.024844089522957802 0.4322446584701538 172 37 147
0.1558360904455185 0.014248542487621307 0.4378480613231659 165 31 151
0.14296898245811462 0.019793884828686714 0.426875501871109 149 17 161
0.14830802381038666 0.010896756313741207 0.42160260677337646 127 3 167
0.14327871799468994 -0.010143834166228771 0.42331525683403015 124 2 167
0.14496798813343048 -0.06058064103126526 0.41462579369544983 97 0 166
0.1796002835035324 -0.12462493777275085 0.4086110293865204 81 1 162
0.21917827427387238 -0.20122161507606506 0.4158284366130829 63 3 156
0.24930812418460846 -0.2753065526485443 0.41282030940055847 49 4 150
0.24074406921863556 -0.3154798448085785 0.3495497405529022 35 5 144
0.21381747722625732 -0.341397762298584 0.24190542101860046 33 5 143
0.2126276046037674 -0.39942997694015503 0.08354100584983826 31 5 142
0.12828871607780457 -0.36457619071006775 -0.05901806056499481 35 5 144
0.06685622781515121 -0.32991257309913635 -0.12873202562332153 37 5 145
0.07392612099647522 -0.32085558772087097 -0.1568923145532608 43 5 148
0.07342947274446487 -0.3158740699291229 -0.1738365888595581 45 4 148
0.05424819514155388 -0.30995339155197144 -0.19826115667819977 45 4 148
0.011914544738829136 -0.250849187374115 -0.24208863079547882 47 4 149
0.01367674395442009 -0.22781874239444733 -0.32044103741645813 43 5 148
-0.02678750269114971 -0.23271474242210388 -0.3063994348049164 37 5 145
0.00872373953461647 -0.25537270307540894 -0.30135995149612427 37 5 145
0.026276087388396263 -0.2697383463382721 -0.24733762443065643 33 5 143
0.03294907882809639 -0.2887265682220459 -0.23347993195056915 29 6 141
0.013665405102074146 -0.2886948585510254 -0.2093786895275116 31 5 142
0.03621973097324371 -0.30299291014671326 -0.20616313815116882 39 5 146
0.05693229287862778 -0.29536324739456177 -0.1825874000787735 31 5 142
0.04851759970188141 -0.2935293912887573 -0.17061766982078552 29 6 141
0.08029568940401077 -0.3012225329875946 -0.1741616576910019 31 5 142
0.06961521506309509 -0.31207743287086487 -0.18192853033542633 31 5 142
0.10177882015705109 -0.3398507833480835 -0.16437695920467377 27 6 140
0.07030622661113739 -0.3070657253265381 -0.14379830658435822 21 6 138
0.003984878305345774 -0.2845255136489868 -0.20308752357959747 21 6 138
0.0024398292880505323 -0.27302825450897217 -0.23159798979759216 27 6 140
0.02097451500594616 -0.2675603926181793 -0.24000538885593414 19 6 137
0.046443238854408264 -0.25643256306648254 -0.24569161236286163 19 6 137
0.06448357552289963 -0.28444144129753113 -0.2328503429889679 27 6 140
0.0663796067237854 -0.29686757922172546 -0.21902698278427124 21 6 138
0.04735027626156807 -0.2894109785556793 -0.19818076491355896 16 7 135
0.07145767658948898 -0.29050546884536743 -0.14855773746967316 16 7 135
0.16500568389892578 -0.32106316089630127 -0.051356859505176544 19 6 137
0.11717444658279419 -0.3241983950138092 -0.0125337615609169 24 6 139
0.16941529512405396 -0.3398125171661377 0.023635078221559525 39 5 146
0.19800437986850739 -0.3404139578342438 0.05634932965040207 49 4 150
0.15949904918670654 -0.31052500009536743 0.06322579085826874 49 4 150
0.19781330227851868 -0.3671831488609314 0.10404674708843231 37 5 145
0.22529706358909607 -0.37548163533210754 0.14292073249816895 33 5 143
0.21381595730781555 -0.37439581751823425 0.19039280712604523 33 5 143
0.25182297825813293 -0.3868671655654907 0.214401513338089 33 5 143
0.2641536593437195 -0.34407779574394226 0.21091391146183014 33 5 143
0.23438134789466858 -0.32553690671920776 0.20104211568832397 39 5 146
0.26230812072753906 -0.3433057963848114 0.22051450610160828 41 5 147
0.27643394470214844 -0.3164399266242981 0.2739347517490387 43 5 148
0.26226839423179626 -0.34252744913101196 0.31871363520622253 45 4 148
0.2951192259788513 -0.3438308835029602 0.37291622161865234 45 4 148
0.29992613196372986 -0.30890515446662903 0.3922339379787445 43 5 148
0.2971828877925873 -0.3418554663658142 0.387423038482666 41 5 147
0.292931467294693 -0.3391580581665039 0.38026049733161926 39 5 146
0.2876177132129669 -0.3612787127494812 0.33849623799324036 35 5 144
0.2420162856578827 -0.33707544207572937 0.3092615604400635 35 5 144
0.23709864914417267 -0.3567633628845215 0.21559126675128937 33 5 143
0.20658621191978455 -0.31446656584739685 0.11709648370742798 31 5 142
0.1915121227502823 -0.29044434428215027 0.1297435313463211 29 6 141
0.23166124522686005 -0.31684625148773193 0.17824524641036987 27 6 140
0.22837483882904053 -0.2633286416530609 0.20861510932445526 27 6 140
0.22038421034812927 -0.3075603246688843 0.16001102328300476 35 5 144
0.17959991097450256 -0.2658752501010895 0.14501440525054932 37 5 145
0.19749172031879425 -0.3056113123893738 0.15824903547763824 31 5 142
0.22324973344802856 -0.3270817995071411 0.12771688401699066 35 5 144
0.20874059200286865 -0.3278575837612152 0.12095755338668823 33 5 143
0.2229468673467636 -0.3111533522605896 0.1446284055709839 33 5 143
0.2184157818555832 -0.2903994619846344 0.1570773869752884 31 5 142
0.19109943509101868 -0.31393149495124817 0.12178949266672134 37 5 145
0.15825669467449188 -0.31494563817977905 0.11575106531381607 41 5 147
0.20508383214473724 -0.3155428469181061 0.12396781891584396 49 4 150
0.2142801433801651 -0.3066941201686859 0.11608297377824783 56 4 153
0.1816144734621048 -0.3136724531650543 0.06807031482458115 63 3 156
0.1305348426103592 -0.2996421754360199 0.027535874396562576 64 3 156
0.15348444879055023 -0.3063405752182007 0.04206953942775726 68 3 158
0.1986793577671051 -0.3039601147174835 0.11809390783309937 71 2 159
0.21465879678726196 -0.28105849027633667 0.1693381816148758 73 2 159
0.23588323593139648 -0.2849991023540497 0.17868870496749878 76 2 161
0.20229074358940125 -0.2573850154876709 0.1301010102033615 79 2 162
0.12831315398216248 -0.25687095522880554 0.028955215588212013 82 1 163
0.12935884296894073 -0.26017728447914124 -0.01630375348031521 84 1 163
0.13495586812496185 -0.2460242211818695 -0.039559341967105865 78 2 161
0.13578228652477264 -0.23270300030708313 0.007518061902374029 81 1 162
0.17077156901359558 -0.2909321188926697 0.07461164146661758 69 3 158
0.1882975697517395 -0.2934224605560303 0.1128782108426094 61 3 155
0.2287043184041977 -0.2945505678653717 0.16194234788417816 63 3 156
0.23981574177742004 -0.3172857463359833 0.20826183259487152 51 4 151
0.2293652892112732 -0.3166901767253876 0.21670792996883392 49 4 150
0.2642741799354553 -0.33243227005004883 0.2719171941280365 41 5 147
0.2782936096191406 -0.3093793988227844 0.33450645208358765 37 5 145
0.2978869080543518 -0.30469170212745667 0.4094385504722595 39 5 146
0.2892261743545532 -0.26010867953300476 0.47439780831336975 41 5 147
0.30397742986679077 -0.24358904361724854 0.5059224963188171 33 5 143
0.3043343126773834 -0.2112160176038742 0.5259227752685547 45 4 148
0.2827247679233551 -0.19561389088630676 0.5439240336418152 35 5 144
0.2777717709541321 -0.17218217253684998 0.5504400730133057 33 5 143
0.24617668986320496 -0.13476042449474335 0.5599960088729858 37 5 145
0.2700631022453308 -0.12755143642425537 0.5696966052055359 35 5 144
0.26872578263282776 -0.11859959363937378 0.5557274222373962 31 5 142
0.2742220461368561 -0.10680759698152542 0.5625909566879272 27 6 140
0.2745955288410187 -0.09514870494604111 0.5732640027999878 24 6 139
0.2737371325492859 -0.02378358691930771 0.5676549077033997 21 6 138
0.29343342781066895 -0.018698593601584435 0.5713008642196655 19 6 137
0.19773471355438232 0.030036596581339836 0.5209646821022034 47 4 149
0.15858495235443115 0.10052663832902908 0.5045384168624878 47 4 149
0.12744486331939697 0.1636846661567688 0.42955282330513 41 5 147
0.11204318702220917 0.1659681648015976 0.3834932744503021 35 5 144
0.11314790695905685 0.1478281319141388 0.39864692091941833 31 5 142
0.13563284277915955 0.13669389486312866 0.4047729969024658 29 6 141
0.13144437968730927 0.15154294669628143 0.3991130590438843 29 6 141
0.09714130312204361 0.15485845506191254 0.3791826069355011 31 5 142
0.047425709664821625 0.1410277783870697 0.36522918939590454 29 6 141
0.0619693361222744 0.1316954344511032 0.3700282573699951 29 6 141
0.10818251222372055 0.14979864656925201 0.3841772675514221 29 6 141
0.16570383310317993 0.14040981233119965 0.3880206048488617 27 6 140
0.15255111455917358 0.14725889265537262 0.38276422023773193 24 6 139
0.08686868101358414 0.16352996230125427 0.3726508617401123 21 6 138
0.10310965776443481 0.1556062400341034 0.38436993956565857 19 6 137
0.11149691045284271 0.11344687640666962 0.4416089653968811 21 6 138
0.10472585260868073 0.17354229092597961 0.43179231882095337 33 5 143
0.08268190920352936 0.2658085823059082 0.38839688897132874 33 5 143
0.05985332652926445 0.25313782691955566 0.31914329528808594 37 5 145
0.05435547977685928 0.24602171778678894 0.28897935152053833 45 4 148
0.033420175313949585 0.24611303210258484 0.2863695025444031 47 4 149
0.020887603983283043 0.24409230053424835 0.26455268263816833 47 4 149
0.03868494927883148 0.23509357869625092 0.26996979117393494 45 4 148
0.04234477877616882 0.23691564798355103 0.2684520483016968 41 5 147
0.0411047637462616 0.2401294708251953 0.2734072506427765 41 5 147
0.0463545024394989 0.2476256787776947 0.2682506740093231 39 5 146
0.026295585557818413 0.26572734117507935 0.23783990740776062 41 5 147
-0.005823652260005474 0.2639518976211548 0.2094217836856842 49 4 150
-0.032974470406770706 0.2736465036869049 0.15299230813980103 58 4 154
-0.08576084673404694 0.30329662561416626 0.08983916789293289 64 3 156
-0.0912448987364769 0.31055501103401184 0.07018784433603287 58 4 154
-0.08095040172338486 0.2835599184036255 0.059324320405721664 59 3 154
-0.08164025098085403 0.3153153955936432 0.05203397572040558 58 4 154
-0.12363740056753159 0.3155207335948944 0.031858526170253754 59 3 154
-0.13415803015232086 0.29974859952926636 0.023576611652970314 59 3 154
-0.12865982949733734 0.21549366414546967 0.02404150739312172 59 3 154
-0.11187762022018433 0.15018412470817566 0.1041535884141922 58 4 154
-0.08248071372509003 0.05777823552489281 0.21244262158870697 52 4 152
0.07123813778162003 0.00409133592620492 0.32863736152648926 45 4 148
0.1408778727054596 0.0005253876443020999 0.4056774377822876 37 5 145
0.14115087687969208 -0.012939670123159885 0.4384986162185669 35 5 144
0.16827018558979034 -0.04724222049117088 0.4497665762901306 33 5 143
0.17148619890213013 -0.0439956933259964 0.4543769657611847 31 5 142
0.18436530232429504 -0.049571309238672256 0.4551134705543518 33 5 143
0.20437783002853394 -0.06622383743524551 0.4588467478752136 35 5 144
0.20763914287090302 -0.08722232282161713 0.4558398425579071 31 5 142
0.20594923198223114 -0.09293553978204727 0.4656265377998352 31 5 142
0.20429255068302155 -0.08641105145215988 0.46800822019577026 31 5 142
0.19943206012248993 -0.0873815268278122 0.46660757064819336 29 6 141
0.2055753618478775 -0.07388421148061752 0.4750250577926636 29 6 141
0.21004056930541992 -0.0673866868019104 0.4619572162628174 31 5 142
0.20065337419509888 -0.07320151478052139 0.4628344774246216 31 5 142
0.2025206983089447 -0.07620970159769058 0.4733331799507141 29 6 141
0.21053853631019592 -0.08879917114973068 0.471993625164032 27 6 140
0.2194611132144928 -0.0875067487359047 0.4658709168434143 24 6 139
0.21150925755500793 -0.08395226299762726 0.46203359961509705 21 6 138
0.21262210607528687 -0.07746829092502594 0.4561026096343994 19 6 137
0.20948314666748047 -0.07438760250806808 0.45230764150619507 19 6 137
0.19681094586849213 -0.08736209571361542 0.45016714930534363 21 6 138
0.1954762041568756 -0.10418488085269928 0.43672657012939453 24 6 139
0.19747401773929596 -0.12476873397827148 0.42264118790626526 31 5 142
0.19703194499015808 -0.1553301215171814 0.42148536443710327 35 5 144
0.21297761797904968 -0.16917015612125397 0.400330513715744 43 5 148
0.21613122522830963 -0.18665839731693268 0.3914477527141571 64 3 156
0.2127806693315506 -0.17207014560699463 0.3937542736530304 74 2 160
0.18892601132392883 -0.16516900062561035 0.39494895935058594 79 2 162
0.18196630477905273 -0.1733746975660324 0.4069371521472931 86 1 163
0.15805090963840485 -0.10490594804286957 0.4220154583454132 100 0 167
0.15073265135288239 -0.16690051555633545 0.37794721126556396 103 0 167
0.13024091720581055 -0.1968315690755844 0.3180488646030426 117 0 168
0.04668990150094032 -0.2420867532491684 0.09222787618637085 133 6 166
0.04701421782374382 -0.24094611406326294 -0.03465961292386055 153 20 159
0.0897350162267685 -0.2839416265487671 -0.05214018002152443 173 38 146
0.0947921946644783 -0.2802358567714691 0.06354336440563202 183 48 138
0.15072831511497498 -0.307084858417511 0.21447168290615082 192 59 129
0.22526612877845764 -0.28998592495918274 0.34450986981391907 203 71 119
0.20317143201828003 -0.23943237960338593 0.3814193308353424 193 60 128
0.21901994943618774 -0.27400708198547363 0.40680205821990967 189 55 132
0.24079573154449463 -0.260187566280365 0.4049055278301239 192 59 129
0.2658378481864929 -0.2730891704559326 0.3863919675350189 196 63 126
0.25876346230506897 -0.3048591613769531 0.36264774203300476 194 61 128
0.24159827828407288 -0.3022889196872711 0.34867075085639954 197 64 125
0.2519994378089905 -0.3150355815887451 0.32633164525032043 188 54 133
0.23637524247169495 -0.37002474069595337 0.3073805272579193 188 54 133
0.22313949465751648 -0.3589527904987335 0.2549092769622803 194 61 128
0.22071000933647156 -0.35841837525367737 0.20038509368896484 195 62 127
0.20340442657470703 -0.3488469123840332 0.19594158232212067 197 64 125
0.18889795243740082 -0.35150501132011414 0.18162284791469574 194 61 128
0.191489115357399 -0.3581441044807434 0.17421022057533264 194 61 128
0.17585448920726776 -0.33586978912353516 0.15680253505706787 195 62 127
0.155692920088768 -0.3369724154472351 0.10421305894851685 191 57 130
0.1288558691740036 -0.33032792806625366 0.07563941180706024 188 54 133
0.12264620512723923 -0.33688095211982727 0.050595808774232864 190 56 131
0.11914031952619553 -0.33613699674606323 -0.0027292300947010517 189 55 132
0.08162854611873627 -0.3148174285888672 -0.03569628298282623 186 52 135
0.10250061005353928 -0.294501394033432 0.006179138086736202 185 51 136
0.12550988793373108 -0.2902723252773285 0.09251734614372253 183 48 138
0.14973554015159607 -0.25443804264068604 0.16396060585975647 187 53 134
0.20475561916828156 -0.23690462112426758 0.2276105284690857 186 52 135
0.21557752788066864 -0.21656975150108337 0.2716767191886902 189 55 132
0.1986013501882553 -0.1871475726366043 0.28060203790664673 194 61 128
0.20663794875144958 -0.17305892705917358 0.2905880808830261 209 78 114
0.20693176984786987 -0.16316017508506775 0.3177875578403473 220 93 102
0.19078929722309113 -0.15282335877418518 0.3326842486858368 225 101 96
0.18489748239517212 -0.138651505112648 0.3334534764289856 232 112 89
0.1865539252758026 -0.1249973475933075 0.3483770191669464 230 109 90
0.18309567868709564 -0.11240725219249725 0.3572028875350952 236 119 84
0.16548219323158264 -0.10508815199136734 0.35559386014938354 245 139 70
0.15547733008861542 -0.10092076659202576 0.34639543294906616 252 167 53
0.13813143968582153 -0.10361224412918091 0.33625170588493347 253 176 48
0.13144874572753906 -0.11824309080839157 0.3187812864780426 252 166 53
0.13775132596492767 -0.10791758447885513 0.3076173663139343 250 160 57
0.12650901079177856 -0.09867516160011292 0.3049857020378113 248 152 62
0.1147003099322319 -0.10174499452114105 0.2896450161933899 243 134 73
0.09105555713176727 -0.0931844562292099 0.26240241527557373 240 129 77
0.07873266935348511 -0.07821796089410782 0.22994615137577057 245 139 70
0.07588360458612442 -0.0797351524233818 0.2002921849489212 236 120 83
0.04552408307790756 -0.07948329299688339 0.1614682674407959 220 93 102
0.012073279358446598 -0.05775206908583641 0.11151761561632156 213 83 109
-0.0010144603438675404 -0.03455144166946411 0.07946738600730896 212 82 110
-0.02453548088669777 -0.03166785463690758 0.061542902141809464 203 71 119
-0.04118993878364563 -0.035275235772132874 0.04738355800509453 195 62 127
-0.04254205897450447 -0.04480946436524391 0.04502658173441887 191 57 130
-0.030981754884123802 -0.07052870094776154 0.04496943950653076 199 66 123
-0.03791273012757301 -0.0769619271159172 0.03155018016695976 200 68 122
-0.05242301523685455 -0.08561357855796814 0.007545046508312225 197 64 125
-0.0477149561047554 -0.10596625506877899 -0.02141084335744381 203 71 119
-0.05956165865063667 -0.12181703001260757 -0.039384085685014725 213 83 109
-0.04397932440042496 -0.14367912709712982 -0.04274372011423111 215 86 108
-0.04499628767371178 -0.1472189575433731 -0.040840309113264084 215 87 107
-0.05934477224946022 -0.12778452038764954 -0.056794676929712296 215 86 108
-0.0927627757191658 -0.0973009318113327 -0.0776561051607132 221 95 101
-0.07946528494358063 -0.10824182629585266 -0.10654451698064804 228 106 93
-0.09149220585823059 -0.10908951610326767 -0.11091768741607666 232 112 89
-0.09270033985376358 -0.08462364226579666 -0.1174015924334526 234 116 85
-0.08871521800756454 -0.08640669286251068 -0.11036773771047592 234 115 86
-0.07806721329689026 -0.07755371183156967 -0.08916446566581726 234 115 86
-0.07266008108854294 -0.057265300303697586 -0.0745384469628334 233 114 87
-0.05695279687643051 -0.056588053703308105 -0.03896353766322136 232 112 89
-0.05670522153377533 -0.046886883676052094 -0.020373329520225525 233 114 87
-0.054993558675050735 -0.04974773898720741 -0.017437031492590904 236 119 84
-0.05874085798859596 -0.04848143458366394 -0.01729040965437889 236 120 83
-0.0760033056139946 -0.029082978144288063 -0.02971225418150425 231 110 90
-0.0943271815776825 -0.004833749961107969 -0.05678408965468407 226 102 96
-0.11169928312301636 0.008518779650330544 -0.08211784809827805 225 101 96
-0.11775881797075272 0.01216073613613844 -0.09199535101652145 227 103 95
-0.13083264231681824 0.01543697714805603 -0.11094184219837189 231 110 90
-0.14472727477550507 0.006114024203270674 -0.12964534759521484 232 112 89
-0.15565137565135956 0.00962834618985653 -0.15788604319095612 218 90 104
-0.16221000254154205 0.009394556283950806 -0.1702345460653305 200 68 122
-0.16521966457366943 0.013560325838625431 -0.18143197894096375 198 65 124
-0.17027781903743744 0.010245493613183498 -0.1845420002937317 195 62 127
-0.17636385560035706 0.007448669523000717 -0.18931663036346436 196 63 126
-0.17976799607276917 0.008181583136320114 -0.19406360387802124 203 71 119
-0.17178674042224884 0.004824281204491854 -0.18602056801319122 208 77 115
-0.1666688174009323 0.008570351637899876 -0.1739855855703354 208 77 115
-0.16692997515201569 0.011938312090933323 -0.17758098244667053 217 89 105
-0.17835865914821625 0.016340550035238266 -0.17738378047943115 227 104 94
-0.17806650698184967 0.021133005619049072 -0.17984600365161896 234 116 85
-0.17676515877246857 0.019261466339230537 -0.1801198124885559 240 128 77
-0.17841796576976776 0.021926265209913254 -0.18837904930114746 234 115 86
-0.18243175745010376 0.027478644624352455 -0.19591663777828217 228 106 93
-0.1830708384513855 0.03393540531396866 -0.20031322538852692 222 96 100
-0.17695559561252594 0.03439943492412567 -0.20010676980018616 220 93 102
-0.17476040124893188 0.03231547400355339 -0.19649319350719452 204 72 118
-0.1794005036354065 0.03896676003932953 -0.19577284157276154 218 90 104
-0.18650415539741516 0.04209115356206894 -0.1885857880115509 226 102 96
-0.18608412146568298 0.04482923075556755 -0.18604004383087158 237 121 82
-0.18960949778556824 0.04185853898525238 -0.17964421212673187 237 121 82
-0.18792709708213806 0.03322168067097664 -0.1766495555639267 230 109 90
-0.18467137217521667 0.030708594247698784 -0.1703689843416214 228 106 93
-0.18394938111305237 0.030547283589839935 -0.16717872023582458 223 98 98
-0.17941194772720337 0.024933356791734695 -0.16542190313339233 227 104 94
-0.18187005817890167 0.028098654001951218 -0.16814559698104858 229 107 92
-0.19426576793193817 0.03362688794732094 -0.17927443981170654 229 107 92
-0.2041597068309784 0.03461539372801781 -0.18427671492099762 231 110 90
-0.19173796474933624 0.013541800901293755 -0.1764620691537857 235 118 84
-0.17186763882637024 -0.006100151687860489 -0.15752147138118744 235 118 84
-0.16283515095710754 -0.016914166510105133 -0.14908136427402496 232 113 88
-0.16308268904685974 -0.027966637164354324 -0.14881090819835663 227 104 94
-0.1685701608657837 -0.03344406932592392 -0.15361186861991882 223 97 99
-0.1678721159696579 -0.04277866333723068 -0.14860095083713531 220 94 102
-0.15776798129081726 -0.048860449343919754 -0.13880565762519836 220 93 102
-0.14304469525814056 -0.06183497980237007 -0.12098225206136703 220 94 102
-0.12532523274421692 -0.07471544295549393 -0.09516427665948868 221 95 101
-0.104947030544281 -0.09039685130119324 -0.07234656065702438 220 93 102
-0.08745455741882324 -0.1157393828034401 -0.048484813421964645 223 98 98
-0.062065206468105316 -0.14699991047382355 -0.02912745252251625 227 104 94
-0.04696901515126228 -0.1710849404335022 -0.004006354603916407 229 108 91
-0.019286178052425385 -0.1989002376794815 0.015384015627205372 231 110 90
0.002487227786332369 -0.23363251984119415 0.035350557416677475 228 106 93
0.017616700381040573 -0.2601960003376007 0.04019656032323837 228 106 93
0.026897229254245758 -0.271700382232666 0.03626269847154617 227 104 94
0.02217903919517994 -0.2699836790561676 0.027821402996778488 227 104 94
0.023060888051986694 -0.2567349374294281 0.02267659269273281 221 95 101
0.01312192715704441 -0.2510233521461487 0.019558988511562347 220 94 102
0.011107142083346844 -0.25137731432914734 0.011718635447323322 221 95 101
0.0037601531948894262 -0.243986576795578 0.010435144416987896 223 97 99
0.003413019236177206 -0.2409162074327469 0.007435769308358431 226 102 96
-0.0014134444063529372 -0.23853452503681183 0.004925008397549391 229 108 91
-0.004027293063700199 -0.23603485524654388 0.00222104974091053 228 106 93
-0.0026880952063947916 -0.23568259179592133 -0.003939679823815823 230 109 90
0.004618463572114706 -0.24442142248153687 -0.010352465324103832 231 110 90
0.0024148616939783096 -0.2531214952468872 -0.01104712300002575 232 113 88
-0.005602889694273472 -0.24856437742710114 -0.03236328810453415 229 107 92
-0.004327767062932253 -0.2461550086736679 -0.048804957419633865 228 106 93
-0.029601983726024628 -0.23464179039001465 -0.07691767066717148 227 104 94
-0.04916345328092575 -0.2114323377609253 -0.12613801658153534 227 104 94
-0.06734946370124817 -0.20522943139076233 -0.18703317642211914 225 101 96
-0.10799247771501541 -0.15889838337898254 -0.26230356097221375 223 98 98
-0.13672135770320892 -0.12523087859153748 -0.32793891429901123 223 97 99
-0.16468821465969086 -0.10184407234191895 -0.3757409155368805 221 95 101
-0.17490153014659882 -0.10060256719589233 -0.3837273120880127 224 100 97
-0.17026814818382263 -0.14273694157600403 -0.3589753210544586 228 106 93
-0.12940555810928345 -0.20541809499263763 -0.28629598021507263 229 107 92
-0.08515764027833939 -0.2759978473186493 -0.19128181040287018 231 110 90
-0.02181853912770748 -0.3209475576877594 -0.10404001921415329 223 97 99
0.012685366906225681 -0.33513712882995605 -0.02417386882007122 218 90 104
0.05839702486991882 -0.34598496556282043 0.02173481322824955 219 91 103
0.07787095010280609 -0.3695646822452545 0.08147398382425308 216 88 106
0.09537281841039658 -0.3674042522907257 0.09658215194940567 220 93 102
0.09090869873762131 -0.36458665132522583 0.10179685801267624 240 128 77
0.08743735402822495 -0.3562428653240204 0.09427058696746826 232 113 88
0.09154613316059113 -0.3526487648487091 0.08938964456319809 231 110 90
0.08112571388483047 -0.33820343017578125 0.08491519838571548 225 101 96
0.06037302315235138 -0.3293772041797638 0.08068734407424927 217 89 105
0.05175432562828064 -0.3251298666000366 0.07776759564876556 216 88 106
0.06269841641187668 -0.33536621928215027 0.08961347490549088 216 88 106
0.05987584590911865 -0.3299420475959778 0.08699251711368561 208 77 115
0.04717760160565376 -0.3126034736633301 0.064853735268116 197 64 125
0.02699795737862587 -0.2974601089954376 0.055374421179294586 208 77 115
0.028815533965826035 -0.27881598472595215 0.053984519094228745 199 66 123
0.013419710099697113 -0.2697530686855316 0.06781844049692154 206 74 117
0.008786683902144432 -0.260580450296402 0.06824854016304016 203 71 119
