ply
format ascii 1.0
element vertex 669
property float x
property float y
property float z
property uchar red
property uchar green
property uchar blue
end_header
-0.1230088323354721 0.2589206397533417 -0.012326676398515701 252 173 49
-0.09334766864776611 0.22429722547531128 0.014294171705842018 252 173 49
-0.0702359527349472 0.20026133954524994 0.019758407026529312 253 175 49
-0.11955803632736206 0.2370462268590927 0.055020641535520554 253 182 45
-0.10945488512516022 0.21622923016548157 0.05398472025990486 253 190 41
-0.08730156719684601 0.19698448479175568 0.12441079318523407 253 195 40
-0.07617223262786865 0.16714239120483398 0.19684256613254547 253 192 41
-0.05353151261806488 0.14971685409545898 0.259507954120636 253 187 43
-0.0440814308822155 0.11947637051343918 0.26559680700302124 253 178 47
-0.01793534867465496 0.12012892961502075 0.27819475531578064 251 164 54
-0.04227206110954285 0.11010967940092087 0.27571168541908264 247 147 65
-0.06614770740270615 0.1267542541027069 0.2391589879989624 244 138 71
-0.1352372169494629 0.1601816862821579 0.1448487639427185 242 133 74
-0.2146078497171402 0.18028002977371216 0.0131370909512043 240 129 77
-0.30687224864959717 0.21312832832336426 -0.10481899976730347 240 128 77
-0.34533634781837463 0.21263718605041504 -0.15888211131095886 237 121 82
-0.3433011472225189 0.20147699117660522 -0.18115085363388062 233 114 87
-0.34406259655952454 0.20969955623149872 -0.23328007757663727 227 103 95
-0.3602660596370697 0.2093116044998169 -0.24018651247024536 218 90 104
-0.37013840675354004 0.19231830537319183 -0.2816618084907532 206 74 117
-0.35993775725364685 0.1798488348722458 -0.305491179227829 195 62 127
-0.3672240078449249 0.17782016098499298 -0.31485581398010254 186 52 135
-0.37402579188346863 0.1736619770526886 -0.38874632120132446 180 45 141
-0.37810584902763367 0.14389261603355408 -0.44017988443374634 180 45 141
-0.31789079308509827 0.029218003153800964 -0.4163292646408081 181 46 140
-0.14454998075962067 -0.08556082844734192 -0.25724849104881287 188 54 133
0.160913348197937 -0.174622043967247 0.027070200070738792 194 61 128
0.27662596106529236 -0.19704294204711914 0.17917819321155548 195 62 127
0.319180428981781 -0.2080148458480835 0.2385500967502594 197 64 125
0.3338926136493683 -0.1922861635684967 0.25264212489128113 203 71 119
0.3309606909751892 -0.19306743144989014 0.26235008239746094 202 70 120
0.33222585916519165 -0.1934443861246109 0.2534863352775574 200 68 122
0.33843159675598145 -0.19634082913398743 0.24426864087581635 199 66 123
0.34150561690330505 -0.1958266645669937 0.23869244754314423 197 64 125
0.3434261381626129 -0.18842525780200958 0.2235025316476822 194 61 128
0.3428966999053955 -0.18510696291923523 0.2181118130683899 195 62 127
0.34910017251968384 -0.19024083018302917 0.22507677972316742 195 62 127
0.3563110828399658 -0.18431062996387482 0.2379874289035797 196 63 126
0.3620638847351074 -0.186632439494133 0.2428722232580185 199 66 123
0.3641139268875122 -0.1835167407989502 0.2355802059173584 200 68 122
0.3595660626888275 -0.176011860370636 0.23052319884300232 202 70 120
0.35900697112083435 -0.18046222627162933 0.23030520975589752 202 70 120
0.3649132251739502 -0.18023143708705902 0.23453277349472046 201 69 121
0.3694569170475006 -0.1761208325624466 0.23245953023433685 201 69 121
0.3629540205001831 -0.16981478035449982 0.23470106720924377 201 69 121
0.37175869941711426 -0.16955284774303436 0.2485373169183731 204 72 118
0.37830010056495667 -0.16995210945606232 0.255054235458374 204 72 118
0.3818618655204773 -0.16304878890514374 0.2639734148979187 207 75 116
0.38224345445632935 -0.1560012847185135 0.271484375 210 80 112
0.3906906247138977 -0.1555047631263733 0.2756475508213043 215 86 108
0.38667765259742737 -0.16081306338310242 0.2740655839443207 223 98 98
0.38742029666900635 -0.16117490828037262 0.2729439437389374 227 103 95
0.38367265462875366 -0.14996591210365295 0.27967509627342224 229 108 91
0.3887224495410919 -0.16386447846889496 0.2868258059024811 232 112 89
0.394631564617157 -0.16756099462509155 0.30289536714553833 232 112 89
0.39551830291748047 -0.16160975396633148 0.30469366908073425 235 118 84
0.39328423142433167 -0.16267871856689453 0.2939935028553009 237 121 82
0.38219061493873596 -0.16115428507328033 0.28545981645584106 243 134 73
0.38982605934143066 -0.15211372077465057 0.27701327204704285 245 139 70
0.39289847016334534 -0.15258513391017914 0.2618758976459503 245 139 70
0.4012015759944916 -0.15652146935462952 0.256785124540329 247 146 65
0.40789586305618286 -0.13117769360542297 0.24322852492332458 247 147 65
0.41326236724853516 -0.11960691958665848 0.23092634975910187 246 145 66
0.4060449004173279 -0.0995965451002121 0.24827302992343903 247 147 65
0.4102821350097656 -0.09728256613016129 0.24907098710536957 248 150 63
0.4055079221725464 -0.07999777793884277 0.25370168685913086 248 150 63
0.4009012281894684 -0.06254923343658447 0.25999975204467773 248 149 64
0.4129067361354828 -0.06436485052108765 0.25481516122817993 247 146 65
0.4098735451698303 -0.04632619023323059 0.25782665610313416 247 146 65
0.40000712871551514 -0.02981182187795639 0.25407224893569946 247 146 65
0.3648006021976471 -0.009534494020044804 0.2590748071670532 244 138 71
0.3381819427013397 0.008233730681240559 0.2730228006839752 244 137 71
0.35187485814094543 0.0017588345799595118 0.26369503140449524 244 138 71
0.37373170256614685 -0.0024896885734051466 0.2495780885219574 244 137 71
0.3965383470058441 -0.013126535341143608 0.23930270969867706 243 135 72
0.4132411777973175 -0.027915988117456436 0.2313425987958908 242 132 75
0.4203147888183594 -0.04780738055706024 0.22750237584114075 239 125 79
0.4107409417629242 -0.07220320403575897 0.22699208557605743 236 120 83
0.40778493881225586 -0.08439204841852188 0.21255236864089966 235 118 84
0.4062974154949188 -0.1072768047451973 0.1906788945198059 234 116 85
0.402557373046875 -0.12533016502857208 0.20311672985553741 232 112 89
0.39967480301856995 -0.13475953042507172 0.20934242010116577 230 109 90
0.4111540913581848 -0.14110203087329865 0.2367623895406723 229 108 91
0.4056537449359894 -0.13710540533065796 0.2392541915178299 229 108 91
0.40964311361312866 -0.14531980454921722 0.23238244652748108 231 110 90
0.4089251160621643 -0.1439177244901657 0.253355473279953 232 113 88
0.41844630241394043 -0.125889390707016 0.2589559555053711 234 115 86
0.4118969738483429 -0.09101409465074539 0.24584218859672546 235 118 84
0.42575255036354065 -0.10186287760734558 0.21918202936649323 235 118 84
0.42852795124053955 -0.11276029795408249 0.20616433024406433 234 116 85
0.4271060824394226 -0.10795474052429199 0.1745454967021942 233 114 87
0.42178449034690857 -0.11437895148992538 0.1609346866607666 231 110 90
0.41845351457595825 -0.12217173725366592 0.15413232147693634 228 106 93
0.4221395254135132 -0.1256875842809677 0.15110060572624207 226 102 96
0.4153504967689514 -0.12697425484657288 0.15016578137874603 227 103 95
0.41285765171051025 -0.13288220763206482 0.14099059998989105 227 104 94
0.4163266718387604 -0.13607054948806763 0.14194883406162262 227 104 94
0.4174763858318329 -0.13363303244113922 0.15305377542972565 227 103 95
0.41189438104629517 -0.13390108942985535 0.1492863893508911 226 102 96
0.40816378593444824 -0.12243834137916565 0.1533978134393692 225 101 96
0.41986584663391113 -0.13343682885169983 0.14460648596286774 223 97 99
0.41437071561813354 -0.1366165429353714 0.15294098854064941 221 95 101
0.4106607735157013 -0.14726866781711578 0.16397708654403687 218 90 104
0.41277897357940674 -0.14758335053920746 0.16813398897647858 216 88 106
0.4122430682182312 -0.16477297246456146 0.16859285533428192 216 88 106
0.4040626883506775 -0.16422875225543976 0.1759520173072815 217 89 105
0.40939608216285706 -0.16459739208221436 0.1816074699163437 217 89 105
0.40344974398612976 -0.17088711261749268 0.1943494826555252 217 89 105
0.40872564911842346 -0.17414458096027374 0.18509447574615479 218 90 104
0.4034714698791504 -0.16943760216236115 0.1693868637084961 217 89 105
0.40409743785858154 -0.16543720662593842 0.16074645519256592 218 90 104
0.4046349823474884 -0.16880112886428833 0.15218079090118408 218 90 104
0.39941680431365967 -0.16547012329101562 0.1417548507452011 218 90 104
0.4000970721244812 -0.16412082314491272 0.13604456186294556 218 90 104
0.3986901342868805 -0.1635766178369522 0.13755345344543457 218 90 104
0.40084943175315857 -0.16494515538215637 0.1479608565568924 219 91 103
0.40402814745903015 -0.15317925810813904 0.14483213424682617 219 91 103
0.40652385354042053 -0.15027041733264923 0.13956120610237122 219 91 103
0.40932124853134155 -0.14142706990242004 0.14009054005146027 220 93 102
0.41525495052337646 -0.1280570924282074 0.14081725478172302 220 93 102
0.4171734154224396 -0.12236931920051575 0.14990761876106262 220 93 102
0.41207119822502136 -0.11756675690412521 0.17211316525936127 221 95 101
0.4175741374492645 -0.11518462747335434 0.19050654768943787 227 103 95
0.41495421528816223 -0.10754954814910889 0.19923388957977295 228 106 93
0.4183935523033142 -0.10651901364326477 0.20593124628067017 229 107 92
0.4142378568649292 -0.10614099353551865 0.20921973884105682 230 109 90
0.4056975245475769 -0.11344140768051147 0.21955373883247375 231 110 90
0.41755184531211853 -0.1120159775018692 0.21991291642189026 231 110 90
0.4165955185890198 -0.11453144997358322 0.2148246169090271 230 109 90
0.4169797897338867 -0.12089686840772629 0.21231552958488464 230 109 90
0.42075812816619873 -0.09931116551160812 0.23517902195453644 229 108 91
0.355278342962265 -0.07885479927062988 0.3659266531467438 229 107 92
0.34220564365386963 0.004495176021009684 0.36990392208099365 253 176 48
0.22406746447086334 0.04843991622328758 0.26604872941970825 253 196 39
0.1804434061050415 0.08439360558986664 0.11606382578611374 253 182 45
0.236601322889328 0.05600762367248535 0.1570754498243332 251 163 55
0.3075938820838928 -0.00519343838095665 0.1690044403076172 250 159 58
0.3200605511665344 -0.07380709052085876 0.2038523107767105 248 149 64
0.3401029407978058 -0.12050599604845047 0.2412324994802475 246 143 67
0.351105660200119 -0.13684837520122528 0.24214181303977966 245 139 70
0.3469183146953583 -0.1441006064414978 0.246652752161026 240 129 77
0.3433329164981842 -0.15026476979255676 0.2615816295146942 236 119 84
0.3738883435726166 -0.1286548525094986 0.2812887132167816 236 119 84
0.40380337834358215 -0.10442257672548294 0.2665988504886627 233 114 87
0.38455912470817566 -0.1130366101861 0.26985299587249756 226 102 96
0.3819617033004761 -0.13161681592464447 0.2650238275527954 222 96 100
0.3783053755760193 -0.13930469751358032 0.256821870803833 223 97 99
0.3733336925506592 -0.16492527723312378 0.23156622052192688 225 101 96
0.35499802231788635 -0.16483432054519653 0.23256169259548187 226 102 96
0.35855400562286377 -0.1717447191476822 0.2341063767671585 227 103 95
0.3694382309913635 -0.15028369426727295 0.23974180221557617 228 106 93
0.37851768732070923 -0.13783763349056244 0.24423882365226746 231 110 90
0.38575246930122375 -0.12058049440383911 0.24939966201782227 232 112 89
0.38965871930122375 -0.12772446870803833 0.2491464912891388 236 120 83
0.387011855840683 -0.1269138902425766 0.25061357021331787 237 121 82
0.3857286274433136 -0.1285410076379776 0.23990021646022797 237 123 81
0.39560163021087646 -0.12871402502059937 0.23548398911952972 237 123 81
0.4066351652145386 -0.1071217730641365 0.24329085648059845 238 124 80
0.4113495349884033 -0.1041443943977356 0.2436630129814148 236 120 83
0.41862034797668457 -0.08861763030290604 0.2537755072116852 237 123 81
0.41883695125579834 -0.06459275633096695 0.25142210721969604 236 120 83
0.41637885570526123 -0.0521518737077713 0.26334160566329956 230 109 90
0.41519689559936523 -0.046564582735300064 0.26776382327079773 240 129 77
0.41723138093948364 -0.028620289638638496 0.27051228284835815 244 137 71
0.4240776300430298 -0.025539642199873924 0.27564266324043274 244 138 71
0.4001411497592926 -0.021284237504005432 0.28329554200172424 243 134 73
0.39510172605514526 -0.04164664447307587 0.30556777119636536 245 139 70
0.39914029836654663 -0.06326872855424881 0.3064191937446594 246 145 66
0.3794352114200592 -0.06908725947141647 0.3029884994029999 247 147 65
0.3752157986164093 -0.07819091528654099 0.30785655975341797 246 145 66
0.3812576234340668 -0.08425287902355194 0.3104718327522278 248 150 63
0.38971638679504395 -0.07299570739269257 0.3204505145549774 247 147 65
0.3939637541770935 -0.07341179251670837 0.32690849900245667 247 146 65
0.3929867744445801 -0.06336576491594315 0.33346620202064514 247 146 65
0.3997595012187958 -0.0676199346780777 0.3421598970890045 247 146 65
0.40637052059173584 -0.05619916692376137 0.3512260913848877 248 152 62
0.4048241972923279 -0.0458652526140213 0.34057480096817017 250 156 59
0.4046022593975067 -0.050171539187431335 0.34377357363700867 250 159 58
0.40047743916511536 -0.06154882535338402 0.3454272150993347 250 159 58
0.40037527680397034 -0.07620922476053238 0.33834755420684814 250 157 58
0.3987450897693634 -0.07979200780391693 0.32763737440109253 250 160 57
0.4058489501476288 -0.08083837479352951 0.3151952028274536 251 162 56
0.41055598855018616 -0.07620622962713242 0.3056226372718811 251 164 54
0.42076313495635986 -0.07389159500598907 0.2889957129955292 252 166 53
0.4163196086883545 -0.07666360586881638 0.2799732983112335 252 166 53
0.4160447418689728 -0.08145619928836823 0.2821143865585327 252 166 53
0.39991477131843567 -0.06521310657262802 0.27234265208244324 252 169 52
0.3981574475765228 -0.062685027718544 0.29003459215164185 252 170 51
0.3978589177131653 -0.035876668989658356 0.2940222918987274 252 170 51
0.3947701156139374 -0.016081545501947403 0.28800782561302185 252 172 50
0.397225022315979 -0.011956644244492054 0.2858135402202606 252 173 49
0.39160314202308655 -0.01307183038443327 0.2730397880077362 252 173 49
0.3928646743297577 -0.023063745349645615 0.26839110255241394 252 170 51
0.39861467480659485 -0.03520216420292854 0.26073282957077026 251 164 54
0.4085427224636078 -0.05843930318951607 0.24797144532203674 250 157 58
0.4094623625278473 -0.07003273814916611 0.23175475001335144 249 153 61
0.40776026248931885 -0.08368276804685593 0.22865623235702515 248 150 63
0.40184667706489563 -0.06757558882236481 0.23988628387451172 246 142 68
0.3975490629673004 -0.06155981495976448 0.27118006348609924 236 119 84
0.40242284536361694 -0.052734486758708954 0.29597124457359314 245 141 69
0.4024941921234131 -0.044272731989622116 0.3001897633075714 245 141 69
0.3997746407985687 -0.03895096853375435 0.29993584752082825 245 139 70
0.3959057033061981 -0.03045986220240593 0.2878401279449463 245 141 69
0.3994732201099396 -0.03359518572688103 0.2694247364997864 245 139 70
0.40786653757095337 -0.034635502845048904 0.2493807077407837 246 142 68
0.40497320890426636 -0.04902948811650276 0.226670503616333 247 146 65
0.4030764400959015 -0.07807917147874832 0.20317573845386505 248 149 64
0.3926760256290436 -0.09929142147302628 0.20309753715991974 248 152 62
0.4017103612422943 -0.11631711572408676 0.18090584874153137 248 152 62
0.3989863097667694 -0.10838934779167175 0.18044263124465942 248 150 63
0.39515048265457153 -0.11176647245883942 0.1806749552488327 248 149 64
0.3973150849342346 -0.10939482599496841 0.21576417982578278 247 146 65
0.39912959933280945 -0.09576865285634995 0.22753815352916718 247 146 65
0.4049181640148163 -0.09682256728410721 0.23473533987998962 248 149 64
0.40489694476127625 -0.10183125734329224 0.2315560281276703 247 147 65
0.4057086706161499 -0.11845888942480087 0.2262410819530487 246 145 66
0.3990809917449951 -0.11847221851348877 0.21083201467990875 246 142 68
0.4112301468849182 -0.11203724145889282 0.22144503891468048 242 132 75
0.39381667971611023 -0.10628390312194824 0.21163241565227509 242 132 75
0.3983570337295532 -0.1201496347784996 0.2224723994731903 242 132 75
0.40729624032974243 -0.11819524317979813 0.21941229701042175 239 126 78
0.411163330078125 -0.11115292459726334 0.21682880818843842 243 134 73
0.3938541114330292 -0.12819233536720276 0.21215243637561798 246 142 68
0.39124709367752075 -0.13649503886699677 0.21771593391895294 245 141 69
0.3917626142501831 -0.13376523554325104 0.2132112681865692 245 139 70
0.3840116560459137 -0.12506327033042908 0.22357597947120667 245 139 70
0.38900768756866455 -0.1261073797941208 0.24278785288333893 245 139 70
0.3943992853164673 -0.11677933484315872 0.249144047498703 245 141 69
0.3914456367492676 -0.12340037524700165 0.2605513036251068 245 141 69
0.38808512687683105 -0.11332777142524719 0.2676064074039459 243 135 72
0.38922324776649475 -0.12434838712215424 0.2505333423614502 242 132 75
0.3943580389022827 -0.1388433426618576 0.22532957792282104 242 132 75
0.3801618814468384 -0.14350801706314087 0.19036830961704254 243 134 73
0.3723432421684265 -0.15823055803775787 0.16965338587760925 244 138 71
0.36506348848342896 -0.13191093504428864 0.16157671809196472 245 139 70
0.37028175592422485 -0.11911468952894211 0.17985931038856506 245 139 70
0.3788919746875763 -0.09626273810863495 0.1907120794057846 246 142 68
0.39326614141464233 -0.07151760905981064 0.1854640394449234 246 143 67
0.37766507267951965 -0.06459405273199081 0.18097245693206787 246 145 66
0.3800196647644043 -0.05906080827116966 0.19201228022575378 246 145 66
0.3673040568828583 -0.05102642998099327 0.18802383542060852 248 150 63
0.36572983860969543 -0.0462055467069149 0.19958005845546722 248 149 64
0.3822544813156128 -0.04005556181073189 0.20756815373897552 247 147 65
0.3869382441043854 -0.02553691156208515 0.22283825278282166 245 141 69
0.38309338688850403 -0.02506920136511326 0.2266622930765152 245 139 70
0.3855956792831421 -0.022811399772763252 0.23296204209327698 247 146 65
0.38837718963623047 -0.024465033784508705 0.24011924862861633 248 152 62
0.3809044361114502 -0.02151905745267868 0.2559966742992401 249 153 61
0.377133309841156 -0.021884175017476082 0.2522992491722107 249 154 60
0.3848241865634918 -0.012146632187068462 0.2603125274181366 249 153 61
0.386272132396698 -0.007660225965082645 0.255447655916214 249 153 61
0.38766199350357056 -0.003551362780854106 0.2558787167072296 249 153 61
0.3782791197299957 0.00382409431040287 0.2530074417591095 248 152 62
0.36903053522109985 0.010969829745590687 0.24295201897621155 248 149 64
0.3519055247306824 0.020266519859433174 0.23220625519752502 248 150 63
0.34149765968322754 0.01843978278338909 0.23392318189144135 248 150 63
0.3499985337257385 0.02717749960720539 0.23058907687664032 248 149 64
0.34579476714134216 0.024709273129701614 0.2307131588459015 248 149 64
0.36377638578414917 0.013807461597025394 0.2295166552066803 248 152 62
0.3727456033229828 -0.0008428547880612314 0.2063385248184204 249 153 61
0.3698957860469818 -0.01057490985840559 0.19190369546413422 250 156 59
0.3711337447166443 -0.03051930107176304 0.17611078917980194 250 157 58
0.38132405281066895 -0.044277582317590714 0.1702512502670288 250 157 58
0.38840949535369873 -0.052095793187618256 0.16309836506843567 250 157 58
0.3838184177875519 -0.053995970636606216 0.1549825817346573 250 157 58
0.3763970732688904 -0.05340219661593437 0.14830097556114197 249 153 61
0.37448182702064514 -0.04567469656467438 0.1491636335849762 248 149 64
0.37781503796577454 -0.03793827444314957 0.15875117480754852 247 146 65
0.38314226269721985 -0.033496517688035965 0.16929803788661957 246 143 67
0.387325257062912 -0.026537669822573662 0.1857793778181076 244 138 71
0.3886474072933197 -0.03173011541366577 0.1948632150888443 242 133 74
0.394490510225296 -0.025955066084861755 0.1938469409942627 242 132 75
0.39031845331192017 -0.01689024455845356 0.20363500714302063 239 125 79
0.3879733681678772 -0.02047543413937092 0.20567210018634796 237 123 81
0.3822771906852722 -0.015711134299635887 0.21952864527702332 237 123 81
0.38410332798957825 -0.018115684390068054 0.21885845065116882 239 125 79
0.381571501493454 -0.014692588709294796 0.2136348932981491 239 125 79
0.3773382902145386 -0.019157204777002335 0.21214556694030762 237 123 81
0.37284767627716064 -0.017292460426688194 0.20440122485160828 238 124 80
0.37193936109542847 -0.015881381928920746 0.2027444839477539 238 124 80
0.3771898150444031 -0.019962754100561142 0.19384318590164185 239 126 78
0.37302151322364807 -0.016586456447839737 0.1917615383863449 242 132 75
0.3768777549266815 -0.028742706403136253 0.1902758628129959 244 137 71
0.3794693052768707 -0.022254034876823425 0.19080579280853271 245 139 70
0.37323012948036194 -0.030003538355231285 0.19037401676177979 246 142 68
0.3637465238571167 -0.032018158584833145 0.19846786558628082 245 139 70
0.36383113265037537 -0.02057301439344883 0.1971638798713684 244 138 71
0.3758784830570221 -0.02984636463224888 0.19006428122520447 245 141 69
0.3842661380767822 -0.03237615525722504 0.18693041801452637 245 139 70
0.38363775610923767 -0.04516219347715378 0.1833907961845398 237 123 81
0.38733455538749695 -0.04623384773731232 0.18233957886695862 239 125 79
0.388270765542984 -0.03538856655359268 0.2004033625125885 234 115 86
0.39353272318840027 -0.023562127724289894 0.2183149755001068 228 106 93
0.3898962736129761 -0.01649254374206066 0.2292795479297638 223 97 99
0.3814976215362549 -0.0073331245221197605 0.22669509053230286 221 95 101
0.3919084072113037 -0.010577259585261345 0.22283606231212616 215 86 108
0.38933250308036804 -0.007261862978339195 0.21106712520122528 212 82 110
0.37896987795829773 -0.02283404767513275 0.21736007928848267 212 82 110
0.3912661671638489 -0.03193184733390808 0.22735919058322906 212 82 110
0.3889670968055725 -0.029844459146261215 0.2077949345111847 211 81 111
0.3868699371814728 -0.03473005071282387 0.19674378633499146 211 81 111
0.38828274607658386 -0.054416198283433914 0.18458300828933716 211 81 111
0.3995789587497711 -0.06252246350049973 0.17583516240119934 217 89 105
0.4011455476284027 -0.06923707574605942 0.15562328696250916 218 90 104
0.39663174748420715 -0.05901138111948967 0.1179455891251564 216 88 106
0.4022979736328125 -0.07513538002967834 0.07095526903867722 212 82 110
0.3770385980606079 -0.07989171147346497 0.012883043847978115 215 86 108
0.3208504021167755 -0.07573595643043518 -0.058211009949445724 213 83 109
0.2629670202732086 -0.06468801945447922 -0.12439417839050293 210 80 112
0.22273774445056915 -0.05750555172562599 -0.18326163291931152 210 80 112
0.20151059329509735 -0.05737053230404854 -0.2040940523147583 210 80 112
0.21500344574451447 -0.05207378789782524 -0.20493482053279877 212 82 110
0.20709741115570068 -0.030742626637220383 -0.23853947222232819 213 83 109
0.17935390770435333 0.0006194699672050774 -0.27088093757629395 215 86 108
0.16590826213359833 0.023282160982489586 -0.27436143159866333 211 81 111
0.18403953313827515 0.010357393883168697 -0.30475541949272156 210 80 112
0.17664466798305511 0.058906376361846924 -0.2916887402534485 210 80 112
0.1830945611000061 0.08068815618753433 -0.25539129972457886 212 82 110
0.2368239462375641 0.10301422327756882 -0.15630631148815155 212 82 110
0.29430386424064636 0.08915629237890244 -0.10405386239290237 213 83 109
0.3187965154647827 0.08394704759120941 -0.07734455168247223 213 83 109
0.312445729970932 0.06846363842487335 -0.12241829931735992 212 82 110
0.26872381567955017 0.11321364343166351 -0.22476331889629364 211 81 111
0.15219664573669434 0.09306184202432632 -0.37286341190338135 209 79 113
0.0008895313367247581 0.09012957662343979 -0.4598900377750397 206 74 117
-0.06949422508478165 0.1020778939127922 -0.47719812393188477 200 68 122
-0.0981077179312706 0.08788411319255829 -0.4699553847312927 192 59 129
-0.07579708844423294 0.0858662873506546 -0.45605626702308655 185 51 136
-0.06119297817349434 0.07150379568338394 -0.4429723918437958 185 51 136
-0.02979614958167076 0.06316056102514267 -0.42769375443458557 186 52 135
-0.02406276762485504 0.08946611732244492 -0.41866642236709595 189 55 132
-0.10646810382604599 0.11082330346107483 -0.4671889543533325 192 59 129
-0.21274690330028534 0.11443952471017838 -0.48977580666542053 189 55 132
-0.24358336627483368 0.1139657199382782 -0.4817897081375122 187 53 134
-0.25442326068878174 0.1386982947587967 -0.47041529417037964 185 51 136
-0.2738645374774933 0.1334906369447708 -0.47331342101097107 177 43 143
-0.29919472336769104 0.14115823805332184 -0.4617915451526642 170 36 148
-0.31346848607063293 0.15725421905517578 -0.4524680972099304 167 33 151
-0.30712890625 0.18542106449604034 -0.4461776614189148 167 33 151
-0.2985990047454834 0.19635255634784698 -0.4457930326461792 163 29 153
-0.3050518035888672 0.20098695158958435 -0.44448089599609375 150 18 160
-0.3091675639152527 0.20720258355140686 -0.436444491147995 137 8 165
-0.30145108699798584 0.2268880009651184 -0.42449188232421875 129 4 167
-0.29964524507522583 0.19560550153255463 -0.3821095824241638 127 3 167
-0.272055983543396 0.22551725804805756 -0.35358020663261414 194 61 128
-0.23616154491901398 -0.037410106509923935 -0.4788661599159241 191 57 130
-0.18333250284194946 -0.12123680114746094 -0.3609403073787689 190 56 131
-0.14981983602046967 -0.18244992196559906 -0.2731839418411255 180 45 141
-0.08809145539999008 -0.15721721947193146 -0.27806442975997925 168 34 150
-0.08773257583379745 -0.10652334988117218 -0.3660810589790344 158 25 156
-0.12847739458084106 -0.07165089249610901 -0.4071286618709564 154 21 158
-0.18956103920936584 -0.03080618567764759 -0.40983882546424866 157 24 157
-0.23747345805168152 -0.006765320431441069 -0.42155590653419495 164 30 152
-0.2535727024078369 0.03031829372048378 -0.4441583454608917 175 40 144
-0.26096484065055847 0.04981059208512306 -0.4577147662639618 173 38 146
-0.2819362282752991 0.04746441915631294 -0.4600840210914612 176 42 143
-0.2890283167362213 0.05841704457998276 -0.4459734261035919 173 38 146
-0.31630024313926697 0.06203733757138252 -0.43737339973449707 175 40 144
-0.31250056624412537 0.0744505301117897 -0.43765008449554443 177 43 143
-0.3135102391242981 0.09507967531681061 -0.44705888628959656 184 50 137
-0.30326083302497864 0.0853910818696022 -0.4484974443912506 180 45 141
-0.31828171014785767 0.08160889148712158 -0.4476931095123291 181 46 140
-0.32418203353881836 0.09227143228054047 -0.4423033595085144 180 45 141
-0.33089888095855713 0.08594338595867157 -0.43603774905204773 181 46 140
-0.3287549316883087 0.09300006181001663 -0.436053067445755 181 46 140
-0.34649279713630676 0.11502337455749512 -0.4303983449935913 184 50 137
-0.3580259382724762 0.1356397420167923 -0.4113503396511078 188 54 133
-0.3692454695701599 0.16016556322574615 -0.4047846794128418 187 53 134
-0.3807621896266937 0.1664549857378006 -0.3912915587425232 192 59 129
-0.3963548243045807 0.1653010994195938 -0.361585408449173 194 61 128
-0.4068659842014313 0.18203210830688477 -0.31816673278808594 207 75 116
-0.4014815092086792 0.1905502825975418 -0.24245838820934296 209 79 113
-0.3842804729938507 0.20682260394096375 -0.1474446803331375 213 83 109
-0.336847722530365 0.20990855991840363 -0.09323009848594666 212 82 110
-0.3052435517311096 0.2014259248971939 -0.04393460601568222 208 77 115
-0.28994640707969666 0.19864559173583984 -0.009808849543333054 208 77 115
-0.27631092071533203 0.19370543956756592 0.007197340950369835 209 79 113
-0.27217748761177063 0.1757332682609558 0.006577166263014078 212 82 110
-0.28457191586494446 0.17483124136924744 -0.008763991296291351 213 83 109
-0.2939200699329376 0.18621371686458588 -0.03839880973100662 214 85 109
-0.31175947189331055 0.2064802050590515 -0.08529173582792282 216 88 106
-0.3293973207473755 0.2028626948595047 -0.13658368587493896 219 91 103
-0.35109585523605347 0.1719384789466858 -0.15754365921020508 218 90 104
-0.372480571269989 0.15935812890529633 -0.1749189794063568 217 89 105
-0.382874995470047 0.1873217672109604 -0.211579829454422 219 91 103
-0.3876321613788605 0.17060357332229614 -0.24079562723636627 219 91 103
-0.40147823095321655 0.18037372827529907 -0.26958659291267395 220 93 102
-0.3831622004508972 0.18827737867832184 -0.29408204555511475 221 95 101
-0.3816980719566345 0.19254861772060394 -0.3130587637424469 223 97 99
-0.3643198311328888 0.17960262298583984 -0.3510241210460663 224 100 97
-0.3736538887023926 0.18686078488826752 -0.3805542290210724 223 98 98
-0.37484437227249146 0.18532583117485046 -0.38850709795951843 227 103 95
-0.36027100682258606 0.1842145472764969 -0.374442458152771 227 104 94
-0.3595976233482361 0.1980835497379303 -0.37511706352233887 227 103 95
-0.36972367763519287 0.18924497067928314 -0.37617385387420654 225 101 96
-0.3891623318195343 0.1805400848388672 -0.35410743951797485 226 102 96
-0.3883849084377289 0.17625972628593445 -0.35270553827285767 222 96 100
-0.3743966817855835 0.16118939220905304 -0.359658420085907 218 90 104
-0.3763938546180725 0.17219287157058716 -0.35452237725257874 218 90 104
-0.36920276284217834 0.18487972021102905 -0.3528042733669281 217 89 105
-0.37315627932548523 0.17632076144218445 -0.3691749572753906 213 83 109
-0.37897834181785583 0.16615644097328186 -0.3753845989704132 212 82 110
-0.37656763195991516 0.16766731441020966 -0.37502965331077576 212 82 110
-0.39707353711128235 0.16894590854644775 -0.3727104067802429 208 77 115
-0.37910327315330505 0.17359226942062378 -0.38344356417655945 201 69 121
-0.37871885299682617 0.18514256179332733 -0.40050405263900757 208 77 115
-0.3773418664932251 0.15342578291893005 -0.3861011564731598 209 78 114
-0.3788338601589203 0.1650397628545761 -0.3823986053466797 212 82 110
-0.3723740577697754 0.17893284559249878 -0.39109542965888977 213 83 109
-0.36829859018325806 0.1968347728252411 -0.4047011435031891 213 83 109
-0.3642415702342987 0.2012489140033722 -0.39861586689949036 215 86 108
-0.3572428822517395 0.20159213244915009 -0.3976580500602722 215 87 107
-0.33908823132514954 0.1934099793434143 -0.4152809679508209 203 71 119
-0.3418824076652527 0.1835620403289795 -0.43020543456077576 196 63 126
-0.33847296237945557 0.16966865956783295 -0.4326496422290802 180 45 141
-0.34564873576164246 0.1531180739402771 -0.4462304413318634 178 44 142
-0.3265828490257263 0.14244452118873596 -0.45659151673316956 177 43 143
-0.329682320356369 0.13907204568386078 -0.45402297377586365 175 40 144
-0.35522332787513733 0.1378677487373352 -0.4330841898918152 170 36 148
-0.35580939054489136 0.14052405953407288 -0.4257875084877014 153 20 159
-0.35827380418777466 0.1406996250152588 -0.4249623715877533 146 15 162
-0.3624022305011749 0.14728456735610962 -0.41831567883491516 151 19 160
-0.36588773131370544 0.14457790553569794 -0.41730690002441406 153 20 159
-0.36587923765182495 0.14560368657112122 -0.41958266496658325 160 27 155
-0.3610857129096985 0.14158384501934052 -0.4241349697113037 175 40 144
-0.35328230261802673 0.14308036863803864 -0.4350703954696655 177 43 143
-0.35553085803985596 0.1359400600194931 -0.43383532762527466 170 36 148
-0.3582952916622162 0.13253441452980042 -0.4259384572505951 170 36 148
-0.3544321358203888 0.11946064233779907 -0.42845436930656433 169 35 149
-0.34759706258773804 0.11395086348056793 -0.4331076443195343 165 31 151
-0.332114040851593 0.10869012773036957 -0.44690364599227905 170 36 148
-0.2936883866786957 0.09516943246126175 -0.4730396568775177 172 37 147
-0.24806925654411316 0.07693614810705185 -0.4875769317150116 176 42 143
-0.15920354425907135 0.06784806400537491 -0.4898911416530609 177 43 143
-0.07957985997200012 0.015909552574157715 -0.465979665517807 184 50 137
0.07296641916036606 -0.02995847910642624 -0.37373366951942444 185 51 136
0.15560702979564667 -0.05980021134018898 -0.2799464762210846 189 55 132
0.2135891318321228 -0.07826711982488632 -0.22927293181419373 195 62 127
0.24348612129688263 -0.08046215027570724 -0.185172438621521 198 65 124
0.2474917620420456 -0.07983390986919403 -0.15294413268566132 207 75 116
0.2662360370159149 -0.08283113688230515 -0.15629827976226807 216 88 106
0.2675730288028717 -0.08244416117668152 -0.1675097495317459 218 90 104
0.2683809995651245 -0.08210114389657974 -0.17783185839653015 219 91 103
0.2623116075992584 -0.09680016338825226 -0.1521391123533249 219 91 103
0.2746443748474121 -0.08456242084503174 -0.12125818431377411 220 93 102
0.294208288192749 -0.07951997965574265 -0.12309252470731735 218 90 104
0.2946034371852875 -0.07981553673744202 -0.1331559121608734 216 88 106
0.31195950508117676 -0.06581820547580719 -0.12548942863941193 216 88 106
0.29475003480911255 -0.04855542257428169 -0.14554433524608612 215 86 108
0.294158011674881 -0.03452904894948006 -0.16369643807411194 209 79 113
0.298297256231308 -0.050093892961740494 -0.1368657499551773 215 86 108
0.3194446265697479 -0.09415357559919357 -0.07655368000268936 214 85 109
0.3394877016544342 -0.10031861811876297 -0.03430912271142006 212 82 110
0.32881978154182434 -0.11083278805017471 -0.008971343748271465 212 82 110
0.3513886034488678 -0.11564376950263977 0.02823733352124691 208 77 115
0.3529210686683655 -0.11287876963615417 0.06213855370879173 208 77 115
0.3454970419406891 -0.11565336585044861 0.0982552096247673 210 80 112
0.3711104691028595 -0.1320742666721344 0.10976793617010117 200 68 122
0.36581090092658997 -0.1280369609594345 0.11548268049955368 196 63 126
0.3703913390636444 -0.1371406763792038 0.12769852578639984 209 78 114
0.3622761368751526 -0.15186363458633423 0.13236714899539948 208 77 115
0.3494746685028076 -0.163140669465065 0.13057400286197662 211 81 111
0.33783847093582153 -0.18518392741680145 0.09764951467514038 214 85 109
0.31247615814208984 -0.17568758130073547 0.042556677013635635 215 86 108
0.27106425166130066 -0.167793869972229 0.010925142094492912 213 83 109
0.2421213537454605 -0.17494891583919525 -0.010674056597054005 206 74 117
0.2063656747341156 -0.1824769824743271 -0.04345664009451866 204 72 118
0.16887961328029633 -0.17837585508823395 -0.07568178325891495 196 63 126
0.1507127285003662 -0.18549244105815887 -0.09039083123207092 192 59 129
0.11424418538808823 -0.17937253415584564 -0.10042385011911392 190 56 131
0.10973652452230453 -0.1625974178314209 -0.126781165599823 184 50 137
0.05203048139810562 -0.15849502384662628 -0.14384570717811584 184 50 137
-0.001379706198349595 -0.14607137441635132 -0.1823120415210724 184 50 137
-0.02792350761592388 -0.1420706957578659 -0.20069928467273712 181 46 140
-0.05919446423649788 -0.1405634880065918 -0.18756811320781708 189 55 132
-0.04335297644138336 -0.15798890590667725 -0.16507074236869812 186 52 135
-0.020346030592918396 -0.17740897834300995 -0.14067967236042023 187 53 134
-0.00249692564830184 -0.1774166077375412 -0.12405610084533691 191 57 130
-0.021325811743736267 -0.16990315914154053 -0.14116759598255157 193 60 128
-0.07044435292482376 -0.14903409779071808 -0.16662339866161346 193 60 128
-0.1238522157073021 -0.1388482004404068 -0.17919695377349854 196 63 126
-0.14354537427425385 -0.13464856147766113 -0.1807975322008133 201 69 121
-0.2072499841451645 -0.13059444725513458 -0.16302208602428436 198 65 124
-0.24235323071479797 -0.12907354533672333 -0.13200530409812927 197 64 125
-0.28376108407974243 -0.12365689873695374 -0.09227671474218369 198 65 124
-0.34424862265586853 -0.09411811828613281 -0.04217251017689705 194 61 128
-0.3542972207069397 -0.06211548298597336 -0.048344340175390244 195 62 127
-0.3851284980773926 -0.015221756882965565 -0.0812363550066948 198 65 124
-0.3889387249946594 -0.0148550383746624 -0.061585839837789536 202 70 120
-0.35287272930145264 -0.003464370733126998 -0.062333423644304276 206 74 117
-0.3615500032901764 0.004123318009078503 -0.0692664310336113 205 73 117
-0.3548658788204193 -0.005429867189377546 -0.08491858839988708 210 80 112
-0.3348742425441742 -0.0003852838708553463 -0.10643988847732544 217 89 105
-0.33991098403930664 0.002151692286133766 -0.08524077385663986 220 93 102
-0.32264262437820435 -0.0136251300573349 -0.06526108831167221 223 97 99
-0.3283330500125885 -0.012497048825025558 -0.0132092060521245 229 107 92
-0.31951892375946045 -0.0025997268967330456 0.03716767951846123 233 114 87
-0.2623576521873474 -0.045622117817401886 0.1271556168794632 238 124 80
-0.24632439017295837 -0.05764275789260864 0.2633715271949768 245 139 70
-0.1738700568675995 -0.05538410693407059 0.30802270770072937 248 152 62
-0.12211083620786667 -0.04277500882744789 0.31950312852859497 248 152 62
-0.09150993824005127 -0.052142079919576645 0.35720735788345337 247 147 65
-0.07104841619729996 -0.018363062292337418 0.3748251497745514 247 147 65
-0.06504116952419281 -0.03002251125872135 0.36061257123947144 247 146 65
-0.09742340445518494 -0.0009123003110289574 0.3536922037601471 248 150 63
-0.09420167654752731 0.0033992433454841375 0.3418726921081543 248 152 62
-0.11104965209960938 0.03499610349535942 0.3287990093231201 248 152 62
-0.1177094429731369 0.048274897038936615 0.30771729350090027 248 152 62
-0.12680959701538086 0.06517393887042999 0.28427401185035706 248 152 62
-0.14190919697284698 0.08565479516983032 0.2685554623603821 249 153 61
-0.1331428736448288 0.09402073174715042 0.25968778133392334 248 152 62
-0.12396593391895294 0.09139978885650635 0.264364629983902 248 150 63
-0.1121089980006218 0.09098085761070251 0.2744888663291931 248 149 64
-0.1127488762140274 0.08700531721115112 0.2759748697280884 248 149 64
-0.1105714961886406 0.09023582935333252 0.2813170850276947 247 146 65
-0.1097438782453537 0.09891306608915329 0.27648717164993286 247 146 65
-0.10070402920246124 0.0996624305844307 0.27275481820106506 246 142 68
-0.09401115030050278 0.10255350917577744 0.2746730148792267 247 147 65
-0.08008179813623428 0.09574374556541443 0.2829010784626007 246 145 66
-0.06714581698179245 0.09670181572437286 0.2976192235946655 245 141 69
-0.055719513446092606 0.09489904344081879 0.30709362030029297 244 138 71
-0.06511221081018448 0.09012740105390549 0.3039902448654175 243 135 72
-0.08039803802967072 0.08950503915548325 0.29708385467529297 244 137 71
-0.08087146282196045 0.08666615933179855 0.29186463356018066 245 139 70
-0.08618806302547455 0.085337333381176 0.29646188020706177 244 137 71
-0.07501669973134995 0.07408859580755234 0.30816584825515747 246 143 67
-0.06234681233763695 0.06510910391807556 0.31825053691864014 247 146 65
-0.06481349468231201 0.06591010838747025 0.3159109354019165 248 150 63
-0.05886726453900337 0.0698530450463295 0.3080202043056488 245 141 69
-0.059394579380750656 0.07555091381072998 0.3066366910934448 243 134 73
-0.07024621218442917 0.08431748300790787 0.29468631744384766 243 134 73
-0.07153927534818649 0.09434559941291809 0.26969945430755615 241 130 76
-0.07864334434270859 0.11173488199710846 0.2433655709028244 240 128 77
-0.0931677371263504 0.12081385403871536 0.22496062517166138 239 126 78
-0.12207717448472977 0.1370953917503357 0.20049485564231873 243 134 73
-0.13934198021888733 0.13442890346050262 0.17222385108470917 244 138 71
-0.15081675350666046 0.13937845826148987 0.1637945920228958 242 132 75
-0.14888213574886322 0.13828669488430023 0.15869490802288055 239 125 79
-0.15257322788238525 0.145823135972023 0.14590460062026978 236 119 84
-0.15145131945610046 0.14940236508846283 0.1278245896100998 234 115 86
-0.1657690852880478 0.15779902040958405 0.10198678076267242 234 116 85
-0.18610893189907074 0.1611606627702713 0.07421696186065674 235 118 84
-0.21059183776378632 0.17036668956279755 0.052012644708156586 234 116 85
-0.22607846558094025 0.16502411663532257 0.04051312804222107 237 123 81
-0.22773377597332 0.1660890430212021 0.04727443680167198 239 125 79
-0.21551163494586945 0.164137601852417 0.0653153583407402 236 119 84
-0.2006959766149521 0.16464854776859283 0.07030655443668365 236 120 83
-0.19355732202529907 0.16581135988235474 0.05647838115692139 234 115 86
-0.20132623612880707 0.18095463514328003 0.021528203040361404 233 114 87
-0.21687579154968262 0.18657490611076355 -0.004939491860568523 239 125 79
-0.23256926238536835 0.18560463190078735 -0.0014597157714888453 239 125 79
-0.21185041964054108 0.17891015112400055 0.028135070577263832 239 125 79
-0.17267261445522308 0.17751061916351318 0.07268813997507095 240 128 77
-0.13459144532680511 0.17068420350551605 0.10603386908769608 243 134 73
-0.11837060749530792 0.17073361575603485 0.11924247443675995 246 142 68
-0.11544360965490341 0.1723063886165619 0.12760992348194122 248 149 64
-0.10314144194126129 0.17866834998130798 0.13291549682617188 250 159 58
-0.08113166689872742 0.17622387409210205 0.14052678644657135 252 167 53
-0.06766504794359207 0.1792142391204834 0.15046221017837524 252 172 50
-0.0563056543469429 0.1799698770046234 0.15529115498065948 253 181 45
-0.04866144433617592 0.1765325963497162 0.16284500062465668 253 178 47
-0.0448630191385746 0.17253611981868744 0.17995685338974 253 182 45
-0.026559820398688316 0.17176944017410278 0.1902085542678833 253 185 43
-0.021797725930809975 0.17630496621131897 0.18971309065818787 253 195 40
-0.00718712667003274 0.17517293989658356 0.19188183546066284 253 196 39
-0.005947248078882694 0.1696016788482666 0.19751395285129547 253 196 39
-0.005190188996493816 0.16703583300113678 0.19840960204601288 253 196 39
0.0001630710030440241 0.1732153594493866 0.19702643156051636 253 196 39
0.005857616197317839 0.17091521620750427 0.19676640629768372 253 195 40
0.006236621644347906 0.17052853107452393 0.20584715902805328 253 195 40
0.006456334609538317 0.1660301685333252 0.2081558108329773 253 198 38
0.009699140675365925 0.16642877459526062 0.20895418524742126 252 206 37
0.009031720459461212 0.16273096203804016 0.21756653487682343 251 211 36
0.008175680413842201 0.1608443558216095 0.2219521403312683 251 211 36
0.007034983020275831 0.15241694450378418 0.22610338032245636 251 211 36
0.0005549925845116377 0.1518949270248413 0.22980044782161713 251 208 36
-0.005746777635067701 0.15498726069927216 0.22532691061496735 252 203 37
-0.012763687409460545 0.15243513882160187 0.22360515594482422 252 203 37
-0.02012772485613823 0.15202507376670837 0.2210545390844345 253 192 41
-0.030972851440310478 0.15343353152275085 0.21540376543998718 253 185 43
-0.031911853700876236 0.15766184031963348 0.2075047343969345 253 185 43
-0.035189200192689896 0.16464407742023468 0.1949639469385147 253 192 41
-0.03825920820236206 0.16845907270908356 0.19258548319339752 253 196 39
-0.039267029613256454 0.16834966838359833 0.18668001890182495 252 199 38
-0.0375206395983696 0.17030054330825806 0.1810828596353531 252 204 37
-0.05075375735759735 0.1765974462032318 0.16666735708713531 252 204 37
-0.0688360184431076 0.17781364917755127 0.15510323643684387 252 204 37
-0.08736427873373032 0.1841965764760971 0.14582619071006775 252 204 37
-0.0992274060845375 0.17896734178066254 0.14433400332927704 252 206 37
-0.11479319632053375 0.17617204785346985 0.15019088983535767 251 211 36
-0.11855942010879517 0.1760546714067459 0.15194745361804962 251 208 36
-0.11737076193094254 0.17280243337154388 0.15986837446689606 252 201 38
-0.11591452360153198 0.16957241296768188 0.1722099930047989 252 199 38
-0.10617440938949585 0.1689121127128601 0.17566688358783722 252 201 38
-0.08279696106910706 0.1666875034570694 0.19067132472991943 251 208 36
-0.07268431037664413 0.15453723073005676 0.2027532309293747 251 211 36
-0.0627928376197815 0.1569623202085495 0.20476989448070526 248 221 36
-0.058996811509132385 0.15883208811283112 0.2036711573600769 247 224 36
-0.054650213569402695 0.15566566586494446 0.20649884641170502 250 216 36
-0.060652099549770355 0.1569526344537735 0.20481784641742706 250 216 36
-0.06387373059988022 0.153619647026062 0.20661599934101105 250 213 36
-0.06392566859722137 0.15642403066158295 0.20212924480438232 251 211 36
-0.06609579175710678 0.15544189512729645 0.18961502611637115 252 199 38
-0.07802704721689224 0.16091887652873993 0.1839793473482132 253 192 41
-0.08764048665761948 0.1606212556362152 0.18214130401611328 253 182 45
-0.09312938153743744 0.15729495882987976 0.1887882649898529 253 184 44
-0.0944625735282898 0.15454328060150146 0.1931430697441101 253 187 43
-0.08794566988945007 0.15762940049171448 0.19014617800712585 253 190 41
-0.08943833410739899 0.15785305202007294 0.18308189511299133 253 188 42
-0.08780315518379211 0.1606241911649704 0.17225246131420135 253 192 41
-0.0965641662478447 0.17135122418403625 0.15093018114566803 252 199 38
-0.10798663645982742 0.17587167024612427 0.12967275083065033 252 204 37
-0.13241279125213623 0.17614421248435974 0.11024302244186401 251 208 36
-0.15455177426338196 0.18029522895812988 0.09173222631216049 251 209 36
-0.17450544238090515 0.18381020426750183 0.08395802974700928 251 211 36
-0.18596132099628448 0.1771661788225174 0.08528710901737213 251 211 36
-0.18471471965312958 0.17052440345287323 0.09132079035043716 251 211 36
-0.19031015038490295 0.1666633039712906 0.09044089913368225 251 209 36
-0.1936236023902893 0.16471056640148163 0.09560120850801468 251 211 36
-0.19938074052333832 0.1626516431570053 0.09446140378713608 250 213 36
-0.19813214242458344 0.17330628633499146 0.09933625161647797 250 213 36
-0.18550390005111694 0.1751079112291336 0.11214898526668549 250 216 36
-0.16453056037425995 0.1687386929988861 0.14402347803115845 249 219 36
-0.1339995265007019 0.16072040796279907 0.16654716432094574 248 221 36
-0.11309605091810226 0.1558588743209839 0.1745384782552719 250 214 36
-0.10894346982240677 0.16002395749092102 0.17118249833583832 251 208 36
-0.11063290387392044 0.16156481206417084 0.1716812252998352 253 198 38
-0.10351566225290298 0.1587051898241043 0.17748959362506866 253 181 45
-0.10088220238685608 0.1589725762605667 0.17115209996700287 252 169 52
-0.10304554551839828 0.16456635296344757 0.17016355693340302 251 162 56
-0.09845804423093796 0.16791966557502747 0.1665184199810028 251 162 56
-0.09756539762020111 0.16515031456947327 0.16205671429634094 251 162 56
-0.11196605116128922 0.1674477458000183 0.15691296756267548 250 159 58
-0.1214594841003418 0.16646534204483032 0.15692125260829926 247 147 65
-0.12997058033943176 0.1642189770936966 0.1458495855331421 245 141 69
-0.1324225664138794 0.1669200360774994 0.13746996223926544 243 135 72
-0.13989542424678802 0.1640295535326004 0.12316446006298065 239 126 78
-0.14862188696861267 0.17825812101364136 0.09272553771734238 235 118 84
-0.1743593066930771 0.18530766665935516 0.04553066939115524 234 115 86
-0.21234609186649323 0.19483835995197296 -0.007995163090527058 232 113 88
-0.25299137830734253 0.20003558695316315 -0.07491385191679001 227 103 95
-0.2898782789707184 0.20142734050750732 -0.10848376154899597 219 91 103
-0.31933873891830444 0.19097135961055756 -0.12777167558670044 209 79 113
-0.3461039662361145 0.19006356596946716 -0.16977792978286743 198 65 124
-0.3504098057746887 0.16957972943782806 -0.18581263720989227 189 55 132
-0.37176910042762756 0.1718699187040329 -0.257686972618103 180 45 141
-0.37460553646087646 0.15158681571483612 -0.307623952627182 174 39 145
-0.3826427757740021 0.1328670233488083 -0.34565719962120056 154 21 158
-0.38689881563186646 0.12241818010807037 -0.3747471570968628 140 10 164
-0.38908860087394714 0.0711086243391037 -0.35249239206314087 132 5 166
-0.36534544825553894 0.05541010573506355 -0.33029425144195557 117 0 168
-0.3525598645210266 0.038575444370508194 -0.3535458445549011 106 0 167
-0.3380316495895386 -0.004501793533563614 -0.33032694458961487 101 0 167
-0.2669432759284973 -0.061708446592092514 -0.3129262328147888 95 0 166
-0.13866479694843292 -0.12644438445568085 -0.3069525957107544 90 0 165
-0.07266584783792496 -0.16403308510780334 -0.2591060400009155 90 0 165
-0.04917791113257408 -0.17416971921920776 -0.2255258411169052 92 0 165
-0.03861386701464653 -0.1826370358467102 -0.21501949429512024 95 0 166
-0.011901160702109337 -0.20128780603408813 -0.16646930575370789 100 0 167
-0.0004160617827437818 -0.21323376893997192 -0.1004423126578331 114 0 168
0.04036950320005417 -0.2224659025669098 -0.10233384370803833 133 6 166
0.060962826013565063 -0.2243749350309372 -0.07980171591043472 154 21 158
0.076158806681633 -0.25258752703666687 -0.054136667400598526 165 31 151
0.10135987401008606 -0.2511765956878662 -0.008345604874193668 174 39 145
0.12047464400529861 -0.2820126414299011 0.04469704627990723 181 46 140
0.13041095435619354 -0.2744397222995758 0.06346097588539124 196 63 126
0.16212207078933716 -0.25394710898399353 0.08351163566112518 209 78 114
0.1896934062242508 -0.26472511887550354 0.08670593053102493 215 87 107
0.20557951927185059 -0.2823682129383087 0.11390592157840729 218 90 104
