ply
format ascii 1.0
element vertex 691
property float x
property float y
property float z
property uchar red
property uchar green
property uchar blue
end_header
0.13989898562431335 0.19429939985275269 0.9709150791168213 255 127 0
0.13000090420246124 0.18929676711559296 0.9732761383056641 255 127 0
0.12278755009174347 0.1960722655057907 0.9728714823722839 255 127 0
0.09252911806106567 0.19308723509311676 0.9768089056015015 255 127 0
0.07328615337610245 0.20678968727588654 0.9756368398666382 255 127 0
0.08566711097955704 0.19433343410491943 0.9771875739097595 255 127 0
0.06816571205854416 0.19301164150238037 0.9788258075714111 255 127 0
0.08447553962469101 0.21235905587673187 0.9735335111618042 255 127 0
0.10331960022449493 0.19854848086833954 0.9746299386024475 255 127 0
0.1389939785003662 0.20916593074798584 0.9679516553878784 255 127 0
0.1462700068950653 0.18126751482486725 0.9724953174591064 255 127 0
0.11867965757846832 0.16862359642982483 0.9785097241401672 255 127 0
0.16448506712913513 0.1550115942955017 0.9741232395172119 255 127 0
0.16707459092140198 0.14981697499752045 0.9744951725006104 255 127 0
0.15476009249687195 0.15418997406959534 0.9758456945419312 255 127 0
0.15671995282173157 0.1450062245130539 0.9769400954246521 255 127 0
0.14931857585906982 0.14587561786174774 0.9779695272445679 255 127 0
0.12444135546684265 0.1381717473268509 0.982559323310852 255 127 0
0.10803081095218658 0.14286847412586212 0.9838282465934753 255 127 0
0.10332924872636795 0.14544841647148132 0.9839552044868469 255 127 0
0.11099177598953247 0.11478587985038757 0.9871701598167419 255 127 0
0.14949974417686462 0.08980917185544968 0.9846746325492859 255 127 0
0.18526366353034973 0.04950351268053055 0.9814412593841553 255 127 0
0.24325530230998993 -0.01512802205979824 0.9698442816734314 255 127 0
0.3126196265220642 -0.02164715901017189 0.9496316909790039 255 127 0
0.3929695188999176 -0.04403945058584213 0.9184963703155518 255 127 0
0.46950456500053406 -0.07542914152145386 0.8797022104263306 255 127 0
0.5274583101272583 -0.11912161111831665 0.8411882519721985 255 127 0
0.5953126549720764 -0.16423599421977997 0.7865299582481384 255 127 0
0.6492062211036682 -0.2230171263217926 0.7271826863288879 255 127 0
0.6902956366539001 -0.2243431657552719 0.6878677010536194 255 127 0
0.7115945816040039 -0.27104651927948 0.6482027769088745 255 127 0
0.734431803226471 -0.30548861622810364 0.606041669845581 255 127 0
0.7627131938934326 -0.298059344291687 0.5739592909812927 255 127 0
0.7691041827201843 -0.3149867355823517 0.5561134219169617 255 127 0
0.7801429629325867 -0.3184979259967804 0.5384570956230164 255 127 0
0.7814816236495972 -0.32142189145088196 0.5347657203674316 255 127 0
0.7571901679039001 -0.3105292022228241 0.57466059923172 255 127 0
0.756018877029419 -0.2859804034233093 0.5887705087661743 255 127 0
0.766085684299469 -0.31624338030815125 0.5595558881759644 255 127 0
0.7575080990791321 -0.33090800046920776 0.5627444982528687 255 127 0
0.7753645777702332 -0.36811843514442444 0.5131263136863708 255 127 0
0.806209921836853 -0.4166046380996704 0.42007875442504883 255 127 0
0.8355160355567932 -0.4534487724304199 0.3103175163269043 255 127 0
0.8535501956939697 -0.4754132032394409 0.2131531685590744 255 127 0
0.8463556170463562 -0.5252328515052795 0.0883893296122551 255 127 0
0.8443275094032288 -0.5343412756919861 -0.03988037258386612 255 127 0
0.8365436792373657 -0.5427563190460205 -0.07490205019712448 255 127 0
0.8372600078582764 -0.5428757071495056 -0.0654338076710701 255 127 0
0.848035454750061 -0.5298723578453064 0.008438154123723507 255 127 0
0.8458837270736694 -0.5332964062690735 0.008704237639904022 255 127 0
0.8514309525489807 -0.5244311690330505 -0.006107694935053587 255 127 0
0.8386844992637634 -0.5438029766082764 -0.029777849093079567 255 127 0
0.8179041147232056 -0.5753251910209656 -0.005809985101222992 255 127 0
0.7973894476890564 -0.601224422454834 -0.05195467546582222 255 127 0
0.8828887343406677 -0.445774644613266 0.1476229429244995 255 127 0
0.8550668954849243 -0.49066630005836487 -0.1676519215106964 255 127 0
0.8188288807868958 -0.5403465628623962 -0.19376517832279205 255 127 0
0.8322122097015381 -0.5099351406097412 -0.2176901251077652 255 127 0
0.8127105832099915 -0.5198535919189453 -0.2631610035896301 255 127 0
0.8145346641540527 -0.5040456652641296 -0.2871783375740051 255 127 0
0.8578499555587769 -0.47332701086997986 -0.2001374363899231 255 127 0
0.822670578956604 -0.4874667823314667 -0.2925565838813782 255 127 0
0.818035900592804 -0.5003181099891663 -0.283723384141922 255 127 0
0.815647542476654 -0.4992319941520691 -0.29238075017929077 255 127 0
0.8153950572013855 -0.4944157600402832 -0.30113765597343445 255 127 0
0.8199328184127808 -0.4808661639690399 -0.31060877442359924 255 127 0
0.8175548911094666 -0.48214560747146606 -0.31486445665359497 255 127 0
0.8220446109771729 -0.4863838851451874 -0.2960970103740692 255 127 0
0.8167850375175476 -0.48926830291748047 -0.305743008852005 255 127 0
0.8241465091705322 -0.4914819598197937 -0.2814747393131256 255 127 0
0.8067741394042969 -0.5054200291633606 -0.30604904890060425 255 127 0
0.806961715221405 -0.5092331171035767 -0.29915615916252136 255 127 0
0.8163621425628662 -0.49489307403564453 -0.2977139949798584 255 127 0
0.790730893611908 -0.5238351225852966 -0.3167670965194702 255 127 0
0.7916688323020935 -0.5170597434043884 -0.32543763518333435 255 127 0
0.7889768481254578 -0.5084044337272644 -0.3450223207473755 255 127 0
0.7922826409339905 -0.5299627184867859 -0.3023700714111328 255 127 0
0.7872158288955688 -0.5423065423965454 -0.2935894727706909 255 127 0
0.8034141659736633 -0.5395079851150513 -0.25190645456314087 255 127 0
0.8194803595542908 -0.5011275410652161 -0.2780703604221344 255 127 0
0.8228544592857361 -0.4996059238910675 -0.2707481384277344 255 127 0
0.8202077150344849 -0.4873470962047577 -0.29958656430244446 255 127 0
0.8096441626548767 -0.5205814838409424 -0.2710559666156769 255 127 0
0.8196110129356384 -0.5116310119628906 -0.25782081484794617 255 127 0
0.7834599614143372 -0.5504822731018066 -0.28837457299232483 255 127 0
0.7708879113197327 -0.5430791974067688 -0.3328615128993988 255 127 0
0.7831594944000244 -0.5321781635284424 -0.3216325640678406 255 127 0
0.7876826524734497 -0.5239098072052002 -0.3241521120071411 255 127 0
0.7898368239402771 -0.5171520113945007 -0.3297145366668701 255 127 0
0.7845492362976074 -0.5195187330245972 -0.33850082755088806 255 127 0
0.7874094247817993 -0.5142627358436584 -0.3398827314376831 255 127 0
0.7878032326698303 -0.5150607824325562 -0.33775514364242554 255 127 0
0.780849814414978 -0.5285899043083191 -0.33296602964401245 255 127 0
0.7941282987594604 -0.5213504433631897 -0.3123362958431244 255 127 0
0.8006495237350464 -0.5186812281608582 -0.29988354444503784 255 127 0
0.7948763370513916 -0.5170379877090454 -0.31755849719047546 255 127 0
0.7881265878677368 -0.5341774225234985 -0.3057957887649536 255 127 0
0.7878808975219727 -0.5375670790672302 -0.3004418909549713 255 127 0
0.8152005076408386 -0.5007108449935913 -0.2910955846309662 255 127 0
0.8329158425331116 -0.49549150466918945 -0.24645380675792694 255 127 0
0.8307739496231079 -0.48600563406944275 -0.27131763100624084 255 127 0
0.8097367286682129 -0.5052149295806885 -0.29846981167793274 255 127 0
0.8023980855941772 -0.4957471787929535 -0.3322530686855316 255 127 0
0.8025788068771362 -0.49895521998405457 -0.32697248458862305 255 127 0
0.781793475151062 -0.5207621455192566 -0.3429369032382965 255 127 0
0.7855073809623718 -0.5100249648094177 -0.3505035936832428 255 127 0
0.7915483713150024 -0.5029093623161316 -0.34717902541160583 255 127 0
0.7820515632629395 -0.513339638710022 -0.35338056087493896 255 127 0
0.7849550247192383 -0.49364590644836426 -0.3743785321712494 255 127 0
0.7555932402610779 -0.5136957168579102 -0.4064425230026245 255 127 0
0.7577998638153076 -0.5091097354888916 -0.40810146927833557 255 127 0
0.7430484294891357 -0.5080417394638062 -0.43562906980514526 255 127 0
0.7125529646873474 -0.5157195925712585 -0.4757116734981537 255 127 0
0.6952545642852783 -0.5173437595367432 -0.4989755153656006 255 127 0
0.6778574585914612 -0.5174906849861145 -0.5222189426422119 255 127 0
0.6835519075393677 -0.5210834741592407 -0.5111054182052612 255 127 0
0.6979689002037048 -0.5108857750892639 -0.5018317103385925 255 127 0
0.7127749919891357 -0.5091992616653442 -0.48235657811164856 255 127 0
0.7063066363334656 -0.5302572846412659 -0.4689970314502716 255 127 0
0.672917366027832 -0.5654610395431519 -0.47690245509147644 255 127 0
0.6198906302452087 -0.5794833302497864 -0.5290886163711548 255 127 0
0.3550465404987335 -0.5175875425338745 -0.7784889936447144 255 127 0
-0.24040557444095612 0.23381571471691132 -0.9420909285545349 255 127 0
-0.512371838092804 -0.0770285353064537 -0.855302095413208 255 127 0
-0.8820754289627075 0.29105663299560547 -0.37044429779052734 255 127 0
-0.7459660172462463 0.597078800201416 0.29501107335090637 255 127 0
-0.6004424095153809 0.6450545787811279 0.4726240932941437 255 127 0
-0.509580135345459 0.6177703738212585 0.5989055037498474 255 127 0
-0.45325136184692383 0.6609649658203125 0.5980706810951233 255 127 0
-0.43888193368911743 0.6470386981964111 0.623477041721344 255 127 0
-0.46888360381126404 0.6158855557441711 0.6331139206886292 255 127 0
-0.46284422278404236 0.599640429019928 0.6528449654579163 255 127 0
-0.45924434065818787 0.604560911655426 0.6508461833000183 255 127 0
-0.45650067925453186 0.6066545844078064 0.6508280634880066 255 127 0
-0.48875346779823303 0.5973579287528992 0.6358330845832825 255 127 0
-0.5415942072868347 0.5419335961341858 0.642638087272644 255 127 0
-0.4994012713432312 0.5733315944671631 0.6495299935340881 255 127 0
-0.5573354363441467 0.3950958847999573 0.7302578091621399 255 127 0
-0.5944845080375671 0.49186035990715027 0.6361302137374878 255 127 0
-0.6821072101593018 0.6034111976623535 0.413067489862442 255 127 0
-0.5590757131576538 0.6212326288223267 0.5490942001342773 255 127 0
-0.4597910940647125 0.556708574295044 0.6918581128120422 255 127 0
-0.3664957284927368 0.6102824807167053 0.7023077607154846 255 127 0
-0.3165685534477234 0.5748336911201477 0.7545531988143921 255 127 0
-0.32957175374031067 0.5506163239479065 0.7669447064399719 255 127 0
-0.30778616666793823 0.5477815866470337 0.7779479622840881 255 127 0
-0.22932574152946472 0.5222824811935425 0.8213590979576111 255 127 0
-0.20234127342700958 0.5091367959976196 0.836562991142273 255 127 0
-0.1873265951871872 0.5102432370185852 0.8393811583518982 255 127 0
-0.1783871054649353 0.5168467164039612 0.8372858166694641 255 127 0
-0.08746957778930664 0.49095913767814636 0.8667802810668945 255 127 0
-0.03318916633725166 0.44770264625549316 0.893566370010376 255 127 0
-0.03765368461608887 0.43283453583717346 0.9006866216659546 255 127 0
-0.060459163039922714 0.41056543588638306 0.909824550151825 255 127 0
-0.03411506861448288 0.3859533965587616 0.9218872785568237 255 127 0
-0.007039997261017561 0.34898245334625244 0.9371028542518616 255 127 0
0.023685341700911522 0.3305811882019043 0.9434802532196045 255 127 0
0.0731142908334732 0.29336825013160706 0.9531995058059692 255 127 0
0.14071272313594818 0.24637427926063538 0.9589054584503174 255 127 0
0.1931663155555725 0.2059926986694336 0.9592985510826111 255 127 0
0.22048334777355194 0.1548914611339569 0.9630139470100403 255 127 0
0.25097715854644775 0.15102070569992065 0.9561396837234497 255 127 0
0.25196853280067444 0.15137529373168945 0.9558228850364685 255 127 0
0.27154111862182617 0.10383340716362 0.9568092823028564 255 127 0
0.2664404511451721 0.12676094472408295 0.9554795026779175 255 127 0
0.36815932393074036 0.07897502928972244 0.9264025092124939 255 127 0
0.3912222683429718 0.011928141117095947 0.9202189445495605 255 127 0
0.39666539430618286 0.04629562050104141 0.9167950749397278 255 127 0
0.41418883204460144 0.0372646190226078 0.9094278216362 255 127 0
0.48669424653053284 -0.055967483669519424 0.8717777132987976 255 127 0
0.4749675691127777 -0.037515491247177124 0.8792033195495605 255 127 0
0.4596914052963257 -0.050246186554431915 0.8866561651229858 255 127 0
0.38827231526374817 -0.10634393990039825 0.9153882265090942 255 127 0
0.4997774362564087 -0.18695858120918274 0.8457357287406921 255 127 0
0.6093572974205017 -0.16945622861385345 0.7745761275291443 255 127 0
0.6968103647232056 -0.286647766828537 0.6574863791465759 255 127 0
0.7151939868927002 -0.3329320549964905 0.6145355105400085 255 127 0
0.7654916644096375 -0.39933598041534424 0.5045326352119446 255 127 0
0.8307214975357056 -0.48576977849006653 0.2718999683856964 255 127 0
0.822690486907959 -0.5684154033660889 0.009184597991406918 255 127 0
0.7759965658187866 -0.5705513954162598 -0.26888760924339294 255 127 0
0.7027851939201355 -0.576452910900116 -0.41688716411590576 255 127 0
0.7511462569236755 -0.48799267411231995 -0.44457000494003296 255 127 0
0.606365978717804 -0.6184834241867065 -0.4997985363006592 255 127 0
0.6164180040359497 -0.5298708081245422 -0.5824652910232544 255 127 0
0.6907135844230652 -0.4719848334789276 -0.547855019569397 255 127 0
0.7180141806602478 -0.46258461475372314 -0.520068347454071 255 127 0
0.7216281890869141 -0.46908140182495117 -0.509131908416748 255 127 0
0.7155300378799438 -0.45535537600517273 -0.5297812819480896 255 127 0
0.7216894626617432 -0.45711925625801086 -0.5198137164115906 255 127 0
0.6996294856071472 -0.4676440954208374 -0.5402106642723083 255 127 0
0.7040726542472839 -0.44528594613075256 -0.553174614906311 255 127 0
0.6759478449821472 -0.44097307324409485 -0.5904551148414612 255 127 0
0.6768794655799866 -0.42034628987312317 -0.6042708158493042 255 127 0
0.6759978532791138 -0.4353732466697693 -0.5945393443107605 255 127 0
0.6431853771209717 -0.4612608551979065 -0.6111881732940674 255 127 0
0.589637815952301 -0.45658862590789795 -0.6662237048149109 255 127 0
0.5720265507698059 -0.4474944472312927 -0.6874113082885742 255 127 0
0.5376923084259033 -0.45682722330093384 -0.7086578011512756 255 127 0
0.5612474083900452 -0.4624074101448059 -0.686426043510437 255 127 0
0.6418144702911377 -0.5414952635765076 -0.5430073738098145 255 127 0
0.7184014916419983 -0.6144357323646545 -0.3261411190032959 255 127 0
0.947940468788147 -0.30771297216415405 0.08198601007461548 255 127 0
0.8263671398162842 -0.5295381546020508 -0.1915900558233261 255 127 0
0.7567163705825806 -0.585608720779419 -0.2905903160572052 255 127 0
0.8138394355773926 -0.5179747343063354 -0.2633773386478424 255 127 0
0.828493058681488 -0.5077841281890869 -0.23612365126609802 255 127 0
0.8476604223251343 -0.4970868229866028 -0.1854088306427002 255 127 0
0.8725941181182861 -0.47253262996673584 -0.12366228550672531 255 127 0
0.8816742300987244 -0.46836456656455994 -0.05731739476323128 255 127 0
0.8905285000801086 -0.4528149366378784 0.043791186064481735 255 127 0
0.8957833051681519 -0.4241613447666168 0.13288888335227966 255 127 0
0.88327956199646 -0.41506505012512207 0.21803295612335205 255 127 0
0.8784142136573792 -0.4332408308982849 0.20172014832496643 255 127 0
0.869103729724884 -0.4229271709918976 0.25649815797805786 255 127 0
0.8700137734413147 -0.3979742228984833 0.2910199463367462 255 127 0
0.8727898001670837 -0.4179215431213379 0.2521497905254364 255 127 0
0.8480739593505859 -0.43915867805480957 0.2964966595172882 255 127 0
0.8100720643997192 -0.37667012214660645 0.4493361711502075 255 127 0
0.7916322350502014 -0.3612533509731293 0.49276185035705566 255 127 0
0.7675011157989502 -0.33564144372940063 0.5461563467979431 255 127 0
0.7292921543121338 -0.3215235769748688 0.6039499640464783 255 127 0
0.6851576566696167 -0.3303132653236389 0.6491934657096863 255 127 0
0.6857147216796875 -0.3169906735420227 0.6552191972732544 255 127 0
0.6755608916282654 -0.3231908977031708 0.6626952886581421 255 127 0
0.6624951958656311 -0.3106083273887634 0.6816322803497314 255 127 0
0.6090994477272034 -0.24176384508609772 0.7553463578224182 255 127 0
0.5504190921783447 -0.23606789112091064 0.8008188009262085 255 127 0
0.48998335003852844 -0.1472053825855255 0.8592129349708557 255 127 0
0.3854542672634125 -0.07950615137815475 0.9192953109741211 255 127 0
0.2978571057319641 -0.04264375567436218 0.9536575078964233 255 127 0
0.4991224706172943 -0.12369447946548462 0.8576574921607971 255 127 0
0.1895293891429901 -0.5566474795341492 0.8088400363922119 255 127 0
-0.3234517276287079 0.28844907879829407 -0.9012081027030945 255 127 0
-0.566780686378479 0.019750522449612617 -0.823632001876831 255 127 0
-0.39983516931533813 0.024471471086144447 -0.9162603616714478 255 127 0
-0.3775830566883087 0.06798023730516434 -0.9234769344329834 255 127 0
-0.41176873445510864 0.09075313061475754 -0.9067581295967102 255 127 0
-0.44734543561935425 0.10573677718639374 -0.8880888223648071 255 127 0
-0.45684143900871277 0.10717242956161499 -0.8830685019493103 255 127 0
-0.44428908824920654 0.09224434942007065 -0.8911218643188477 255 127 0
-0.4613024592399597 0.0663437470793724 -0.8847590684890747 255 127 0
-0.44277095794677734 0.0690678134560585 -0.8939706683158875 255 127 0
-0.37664511799812317 -0.0002892225165851414 -0.926357626914978 255 127 0
-0.3415273129940033 -0.0039374940097332 -0.9398635625839233 255 127 0
-0.38469603657722473 0.01991136558353901 -0.9228285551071167 255 127 0
-0.3980853259563446 0.04521394520998001 -0.916233479976654 255 127 0
-0.38091984391212463 0.030263807624578476 -0.9241126179695129 255 127 0
-0.39116063714027405 0.028287451714277267 -0.9198875427246094 255 127 0
-0.36482131481170654 0.024387890473008156 -0.9307580590248108 255 127 0
-0.37338727712631226 0.025499671697616577 -0.9273250102996826 255 127 0
-0.3700767755508423 0.026436123996973038 -0.9286249279975891 255 127 0
-0.3608531653881073 0.02903904765844345 -0.9321704506874084 255 127 0
-0.3785512447357178 0.019491570070385933 -0.9253751039505005 255 127 0
-0.3948403000831604 0.024899719282984734 -0.9184122681617737 255 127 0
-0.3852537274360657 0.021587414667010307 -0.9225581288337708 255 127 0
-0.4023837745189667 0.04335487261414528 -0.9144439101219177 255 127 0
-0.42011559009552 0.057373419404029846 -0.9056551456451416 255 127 0
-0.4390767216682434 0.06603436917066574 -0.8960196375846863 255 127 0
-0.44893211126327515 0.059976618736982346 -0.8915507197380066 255 127 0
-0.4443402588367462 0.04909321665763855 -0.894511878490448 255 127 0
-0.4451269507408142 0.048619747161865234 -0.8941465616226196 255 127 0
-0.43307945132255554 0.03640395402908325 -0.9006203413009644 255 127 0
-0.433992475271225 0.03518420457839966 -0.9002291560173035 255 127 0
-0.454477995634079 0.04232955724000931 -0.8897516131401062 255 127 0
-0.45430850982666016 0.05241599306464195 -0.889301061630249 255 127 0
-0.46984410285949707 0.043259818106889725 -0.8816888332366943 255 127 0
-0.4733943045139313 0.048321787267923355 -0.8795241713523865 255 127 0
-0.4739076495170593 0.05248317867517471 -0.8790090680122375 255 127 0
-0.47749125957489014 0.044225163757801056 -0.8775228261947632 255 127 0
-0.47727441787719727 0.05910738185048103 -0.8767642378807068 255 127 0
-0.4628733694553375 0.0470464751124382 -0.8851750493049622 255 127 0
-0.44483956694602966 0.02879404090344906 -0.8951473236083984 255 127 0
-0.4320700466632843 -0.0047256178222596645 -0.9018276333808899 255 127 0
-0.4384799897670746 -0.003870951710268855 -0.898732602596283 255 127 0
-0.4442625045776367 0.015195424668490887 -0.8957677483558655 255 127 0
-0.44843271374702454 0.010347072966396809 -0.8937566876411438 255 127 0
-0.4673735499382019 0.023355776444077492 -0.8837513327598572 255 127 0
-0.4714668095111847 0.015544522553682327 -0.8817468285560608 255 127 0
-0.4814850389957428 0.025677241384983063 -0.8760780692100525 255 127 0
-0.4972773492336273 0.050246890634298325 -0.8661353588104248 255 127 0
-0.528263509273529 0.07616805285215378 -0.8456571698188782 255 127 0
-0.551289975643158 0.08683870732784271 -0.8297821283340454 255 127 0
-0.578385055065155 0.10304541885852814 -0.8092294931411743 255 127 0
-0.5860463976860046 0.14394661784172058 -0.7973889112472534 255 127 0
-0.5856074690818787 0.20726069808006287 -0.7836498022079468 255 127 0
-0.525863766670227 0.11103352904319763 -0.8432904481887817 255 127 0
-0.5070309042930603 0.032873574644327164 -0.8613007664680481 255 127 0
-0.4544392228126526 0.004861939232796431 -0.8907644748687744 255 127 0
-0.43461599946022034 -0.021831218153238297 -0.9003512859344482 255 127 0
-0.4757933020591736 -0.010370662435889244 -0.8794960379600525 255 127 0
-0.48032939434051514 -0.0163327194750309 -0.8769360780715942 255 127 0
-0.42055803537368774 -0.018149539828300476 -0.907084047794342 255 127 0
-0.427639365196228 -0.040325772017240524 -0.9030495285987854 255 127 0
-0.4147064685821533 -0.0559183768928051 -0.908235490322113 255 127 0
-0.4089833199977875 -0.05576971545815468 -0.9108360409736633 255 127 0
-0.4147403836250305 -0.06369614601135254 -0.9077076315879822 255 127 0
-0.4758037030696869 -0.02127411961555481 -0.879294216632843 255 127 0
-0.505572497844696 -0.03873501345515251 -0.8619142174720764 255 127 0
-0.5330051779747009 -0.02081185020506382 -0.8458559513092041 255 127 0
-0.5145890712738037 -0.015221108682453632 -0.8573018312454224 255 127 0
-0.49506035447120667 -0.010698489844799042 -0.868792712688446 255 127 0
-0.5013673305511475 -0.02432296797633171 -0.8648926019668579 255 127 0
-0.5825617909431458 -0.00623822258785367 -0.8127624988555908 255 127 0
-0.8399794697761536 0.3280460834503174 -0.4322269856929779 255 127 0
-0.5970558524131775 0.16186772286891937 0.7856992483139038 255 127 0
-0.38406574726104736 0.30109307169914246 0.8728324174880981 255 127 0
-0.3733311891555786 0.22459621727466583 0.9001002311706543 255 127 0
-0.36569908261299133 0.19423645734786987 0.9102397561073303 255 127 0
-0.3041403889656067 0.2222880721092224 0.9263296723365784 255 127 0
-0.32887542247772217 0.22083860635757446 0.9181890487670898 255 127 0
-0.3845609128475189 0.27132493257522583 0.8823240399360657 255 127 0
-0.4287804961204529 0.29662418365478516 0.8533236980438232 255 127 0
-0.43020859360694885 0.29336872696876526 0.8537302613258362 255 127 0
-0.40399235486984253 0.32108452916145325 0.8565598726272583 255 127 0
-0.4048379957675934 0.31203919649124146 0.8594985008239746 255 127 0
-0.43864795565605164 0.3018361032009125 0.8464531302452087 255 127 0
-0.47553780674934387 0.293984055519104 0.8291183114051819 255 127 0
-0.4401341676712036 0.308217853307724 0.8433763384819031 255 127 0
-0.4347726106643677 0.292674720287323 0.8516538739204407 255 127 0
-0.43424350023269653 0.315271258354187 0.8438225984573364 255 127 0
-0.4266735911369324 0.3128611743450165 0.8485679030418396 255 127 0
-0.42986878752708435 0.29208147525787354 0.8543425798416138 255 127 0
-0.4169193208217621 0.3091978132724762 0.8547367453575134 255 127 0
-0.3834286630153656 0.2689574360847473 0.8835408091545105 255 127 0
-0.37646326422691345 0.29013827443122864 0.8798267841339111 255 127 0
-0.354032039642334 0.3026603162288666 0.8849056363105774 255 127 0
-0.3464340567588806 0.29073524475097656 0.8918836116790771 255 127 0
-0.3601182997226715 0.2581363022327423 0.8964822292327881 255 127 0
-0.37342342734336853 0.2598663568496704 0.8905192017555237 255 127 0
-0.41552144289016724 0.276311993598938 0.8665989637374878 255 127 0
-0.45011353492736816 0.2532971203327179 0.8562934398651123 255 127 0
-0.4661051630973816 0.25449636578559875 0.8473356366157532 255 127 0
-0.46419328451156616 0.2628174424171448 0.8458437323570251 255 127 0
-0.44455674290657043 0.22764304280281067 0.8663417100906372 255 127 0
-0.43293246626853943 0.2171146720647812 0.8748889565467834 255 127 0
-0.4110775887966156 0.17834849655628204 0.8939838409423828 255 127 0
-0.3822886645793915 0.17033851146697998 0.9082071185112 255 127 0
-0.38158947229385376 0.1487017720937729 0.9122923016548157 255 127 0
-0.40227383375167847 0.13162152469158173 0.9060085415840149 255 127 0
-0.37523600459098816 0.09066411852836609 0.9224846363067627 255 127 0
-0.3186488449573517 0.07247500121593475 0.9450981020927429 255 127 0
-0.24596267938613892 0.06700767576694489 0.9669603705406189 255 127 0
-0.24892134964466095 0.014591817744076252 0.968413770198822 255 127 0
-0.27199509739875793 0.023278076201677322 0.9620169997215271 255 127 0
-0.26359060406684875 -0.02077813819050789 0.9644107818603516 255 127 0
-0.23105262219905853 -0.021333463490009308 0.9727073311805725 255 127 0
-0.16866759955883026 -0.08744125813245773 0.9817867279052734 255 127 0
-0.255919486284256 -0.11918476969003677 0.9593228101730347 255 127 0
-0.2046225368976593 -0.04607143625617027 0.9777560830116272 255 127 0
-0.3209134340286255 -0.0836072489619255 0.9434109926223755 255 127 0
-0.35178303718566895 -0.0666930302977562 0.9337027072906494 255 127 0
-0.3925331234931946 -0.01607995294034481 0.9195972681045532 255 127 0
-0.38227981328964233 0.034565944224596024 0.9233998656272888 255 127 0
-0.44796913862228394 0.06314268708229065 0.8918164968490601 255 127 0
-0.48409631848335266 0.09151531010866165 0.870215892791748 255 127 0
-0.4645678997039795 0.13692119717597961 0.8748882412910461 255 127 0
-0.35703858733177185 0.11041098833084106 0.9275413751602173 255 127 0
-0.39184707403182983 0.0639858990907669 0.9178025722503662 255 127 0
-0.4155045449733734 0.16029468178749084 0.8953555226325989 255 127 0
-0.4089702069759369 0.17881380021572113 0.8948569893836975 255 127 0
-0.38713282346725464 0.1732134073972702 0.9056077599525452 255 127 0
-0.39835256338119507 0.1613370180130005 0.9029316902160645 255 127 0
-0.4240720570087433 0.1164206936955452 0.8981141448020935 255 127 0
-0.4200938642024994 0.19008362293243408 0.8873496055603027 255 127 0
-0.5020450949668884 0.26887816190719604 0.8219825625419617 255 127 0
-0.5616165995597839 0.23833635449409485 0.792327344417572 255 127 0
-0.5922091603279114 0.2981298565864563 0.748603343963623 255 127 0
-0.5729593634605408 0.315374493598938 0.7564764022827148 255 127 0
-0.506199836730957 0.3223208785057068 0.7999194264411926 255 127 0
-0.458892285823822 0.2793874144554138 0.8434219360351562 255 127 0
-0.4652349352836609 0.19637417793273926 0.8631300926208496 255 127 0
-0.4587855339050293 0.22363990545272827 0.8599424958229065 255 127 0
-0.4853721857070923 0.3001963198184967 0.821155309677124 255 127 0
-0.6070754528045654 0.32447731494903564 0.7253784537315369 255 127 0
-0.5699424147605896 0.34300366044044495 0.7466686964035034 255 127 0
-0.5490625500679016 0.3211630880832672 0.7716116309165955 255 127 0
-0.561743438243866 0.3178024888038635 0.7638363838195801 255 127 0
-0.5323218703269958 0.334240198135376 0.777764081954956 255 127 0
-0.4960686266422272 0.33105599880218506 0.8026941418647766 255 127 0
-0.4450017511844635 0.3293287754058838 0.8327760696411133 255 127 0
-0.38357383012771606 0.2865203320980072 0.8779392242431641 255 127 0
-0.4089258313179016 0.2563077509403229 0.8758344054222107 255 127 0
-0.3542128801345825 0.2485763132572174 0.9015225768089294 255 127 0
-0.29150500893592834 0.22532148659229279 0.9296531677246094 255 127 0
-0.25551384687423706 0.18329234421253204 0.9492716193199158 255 127 0
-0.31168997287750244 0.22917507588863373 0.9221323728561401 255 127 0
-0.2432648092508316 0.24745652079582214 0.9378632307052612 255 127 0
-0.2593161463737488 0.22176340222358704 0.939987301826477 255 127 0
-0.2692413330078125 0.19305944442749023 0.9435237646102905 255 127 0
-0.2579106092453003 0.19955430924892426 0.9453359842300415 255 127 0
-0.23874789476394653 0.19005660712718964 0.9523013830184937 255 127 0
-0.26630741357803345 0.19886836409568787 0.9431499242782593 255 127 0
-0.26948562264442444 0.19948610663414001 0.9421160817146301 255 127 0
-0.27675214409828186 0.1872347891330719 0.9425239562988281 255 127 0
-0.2488073855638504 0.22607390582561493 0.9417990446090698 255 127 0
-0.23214717209339142 0.19943641126155853 0.9520151019096375 255 127 0
-0.22359885275363922 0.17375198006629944 0.9590692520141602 255 127 0
-0.1803966909646988 0.14521721005439758 0.9728149771690369 255 127 0
-0.10956007987260818 0.13426730036735535 0.9848699569702148 255 127 0
-0.07054605334997177 0.13121086359024048 0.98884117603302 255 127 0
-0.06367480009794235 0.10563783347606659 0.9923639297485352 255 127 0
-0.06641723215579987 0.09586615115404129 0.9931759834289551 255 127 0
-0.020787717774510384 0.09581035375595093 0.9951825737953186 255 127 0
0.03145173192024231 0.06605704128742218 0.9973200559616089 255 127 0
0.09764059633016586 0.017957014963030815 0.9950597882270813 255 127 0
0.13845086097717285 -0.02012031525373459 0.9901648759841919 255 127 0
0.16959722340106964 -0.03420157730579376 0.9849198460578918 255 127 0
0.1399105191230774 0.016083162277936935 0.9900335073471069 255 127 0
0.07290622591972351 0.042598601430654526 0.9964286684989929 255 127 0
-0.0218452550470829 0.08632224798202515 0.9960277080535889 255 127 0
-0.05741534382104874 0.12468890845775604 0.9905332922935486 255 127 0
-0.09540234506130219 0.1497490406036377 0.9841105937957764 255 127 0
-0.16275160014629364 0.17635716497898102 0.9707780480384827 255 127 0
-0.18192759156227112 0.19834932684898376 0.9630990624427795 255 127 0
-0.17894576489925385 0.19374479353427887 0.9645938277244568 255 127 0
-0.2007320374250412 0.2166995406150818 0.9553784132003784 255 127 0
-0.17600955069065094 0.20587168633937836 0.9626201391220093 255 127 0
-0.13242781162261963 0.17653848230838776 0.9753445982933044 255 127 0
-0.11652522534132004 0.17464318871498108 0.9777124524116516 255 127 0
-0.04479210451245308 0.1566537469625473 0.9866373538970947 255 127 0
0.0613260492682457 0.05659256502985954 0.9965121150016785 255 127 0
0.18985515832901 0.004586557857692242 0.9818013906478882 255 127 0
0.1406666338443756 -0.05000513419508934 0.9887934327125549 255 127 0
0.12287211418151855 0.010906166397035122 0.9923625588417053 255 127 0
0.1316051036119461 -0.10820432007312775 0.9853790998458862 255 127 0
0.13971997797489166 -0.0681677982211113 0.9878418445587158 255 127 0
0.2260340303182602 -0.06608012318611145 0.9718754887580872 255 127 0
0.2728350758552551 -0.064740851521492 0.959879994392395 255 127 0
0.2481643110513687 -0.11994466930627823 0.9612635970115662 255 127 0
0.2515620291233063 -0.1147380843758583 0.9610159993171692 255 127 0
0.22814501821994781 -0.05388319492340088 0.9721350073814392 255 127 0
0.2119741439819336 -0.040276963263750076 0.9764449596405029 255 127 0
0.19890828430652618 -0.04069652408361435 0.9791727066040039 255 127 0
0.2031114250421524 -0.05224093422293663 0.9777609705924988 255 127 0
0.21862275898456573 -0.07580100744962692 0.9728608727455139 255 127 0
0.25291475653648376 -0.1325957477092743 0.9583593010902405 255 127 0
0.3831683397293091 -0.21997526288032532 0.8971025347709656 255 127 0
0.6734140515327454 -0.4951777756214142 0.5489194393157959 255 127 0
0.8239522576332092 -0.5498186349868774 0.13712085783481598 255 127 0
0.8236936330795288 -0.5648605823516846 -0.04961052164435387 255 127 0
0.7887604236602783 -0.5968225598335266 -0.14717276394367218 255 127 0
0.7573737502098083 -0.5887494683265686 -0.282416433095932 255 127 0
0.6891941428184509 -0.5983127355575562 -0.4086970388889313 255 127 0
0.7159268260002136 -0.5676966309547424 -0.40641024708747864 255 127 0
0.7438315153121948 -0.5557406544685364 -0.37130457162857056 255 127 0
0.7245771884918213 -0.5596906542778015 -0.40216198563575745 255 127 0
0.7423690557479858 -0.5286853313446045 -0.4115579128265381 255 127 0
0.7274854183197021 -0.527627170085907 -0.43860524892807007 255 127 0
0.7175427675247192 -0.5110338926315308 -0.47326183319091797 255 127 0
0.7088883519172668 -0.5274448394775391 -0.46827271580696106 255 127 0
0.7286567687988281 -0.5194076895713806 -0.44640228152275085 255 127 0
0.7410674095153809 -0.528252363204956 -0.4144496023654938 255 127 0
0.7315599322319031 -0.5296772122383118 -0.42925772070884705 255 127 0
0.7265744209289551 -0.5118185877799988 -0.4584009349346161 255 127 0
0.7211304903030396 -0.512804388999939 -0.4658353328704834 255 127 0
0.7032032012939453 -0.5159735083580017 -0.4891589879989624 255 127 0
0.70078444480896 -0.519375205039978 -0.48903027176856995 255 127 0
0.7165471911430359 -0.513699471950531 -0.4718823730945587 255 127 0
0.7123273611068726 -0.5260456204414368 -0.46461358666419983 255 127 0
0.7249178886413574 -0.52202308177948 -0.4494284689426422 255 127 0
0.7345016598701477 -0.5242315530776978 -0.4309159517288208 255 127 0
0.7307471632957458 -0.529512345790863 -0.4308423697948456 255 127 0
0.723507821559906 -0.5314666628837585 -0.4405446946620941 255 127 0
0.723691463470459 -0.5232710242271423 -0.449953556060791 255 127 0
0.7193224430084229 -0.5227704048156738 -0.4574781358242035 255 127 0
0.6908624768257141 -0.5373870134353638 -0.48365718126296997 255 127 0
0.6910132765769958 -0.5326089859008789 -0.4887007474899292 255 127 0
0.6930974125862122 -0.527285099029541 -0.4915143847465515 255 127 0
0.7187547087669373 -0.5168299674987793 -0.4650575518608093 255 127 0
0.70751953125 -0.534340500831604 -0.4624893367290497 255 127 0
0.7104797959327698 -0.5342882871627808 -0.45798975229263306 255 127 0
0.7147316336631775 -0.5428536534309387 -0.44098591804504395 255 127 0
0.7094746828079224 -0.5501711368560791 -0.44040587544441223 255 127 0
0.7043216824531555 -0.5649892091751099 -0.4297884702682495 255 127 0
0.7185744643211365 -0.5323757529258728 -0.4474671483039856 255 127 0
0.7043319940567017 -0.5404872894287109 -0.4602064788341522 255 127 0
0.7185103893280029 -0.5246712565422058 -0.4565773904323578 255 127 0
0.7117326259613037 -0.5258983969688416 -0.46569037437438965 255 127 0
0.6934076547622681 -0.5491158366203308 -0.4665379822254181 255 127 0
0.7017027139663696 -0.5318627953529358 -0.4740625023841858 255 127 0
0.6751164793968201 -0.5362388491630554 -0.5066218376159668 255 127 0
0.6828437447547913 -0.5157006978988647 -0.517471969127655 255 127 0
0.6937472224235535 -0.5229294300079346 -0.4952368140220642 255 127 0
0.6848614811897278 -0.5368309020996094 -0.4927244484424591 255 127 0
0.6817018985748291 -0.5363391637802124 -0.49761706590652466 255 127 0
0.6907265186309814 -0.5353197455406189 -0.48613739013671875 255 127 0
0.6967347264289856 -0.5296744704246521 -0.4837413430213928 255 127 0
0.6771714687347412 -0.5383103489875793 -0.501658022403717 255 127 0
0.6634785532951355 -0.5122958421707153 -0.545297384262085 255 127 0
0.6696192622184753 -0.5079944133758545 -0.5418041348457336 255 127 0
0.67722088098526 -0.5082838535308838 -0.5319956541061401 255 127 0
0.6729732751846313 -0.5148212313652039 -0.5310989022254944 255 127 0
0.6702351570129395 -0.5020120143890381 -0.5465974807739258 255 127 0
0.6711959838867188 -0.5163053870201111 -0.5319066643714905 255 127 0
0.6823580861091614 -0.5135340094566345 -0.5202597975730896 255 127 0
0.7255542278289795 -0.511714518070221 -0.46012988686561584 255 127 0
0.7394065856933594 -0.5166866183280945 -0.4316398799419403 255 127 0
0.727136492729187 -0.5331155061721802 -0.4325048327445984 255 127 0
0.6985281705856323 -0.5415698885917664 -0.46771830320358276 255 127 0
0.7296756505966187 -0.5166447758674622 -0.4479415714740753 255 127 0
0.731458842754364 -0.5267978310585022 -0.43295735120773315 255 127 0
0.7292160391807556 -0.5292988419532776 -0.43368959426879883 255 127 0
0.7237024903297424 -0.5255244970321655 -0.44730159640312195 255 127 0
0.722535252571106 -0.5261437296867371 -0.4484591484069824 255 127 0
0.724063515663147 -0.5168231129646301 -0.4567559063434601 255 127 0
0.7250012159347534 -0.5133605599403381 -0.45916682481765747 255 127 0
0.747455358505249 -0.4967014789581299 -0.44113272428512573 255 127 0
0.7425327897071838 -0.5040675401687622 -0.44109055399894714 255 127 0
0.7285706400871277 -0.5192801356315613 -0.4466910660266876 255 127 0
0.7124897241592407 -0.5192688703536987 -0.47193029522895813 255 127 0
0.7001712322235107 -0.5063444972038269 -0.5033640265464783 255 127 0
0.6588917374610901 -0.49584338068962097 -0.5656863451004028 255 127 0
0.6326854825019836 -0.4768920838832855 -0.6101499199867249 255 127 0
0.6257330179214478 -0.47167256474494934 -0.6212754249572754 255 127 0
0.6272014379501343 -0.46249818801879883 -0.6266688108444214 255 127 0
0.6147103905677795 -0.4576524794101715 -0.6424059271812439 255 127 0
0.6054860949516296 -0.45303529500961304 -0.6543283462524414 255 127 0
0.6077943444252014 -0.45883530378341675 -0.6481173634529114 255 127 0
0.6146101355552673 -0.45562589168548584 -0.6439405679702759 255 127 0
0.6113882660865784 -0.4689129889011383 -0.6374362111091614 255 127 0
0.6031080484390259 -0.4667731821537018 -0.6468256115913391 255 127 0
0.5837501287460327 -0.4610959589481354 -0.6683010458946228 255 127 0
0.5823698043823242 -0.456724613904953 -0.6724939346313477 255 127 0
0.5773319602012634 -0.4559333622455597 -0.6773569583892822 255 127 0
0.5910568833351135 -0.45063745975494385 -0.6690124273300171 255 127 0
0.6059666872024536 -0.4461548626422882 -0.6585972905158997 255 127 0
0.5886368155479431 -0.45252442359924316 -0.6698718667030334 255 127 0
0.5893235206604004 -0.4432264566421509 -0.67546147108078 255 127 0
0.5743333697319031 -0.44206568598747253 -0.6889986395835876 255 127 0
0.5620955228805542 -0.4400281310081482 -0.7003027200698853 255 127 0
0.5692904591560364 -0.42506346106529236 -0.7037254571914673 255 127 0
0.537081778049469 -0.4482189416885376 -0.7145928740501404 255 127 0
-0.16597190499305725 -0.10063402354717255 -0.9809821844100952 255 127 0
-0.6372938752174377 0.7394006848335266 0.21712462604045868 255 127 0
-0.6169546842575073 0.4966510534286499 0.6104954481124878 255 127 0
-0.32789644598960876 0.5623291730880737 0.7591243982315063 255 127 0
-0.3197776973247528 0.49881821870803833 0.8055573105812073 255 127 0
-0.36011403799057007 0.5479956269264221 0.7549958229064941 255 127 0
-0.4057667851448059 0.5905737280845642 0.6975500583648682 255 127 0
-0.4389391839504242 0.5739875435829163 0.6912819147109985 255 127 0
-0.45403698086738586 0.5775358080863953 0.67845618724823 255 127 0
-0.45604273676872253 0.5483229756355286 0.7009756565093994 255 127 0
-0.4499373435974121 0.5816020965576172 0.6777133345603943 255 127 0
-0.43307918310165405 0.5741320848464966 0.6948486566543579 255 127 0
-0.4627908170223236 0.5948756337165833 0.6572271585464478 255 127 0
-0.34868675470352173 0.560756504535675 0.7509791851043701 255 127 0
-0.1032596006989479 0.31338468194007874 0.9439955353736877 255 127 0
-0.03198601305484772 0.5219011902809143 0.8524060249328613 255 127 0
-0.05259373039007187 0.31703075766563416 0.9469558596611023 255 127 0
-0.08850932121276855 0.2370031177997589 0.9674686789512634 255 127 0
-0.13828329741954803 0.3436281681060791 0.9288688898086548 255 127 0
-0.20104894042015076 0.33550524711608887 0.92033451795578 255 127 0
-0.26482951641082764 0.33640554547309875 0.9037126898765564 255 127 0
-0.25376278162002563 0.3493206799030304 0.9019863605499268 255 127 0
-0.27123358845710754 0.33498334884643555 0.9023405909538269 255 127 0
-0.27294716238975525 0.33512985706329346 0.9017692804336548 255 127 0
-0.27608853578567505 0.32203662395477295 0.9055757522583008 255 127 0
-0.2587643265724182 0.31870007514953613 0.9118504524230957 255 127 0
-0.2775355279445648 0.3210434019565582 0.9054861664772034 255 127 0
-0.2690793573856354 0.30576932430267334 0.9132915735244751 255 127 0
-0.2446357160806656 0.3050606846809387 0.920375645160675 255 127 0
-0.2125202864408493 0.264411598443985 0.9407027363777161 255 127 0
-0.14967434108257294 0.2504386305809021 0.9564926028251648 255 127 0
-0.09571899473667145 0.21790044009685516 0.9712657928466797 255 127 0
-0.039292313158512115 0.1763816922903061 0.9835373163223267 255 127 0
-0.011830239556729794 0.15071633458137512 0.9885062575340271 255 127 0
0.028203947469592094 0.13066962361335754 0.9910246729850769 255 127 0
0.0725923702120781 0.12356186658143997 0.989678144454956 255 127 0
0.09826408326625824 0.06161016970872879 0.9932514429092407 255 127 0
0.07356160879135132 0.03919092193245888 0.9965202808380127 255 127 0
0.08527395874261856 0.02944857068359852 0.9959222078323364 255 127 0
0.10626452416181564 0.03222278878092766 0.9938156604766846 255 127 0
0.14049720764160156 0.05606355890631676 0.988492488861084 255 127 0
0.09803520888090134 0.0858544111251831 0.9914727210998535 255 127 0
0.0159881804138422 0.06655320525169373 0.9976547956466675 255 127 0
0.12704117596149445 0.030230315402150154 0.9914367198944092 255 127 0
0.12437640130519867 -0.014475250616669655 0.9921295642852783 255 127 0
0.211229607462883 -0.07628171145915985 0.9744553565979004 255 127 0
0.31415852904319763 -0.0719803050160408 0.9466378092765808 255 127 0
0.40874162316322327 -0.12803910672664642 0.9036239385604858 255 127 0
0.40423914790153503 -0.2782939076423645 0.8712882995605469 255 127 0
0.5351139903068542 -0.22805100679397583 0.8134161233901978 255 127 0
0.7420067191123962 -0.4018104076385498 0.5366324782371521 255 127 0
0.839810311794281 -0.4900037348270416 0.2336982637643814 255 127 0
0.8201916217803955 -0.55023193359375 0.156622052192688 255 127 0
0.8276036381721497 -0.5019805431365967 0.25117284059524536 255 127 0
0.8645945191383362 -0.42085397243499756 0.2745145261287689 255 127 0
0.8585860729217529 -0.44572898745536804 0.25328975915908813 255 127 0
0.8441819548606873 -0.49663421511650085 0.2017703354358673 255 127 0
0.8705171942710876 -0.45894113183021545 0.17768777906894684 255 127 0
0.8776456117630005 -0.47707808017730713 0.04620235785841942 255 127 0
0.8554352521896362 -0.5061617493629456 -0.10968510061502457 255 127 0
0.8209851384162903 -0.5164137482643127 -0.2435164749622345 255 127 0
0.7758871912956238 -0.534037709236145 -0.33586129546165466 255 127 0
0.7500380873680115 -0.5439926385879517 -0.3761846721172333 255 127 0
0.7835965752601624 -0.5274613499641418 -0.3282696306705475 255 127 0
0.7975974082946777 -0.5205061435699463 -0.30481424927711487 255 127 0
0.7596542835235596 -0.5663490891456604 -0.3196467161178589 255 127 0
0.7876828908920288 -0.5545516014099121 -0.26838067173957825 255 127 0
0.8122026324272156 -0.5342609286308289 -0.23429077863693237 255 127 0
0.8129571080207825 -0.5369375348091125 -0.22538596391677856 255 127 0
0.8172523379325867 -0.5227937698364258 -0.24245691299438477 255 127 0
0.8133180141448975 -0.5249754190444946 -0.25082769989967346 255 127 0
0.8140326738357544 -0.5328924059867859 -0.23103375732898712 255 127 0
0.8241916298866272 -0.5091415047645569 -0.24795785546302795 255 127 0
0.8298159837722778 -0.4831119477748871 -0.27929970622062683 255 127 0
0.7971691489219666 -0.4998864531517029 -0.33857762813568115 255 127 0
0.8113468885421753 -0.47702354192733765 -0.33788278698921204 255 127 0
0.7758700847625732 -0.49568212032318115 -0.3902880549430847 255 127 0
0.7775343656539917 -0.46771499514579773 -0.4203367233276367 255 127 0
0.7475569844245911 -0.4783451557159424 -0.46080851554870605 255 127 0
0.7576665282249451 -0.5043554306030273 -0.41420647501945496 255 127 0
0.7797738909721375 -0.5063181519508362 -0.3682316839694977 255 127 0
0.8075892925262451 -0.4831375181674957 -0.3381976783275604 255 127 0
0.7801495790481567 -0.48301005363464355 -0.39757758378982544 255 127 0
0.7611969113349915 -0.4919014275074005 -0.4226253628730774 255 127 0
0.7422613501548767 -0.49094992876052856 -0.45608797669410706 255 127 0
0.746742308139801 -0.47444698214530945 -0.4661286771297455 255 127 0
0.7499430775642395 -0.4767698049545288 -0.45855844020843506 255 127 0
0.7678239345550537 -0.469776451587677 -0.43561050295829773 255 127 0
0.7720555663108826 -0.49109920859336853 -0.4034249484539032 255 127 0
0.8012258410453796 -0.48970985412597656 -0.3438335955142975 255 127 0
0.8146631121635437 -0.47651341557502747 -0.33054327964782715 255 127 0
0.811597466468811 -0.47421908378601074 -0.3412122130393982 255 127 0
0.770535409450531 -0.4944150745868683 -0.40227964520454407 255 127 0
0.7636572122573853 -0.4762704372406006 -0.4358832538127899 255 127 0
0.758063793182373 -0.47689932584762573 -0.44486668705940247 255 127 0
0.7491276264190674 -0.4770696759223938 -0.45957833528518677 255 127 0
0.7466046810150146 -0.4820566773414612 -0.4584788978099823 255 127 0
0.7579891085624695 -0.48364877700805664 -0.4376487731933594 255 127 0
0.769258439540863 -0.4905320703983307 -0.40941375494003296 255 127 0
0.7700939178466797 -0.5029780268669128 -0.392388254404068 255 127 0
0.7576048970222473 -0.5176057815551758 -0.3976418972015381 255 127 0
0.7920489311218262 -0.48837903141975403 -0.36625730991363525 255 127 0
0.7917695641517639 -0.48579996824264526 -0.37026944756507874 255 127 0
0.7813720107078552 -0.49014583230018616 -0.3862835168838501 255 127 0
0.7794431447982788 -0.4869830310344696 -0.3941013514995575 255 127 0
0.7750644087791443 -0.4879758954048157 -0.40144068002700806 255 127 0
0.7777220010757446 -0.48435354232788086 -0.4006870985031128 255 127 0
0.7593827843666077 -0.49035680294036865 -0.4276539385318756 255 127 0
0.7493468523025513 -0.4803844690322876 -0.4557521641254425 255 127 0
0.7137156128883362 -0.48204782605171204 -0.5081731081008911 255 127 0
0.703931987285614 -0.4670408070087433 -0.535119354724884 255 127 0
0.704342782497406 -0.4839760661125183 -0.5192961096763611 255 127 0
0.7029195427894592 -0.5007396936416626 -0.5051375031471252 255 127 0
0.7294105291366577 -0.5002846717834473 -0.4665570855140686 255 127 0
0.7465311884880066 -0.5083274245262146 -0.4292951822280884 255 127 0
0.7616791129112244 -0.5117717981338501 -0.3974097967147827 255 127 0
0.7811489105224609 -0.493641197681427 -0.38226261734962463 255 127 0
0.7692665457725525 -0.5252021551132202 -0.3638567328453064 255 127 0
0.7935613393783569 -0.5248599052429199 -0.3078676462173462 255 127 0
0.8371374607086182 -0.4998736083507538 -0.22209712862968445 255 127 0
0.848181426525116 -0.5107541680335999 -0.14042235910892487 255 127 0
0.8633217811584473 -0.49537959694862366 -0.09630437940359116 255 127 0
0.8700649738311768 -0.4911191761493683 -0.04229438304901123 255 127 0
0.8718885779380798 -0.4895398020744324 0.012691817246377468 255 127 0
0.8786075711250305 -0.4725492000579834 0.06889159977436066 255 127 0
0.8690975308418274 -0.4790457487106323 0.12322606891393661 255 127 0
0.8591733574867249 -0.4884185492992401 0.15254051983356476 255 127 0
0.8629736304283142 -0.45131996273994446 0.22712716460227966 255 127 0
0.8670196533203125 -0.42415139079093933 0.26148152351379395 255 127 0
0.8433800339698792 -0.459804892539978 0.2780101001262665 255 127 0
0.81378173828125 -0.4643980860710144 0.34941908717155457 255 127 0
0.8069735765457153 -0.44204312562942505 0.39165234565734863 255 127 0
0.7909414768218994 -0.434742271900177 0.4305935800075531 255 127 0
0.7852429151535034 -0.440845251083374 0.4347977042198181 255 127 0
0.7841143608093262 -0.4720586836338043 0.402895987033844 255 127 0
0.7718403935432434 -0.4726554751396179 0.4252754747867584 255 127 0
0.768322229385376 -0.4571177661418915 0.44802260398864746 255 127 0
0.7903779149055481 -0.46064698696136475 0.40386512875556946 255 127 0
0.8072488903999329 -0.5616821050643921 0.18127980828285217 255 127 0
0.8146353363990784 -0.5794798135757446 -0.023922625929117203 255 127 0
0.7938796281814575 -0.5717733502388 -0.20695504546165466 255 127 0
0.7375228404998779 -0.5869884490966797 -0.33392301201820374 255 127 0
0.6777048707008362 -0.5861349701881409 -0.4440292418003082 255 127 0
0.6881154179573059 -0.550320565700531 -0.472910612821579 255 127 0
0.6601812839508057 -0.5580902695655823 -0.5026886463165283 255 127 0
0.5833988189697266 -0.5495554804801941 -0.5980256199836731 255 127 0
0.5443586111068726 -0.5255221128463745 -0.6538349986076355 255 127 0
0.5378246903419495 -0.5309656262397766 -0.6548435688018799 255 127 0
0.5236766338348389 -0.5061479806900024 -0.6852568984031677 255 127 0
0.5768272876739502 -0.5239494442939758 -0.6266955137252808 255 127 0
0.6389006972312927 -0.5211902260780334 -0.5658327341079712 255 127 0
0.6410096883773804 -0.5640236735343933 -0.5205610394477844 255 127 0
0.5895338654518127 -0.6184569597244263 -0.5195773839950562 255 127 0
0.5658746361732483 -0.6031042337417603 -0.5621843934059143 255 127 0
0.5927054286003113 -0.5414897799491882 -0.596229076385498 255 127 0
0.6106588244438171 -0.5634658336639404 -0.5564188957214355 255 127 0
0.6286401748657227 -0.5858055949211121 -0.5115108489990234 255 127 0
