ply
format ascii 1.0
element vertex 687
property float x
property float y
property float z
property uchar red
property uchar green
property uchar blue
end_header
-0.06506454199552536 0.239874005317688 0.9686211943626404 246 229 37
-0.08997941762208939 0.11250155419111252 0.9895691275596619 243 238 38
-0.13162335753440857 0.12681616842746735 0.9831545948982239 243 238 38
-0.09303604066371918 0.023649951443076134 0.9953818917274475 245 233 38
-0.07417771220207214 -0.012680068612098694 0.9971644282341003 244 234 38
-0.09254962205886841 -0.027212802320718765 0.9953361749649048 245 233 38
-0.055522698909044266 -0.02456139586865902 0.9981552958488464 243 236 38
-0.06313915550708771 -0.05294156074523926 0.996599555015564 244 234 38
-0.06552720069885254 -0.03386373817920685 0.9972760677337646 243 238 38
-0.07026084512472153 -0.06136717647314072 0.9956392049789429 243 236 38
-0.10493607819080353 -0.006241904105991125 0.9944593906402588 243 236 38
-0.11653114855289459 0.022513162344694138 0.9929318428039551 243 236 38
-0.1380738914012909 0.07495806366205215 0.9875813722610474 243 236 38
-0.1576477438211441 0.037964582443237305 0.9867653846740723 244 234 38
-0.17980074882507324 0.027569714933633804 0.9833166599273682 244 234 38
-0.11558440327644348 -0.03072947822511196 0.9928222298622131 245 233 38
-0.14513522386550903 0.00223168614320457 0.9894093871116638 245 231 38
-0.13371749222278595 -0.07530588656663895 0.9881541728973389 246 229 37
-0.17631252110004425 -0.16790038347244263 0.9699089527130127 246 229 37
-0.2342204749584198 -0.24135100841522217 0.9417486190795898 246 229 37
-0.3161464333534241 -0.2486424297094345 0.9155481457710266 246 228 37
-0.3224053680896759 -0.27593347430229187 0.905491828918457 248 223 36
-0.4165305495262146 -0.2823904752731323 0.8641515374183655 248 223 36
-0.5470544695854187 -0.20249596238136292 0.8122357726097107 248 221 36
-0.591304361820221 -0.22572818398475647 0.7742130756378174 248 223 36
-0.654325544834137 -0.2733323276042938 0.705086886882782 246 228 37
-0.6901426911354065 -0.30123570561408997 0.6579971313476562 246 229 37
-0.773400068283081 -0.2599252462387085 0.5781791806221008 245 231 38
-0.8518623113632202 -0.2700081467628479 0.44880521297454834 246 229 37
-0.9204341769218445 -0.22876253724098206 0.31696781516075134 246 229 37
-0.9612827301025391 -0.06181769818067551 0.268540620803833 245 231 38
-0.940474808216095 -0.15776388347148895 0.30102789402008057 246 229 37
-0.9893202185630798 0.03725060820579529 0.14091776311397552 246 229 37
-0.9989162683486938 0.012807025574147701 0.04474535211920738 246 229 37
-0.9891321659088135 0.13795630633831024 0.050850410014390945 246 228 37
-0.9530268311500549 0.2624422311782837 0.15120857954025269 246 228 37
-0.9419781565666199 0.2599489688873291 0.21237649023532867 247 226 37
-0.9681658148765564 0.12766318023204803 0.21530699729919434 246 228 37
-0.9636673927307129 0.21085068583488464 0.16397295892238617 246 228 37
-0.959788978099823 0.2715924382209778 0.07101079821586609 246 229 37
-0.976133406162262 0.21004560589790344 0.05517624691128731 246 229 37
-0.9713932275772095 0.22471298277378082 0.07680648565292358 246 228 37
-0.9485234022140503 0.30658847093582153 0.0794157087802887 246 228 37
-0.9114165902137756 0.3098524808883667 0.27076032757759094 246 229 37
-0.9213860630989075 0.330087274312973 0.20515865087509155 245 231 38
-0.8420232534408569 0.48419588804244995 0.2378048300743103 246 228 37
-0.8027076125144958 0.5094399452209473 0.3100505769252777 246 228 37
-0.8010395765304565 0.4906964898109436 0.3428592383861542 247 226 37
-0.7594822645187378 0.5668587684631348 0.31915155053138733 247 226 37
-0.7352941036224365 0.5972474217414856 0.3203718960285187 247 226 37
-0.7129126787185669 0.6149605512619019 0.33701494336128235 249 219 36
-0.7105984091758728 0.6199172735214233 0.3327948749065399 250 213 36
-0.6990364193916321 0.6021679043769836 0.38567063212394714 251 208 36
-0.7010729312896729 0.6074962615966797 0.37342339754104614 251 208 36
-0.646642804145813 0.622946560382843 0.44021672010421753 251 209 36
-0.6631528735160828 0.5671998858451843 0.48837748169898987 251 208 36
-0.6686556339263916 0.629942774772644 0.39505913853645325 251 208 36
-0.583096444606781 0.6111360788345337 0.5352674722671509 251 209 36
-0.6062365770339966 0.5900800824165344 0.5331817269325256 251 209 36
-0.5960162281990051 0.5305644273757935 0.6027154922485352 251 208 36
-0.5531842112541199 0.5401900410652161 0.6341782212257385 251 209 36
-0.5420224666595459 0.4821859896183014 0.6882647275924683 251 209 36
-0.6182160377502441 0.3288883864879608 0.7138917446136475 251 208 36
-0.6918907761573792 0.36191526055336 0.6247435808181763 249 217 36
-0.7621508836746216 0.43330544233322144 0.4810119867324829 243 236 38
-0.7965291738510132 0.43834856152534485 0.41640350222587585 243 238 38
-0.8734182715415955 0.3845428228378296 0.29877644777297974 243 236 38
-0.814583420753479 0.3793380558490753 0.43881258368492126 246 228 37
-0.7757782936096191 0.4136807918548584 0.47648313641548157 244 234 38
-0.7240664958953857 0.40053877234458923 0.5615126490592957 244 234 38
-0.6420620679855347 0.4581945836544037 0.6146658062934875 243 238 38
-0.5380861163139343 0.4092949628829956 0.7368452548980713 243 238 38
-0.5081722140312195 0.4748551547527313 0.7185218334197998 245 233 38
-0.3629354238510132 0.47851651906967163 0.7995622754096985 245 231 38
-0.39305493235588074 0.47335711121559143 0.7883152365684509 246 228 37
-0.382018506526947 0.499371200799942 0.7776183485984802 247 226 37
-0.31839969754219055 0.3845420777797699 0.8664577603340149 246 228 37
-0.3208465874195099 0.4146370589733124 0.8515476584434509 246 228 37
-0.2711848020553589 0.41407808661460876 0.8689062595367432 246 228 37
-0.33129799365997314 0.4029634892940521 0.853148341178894 246 229 37
-0.2570038437843323 0.34806495904922485 0.9015541076660156 245 231 38
-0.2363480180501938 0.31978774070739746 0.9175376296043396 246 229 37
-0.2693520188331604 0.4014063775539398 0.8753985166549683 247 226 37
-0.20152762532234192 0.41668248176574707 0.8864322900772095 247 226 37
-0.20781229436397552 0.4427904784679413 0.8722101449966431 246 228 37
-0.15583214163780212 0.407089501619339 0.8999969363212585 245 231 38
-0.1956290453672409 0.42959824204444885 0.8815751075744629 245 233 38
-0.21113458275794983 0.4398556053638458 0.8728970289230347 246 228 37
-0.22147630155086517 0.4619995057582855 0.8587809801101685 247 224 36
-0.24208547174930573 0.4697897732257843 0.8489359617233276 248 223 36
-0.24241672456264496 0.4712366759777069 0.8480390310287476 250 216 36
-0.2658613622188568 0.4940263330936432 0.8278017640113831 251 211 36
-0.22548700869083405 0.5290663242340088 0.818073570728302 251 208 36
-0.14400622248649597 0.5712231397628784 0.8080633878707886 251 209 36
-0.17880132794380188 0.6144090890884399 0.7684605121612549 251 209 36
-0.20525674521923065 0.6298959255218506 0.7490665912628174 251 208 36
-0.28917044401168823 0.5750744342803955 0.7652906775474548 252 201 38
-0.455838680267334 0.5278101563453674 0.7166781425476074 253 195 40
-0.5574780106544495 0.5076313614845276 0.6569085121154785 253 193 40
-0.6272864937782288 0.5020632743835449 0.5953521728515625 253 188 42
-0.5974000096321106 0.6708553433418274 0.4393932521343231 253 181 45
-0.43174314498901367 0.8088194131851196 0.39926066994667053 253 179 46
-0.5043266415596008 0.7660953402519226 0.39843764901161194 253 179 46
-0.44834232330322266 0.8039259314537048 0.39075860381126404 253 176 48
-0.4758566915988922 0.7734452486038208 0.41873958706855774 253 178 47
-0.5299836993217468 0.6704172492027283 0.5192861557006836 253 181 45
-0.5210854411125183 0.7082984447479248 0.47621768712997437 253 187 43
-0.5344833135604858 0.598177433013916 0.5970856547355652 253 196 39
-0.5400859117507935 0.4967840313911438 0.6793473958969116 252 206 37
-0.663623571395874 0.406518816947937 0.6279698610305786 250 216 36
-0.6258696913719177 0.3416319787502289 0.701123833656311 247 224 36
-0.7462083697319031 0.33068913221359253 0.5777696371078491 247 226 37
-0.7896790504455566 0.18119245767593384 0.5861538052558899 246 229 37
-0.7681012749671936 0.05648103356361389 0.6378325819969177 246 229 37
-0.8797072768211365 0.3908804655075073 0.2707904279232025 246 229 37
-0.7163189053535461 0.3713504672050476 0.5907504558563232 243 238 38
-0.5374037623405457 0.27181074023246765 0.7983208298683167 243 236 38
-0.45562461018562317 0.25553950667381287 0.8527048826217651 243 238 38
-0.5067086815834045 0.12577779591083527 0.8528928160667419 243 238 38
-0.3472405672073364 0.19757255911827087 0.9167273640632629 242 240 38
-0.32176220417022705 0.2758747339248657 0.9057384729385376 242 241 38
-0.28881481289863586 0.3169918954372406 0.903383731842041 242 240 38
-0.19038154184818268 0.24470210075378418 0.9507237672805786 241 243 38
-0.24768199026584625 0.6255672574043274 0.7398102879524231 240 246 35
-0.21821686625480652 0.6408600211143494 0.7359890341758728 239 248 33
-0.5297605395317078 0.6316692233085632 0.5659926533699036 241 243 38
-0.518974244594574 0.6204980611801147 0.587918221950531 243 238 38
-0.5384368300437927 0.7532424330711365 0.37777185440063477 250 214 36
-0.5557549595832825 0.797256350517273 0.23562411963939667 249 217 36
-0.5033410787582397 0.8279549479484558 0.2472618967294693 248 223 36
-0.4501887559890747 0.85279780626297 0.26469966769218445 246 229 37
-0.41791659593582153 0.8523120284080505 0.31449970602989197 247 224 36
-0.4178350567817688 0.8301279544830322 0.3691902160644531 249 219 36
-0.3844585716724396 0.8222846984863281 0.41957053542137146 249 219 36
-0.3868408203125 0.7786474823951721 0.4940265715122223 249 217 36
-0.45113879442214966 0.7306778430938721 0.5124292373657227 249 219 36
-0.40781331062316895 0.7608442306518555 0.5047814249992371 249 217 36
-0.3598810136318207 0.8554840087890625 0.3723343312740326 249 219 36
-0.3655611276626587 0.8563379049301147 0.3647609055042267 247 224 36
-0.34445372223854065 0.8540953397750854 0.38970860838890076 244 234 38
-0.3762551248073578 0.841658890247345 0.3873530626296997 247 224 36
-0.41372472047805786 0.8618019819259644 0.2934778034687042 250 216 36
-0.4436366558074951 0.8432824015617371 0.3034161925315857 251 209 36
-0.4178096354007721 0.8052269816398621 0.4207666516304016 252 206 37
-0.4787220358848572 0.7911431193351746 0.3806806206703186 252 206 37
-0.4533809423446655 0.7939454913139343 0.40508803725242615 253 198 38
-0.4236236810684204 0.8254149556159973 0.37313979864120483 253 192 41
-0.38499927520751953 0.8441611528396606 0.3730516731739044 253 185 43
-0.3292716443538666 0.8635002970695496 0.3820306658744812 253 181 45
-0.36142614483833313 0.8349438905715942 0.4150179624557495 253 175 49
-0.4110018014907837 0.8302189111709595 0.3765820860862732 252 172 50
-0.38536855578422546 0.8808407187461853 0.27497413754463196 252 166 53
-0.3578217029571533 0.8881582617759705 0.28833770751953125 251 162 56
-0.34567779302597046 0.8593000769615173 0.37697499990463257 250 157 58
-0.3219883143901825 0.813834547996521 0.4837322533130646 250 159 58
-0.337197482585907 0.8597021698951721 0.3836795687675476 250 156 59
-0.3338814079761505 0.8656390309333801 0.3730848729610443 249 153 61
-0.44087734818458557 0.8352110385894775 0.328709214925766 249 153 61
-0.4999963641166687 0.7821745276451111 0.371761679649353 248 150 63
-0.44633057713508606 0.8075675964355469 0.3855172395706177 247 147 65
-0.49841588735580444 0.7976685166358948 0.33956819772720337 246 143 67
-0.4741235375404358 0.8008041381835938 0.36595049500465393 246 142 68
-0.5117400884628296 0.8154167532920837 0.27058741450309753 246 142 68
-0.4817311465740204 0.8541417121887207 0.19590075314044952 244 138 71
-0.4490824341773987 0.8722872138023376 0.19349411129951477 243 134 73
-0.49673861265182495 0.8498334884643555 0.17616447806358337 243 135 72
-0.5341672897338867 0.8452084064483643 0.016969699412584305 245 139 70
-0.5553491711616516 0.8241462111473083 -0.11122198402881622 246 142 68
-0.5552522540092468 0.8253722190856934 -0.10225306451320648 247 146 65
-0.5526822805404663 0.8310094475746155 -0.06297308206558228 248 150 63
-0.53136146068573 0.8471087217330933 -0.007856192998588085 247 147 65
-0.47163593769073486 0.8683826923370361 -0.15320275723934174 248 152 62
-0.4824855625629425 0.8742421865463257 -0.05392853915691376 252 167 53
-0.48375821113586426 0.8747285604476929 -0.028774434700608253 253 178 47
-0.4925410747528076 0.816970944404602 -0.2999362051486969 253 182 45
-0.5976393222808838 0.80063796043396 -0.04249923303723335 253 188 42
-0.5389115214347839 0.8398960828781128 -0.0644121766090393 253 192 41
-0.44813135266304016 0.8874844312667847 0.10746912658214569 253 193 40
-0.2448434978723526 0.966177225112915 -0.08095169812440872 253 190 41
-0.2525297701358795 0.961928129196167 0.10451289266347885 253 185 43
-0.4331150949001312 0.8933628797531128 0.11964140087366104 253 181 45
-0.5245478749275208 0.7952350378036499 0.30405715107917786 253 181 45
-0.4857915937900543 0.7748128771781921 0.40456336736679077 253 179 46
-0.309042364358902 0.924892008304596 0.22151198983192444 253 179 46
-0.40835240483283997 0.8992020487785339 0.15711109340190887 253 178 47
-0.4462864100933075 0.8696919679641724 0.21086591482162476 253 185 43
-0.4209277629852295 0.8716914653778076 0.25094565749168396 253 187 43
-0.528762698173523 0.8246895670890808 0.2007414847612381 253 184 44
-0.5523421168327332 0.8335753679275513 -0.00839149672538042 253 184 44
-0.5355655550956726 0.8312535285949707 -0.1489533931016922 253 184 44
-0.5581145882606506 0.7937923669815063 -0.24166446924209595 253 184 44
-0.5363665223121643 0.7940734624862671 -0.28593385219573975 253 182 45
-0.5413905382156372 0.7766743898391724 -0.3219830393791199 253 179 46
-0.5392732620239258 0.7247089147567749 -0.4289305508136749 253 175 49
-0.5729201436042786 0.6817699074745178 -0.45492011308670044 252 167 53
-0.5591633319854736 0.6639460325241089 -0.49649980664253235 250 159 58
-0.5183544754981995 0.6418212652206421 -0.5651320219039917 249 153 61
-0.5082104802131653 0.6493242383003235 -0.5657739639282227 248 149 64
-0.4745945334434509 0.6520646810531616 -0.5912457704544067 248 149 64
-0.5037549734115601 0.6857195496559143 -0.5253757238388062 247 146 65
-0.5414517521858215 0.6913012862205505 -0.47846898436546326 246 145 66
-0.5541476011276245 0.7057049870491028 -0.44147586822509766 248 152 62
-0.5635284185409546 0.696412205696106 -0.44434869289398193 243 135 72
-0.5486997365951538 0.7479643821716309 -0.3734675347805023 242 132 75
-0.4732770025730133 0.804207980632782 -0.359525203704834 239 125 79
-0.4030747413635254 0.8927083611488342 -0.20150062441825867 234 116 85
-0.3790970742702484 0.90845787525177 -0.17603915929794312 231 110 90
-0.3645813763141632 0.904443085193634 -0.22150187194347382 228 106 93
-0.3960702419281006 0.8782718181610107 -0.2678937017917633 227 103 95
-0.3762812912464142 0.8935536742210388 -0.2448965609073639 228 106 93
-0.4108109772205353 0.8863772749900818 -0.2134704440832138 230 109 90
-0.41428038477897644 0.8914550542831421 -0.1835200935602188 230 109 90
-0.40700966119766235 0.903786301612854 -0.1323382556438446 230 109 90
-0.35300663113594055 0.9287581443786621 -0.11311358213424683 229 108 91
-0.3713042736053467 0.9276760220527649 -0.03937547653913498 229 108 91
-0.40653663873672485 0.9136103391647339 -0.006643209140747786 229 108 91
-0.502827525138855 0.8598610162734985 0.0883372575044632 227 104 94
-0.4713287949562073 0.8794331550598145 0.06668180227279663 227 103 95
-0.422890841960907 0.8995451927185059 0.10946102440357208 225 101 96
-0.4448007643222809 0.8880221843719482 0.11648562550544739 224 100 97
-0.44655588269233704 0.8918920159339905 0.07152938842773438 225 101 96
-0.46856915950775146 0.8827353119850159 0.034945860505104065 225 101 96
-0.4478135406970978 0.8940523266792297 0.011553679592907429 226 102 96
-0.4771946966648102 0.8782234191894531 -0.031763650476932526 226 102 96
-0.5065118670463562 0.8569799065589905 -0.09503187239170074 226 102 96
-0.5144472122192383 0.8467094898223877 -0.13574644923210144 223 97 99
-0.49036917090415955 0.8625951409339905 -0.12436961382627487 217 89 105
-0.4541946053504944 0.887514591217041 -0.07762165367603302 213 83 109
-0.4697495996952057 0.8762733340263367 -0.10714615136384964 213 83 109
-0.44641098380088806 0.8881397843360901 -0.10920149832963943 215 86 108
-0.43271806836128235 0.8977000713348389 -0.08300413191318512 215 86 108
-0.4695420265197754 0.8793424367904663 -0.07929116487503052 215 86 108
-0.4865228533744812 0.8708392977714539 -0.07024531811475754 212 82 110
-0.4874974489212036 0.8696029782295227 -0.07833848893642426 209 79 113
-0.44695380330085754 0.889016330242157 -0.09940899163484573 209 79 113
-0.4748651087284088 0.8714494109153748 -0.12279698252677917 215 86 108
-0.4793861508369446 0.868152379989624 -0.12845399975776672 216 88 106
-0.506603479385376 0.8578770160675049 -0.08602258563041687 216 88 106
-0.5116411447525024 0.8536482453346252 -0.09750927239656448 218 90 104
-0.5076320171356201 0.8410069942474365 -0.187128484249115 220 94 102
-0.502429723739624 0.847284197807312 -0.1722605675458908 218 90 104
-0.5259113311767578 0.8311557769775391 -0.18054762482643127 218 90 104
-0.5479850172996521 0.8248777985572815 -0.13888484239578247 219 91 103
-0.5476767420768738 0.8120980262756348 -0.20136304199695587 219 91 103
-0.554731011390686 0.8124502897262573 -0.1794382631778717 218 90 104
-0.5497903823852539 0.8097317814826965 -0.2050975263118744 219 91 103
-0.5448917150497437 0.8150410056114197 -0.1969803124666214 218 90 104
-0.5549054145812988 0.8073185086250305 -0.2007901966571808 218 90 104
-0.5843582153320312 0.7879392504692078 -0.19410599768161774 218 90 104
-0.5726751685142517 0.798004150390625 -0.18770313262939453 217 89 105
-0.5734246373176575 0.7983911633491516 -0.18372729420661926 218 90 104
-0.5627738833427429 0.8057628273963928 -0.18447723984718323 219 91 103
-0.5654593706130981 0.7969589233398438 -0.21239639818668365 222 96 100
-0.55681312084198 0.7985140681266785 -0.2287672609090805 223 97 99
-0.5845125317573547 0.7796734571456909 -0.2246205359697342 229 107 92
-0.5822689533233643 0.7748486399650574 -0.2461146116256714 232 112 89
-0.6008663177490234 0.7473602294921875 -0.2835708558559418 232 113 88
-0.5970502495765686 0.7573342323303223 -0.26452937722206116 220 94 102
-0.6278505325317383 0.7318539619445801 -0.26494044065475464 220 93 102
-0.6265223622322083 0.7191798090934753 -0.30041640996932983 220 94 102
-0.6266656517982483 0.7074724435806274 -0.32676103711128235 221 95 101
-0.6311691999435425 0.6910382509231567 -0.3522663116455078 219 91 103
-0.6474128365516663 0.6910395622253418 -0.32143574953079224 218 90 104
-0.6670564413070679 0.678704559803009 -0.30723896622657776 215 87 107
-0.6450831294059753 0.6934490203857422 -0.3209301829338074 214 85 109
-0.6667921543121338 0.6743069291114807 -0.3173300623893738 214 85 109
-0.6426604986190796 0.674402117729187 -0.36355096101760864 215 86 108
-0.6390688419342041 0.6837762594223022 -0.35219454765319824 215 86 108
-0.6294421553611755 0.674248993396759 -0.38625237345695496 216 88 106
-0.6036972999572754 0.6901746988296509 -0.3990095853805542 216 88 106
-0.6399068832397461 0.6767292022705078 -0.3640834093093872 216 88 106
-0.6713955998420715 0.6781107187271118 -0.29898810386657715 217 89 105
-0.7017238140106201 0.6738768219947815 -0.23124364018440247 217 89 105
-0.701531171798706 0.6874105930328369 -0.18793781101703644 215 86 108
-0.6919732689857483 0.7100839614868164 -0.13020682334899902 213 83 109
-0.6586710810661316 0.741004467010498 -0.13063210248947144 211 81 111
-0.6444171667098999 0.7622866630554199 -0.06037795543670654 209 78 114
-0.6889925599098206 0.7241823673248291 -0.029139460995793343 207 75 116
-0.6974486708641052 0.7165981531143188 0.007247236557304859 207 75 116
-0.6582401394844055 0.7519153952598572 0.03664770349860191 206 74 117
-0.6263797283172607 0.777884840965271 0.05043395236134529 207 75 116
-0.6321185827255249 0.773913562297821 0.03852056339383125 207 75 116
-0.605715274810791 0.7955785989761353 0.01279777567833662 204 72 118
-0.5963419675827026 0.8027163743972778 0.0047613042406737804 199 66 123
-0.6216146945953369 0.7798364162445068 -0.07382610440254211 195 62 127
-0.6172333359718323 0.7857623100280762 -0.04000851511955261 189 55 132
-0.5875660181045532 0.8090181350708008 0.015996314585208893 178 44 142
-0.5920019745826721 0.80543452501297 0.02844211831688881 168 34 150
-0.6104989647865295 0.7918861508369446 0.014404038898646832 159 26 155
-0.6237657070159912 0.7811053991317749 -0.028118837624788284 153 20 159
-0.6180893778800964 0.7850492596626282 -0.04078274592757225 149 17 161
-0.6434598565101624 0.7631417512893677 -0.059783920645713806 144 14 163
-0.6486414074897766 0.7546330094337463 -0.09896107017993927 134 7 166
-0.6341381669044495 0.7522684931755066 -0.1787760704755783 123 2 168
-0.6496618986129761 0.7367745637893677 -0.18735693395137787 111 0 168
-0.694855272769928 0.6828581094741821 -0.22556796669960022 104 0 167
-0.6885405778884888 0.6742256283760071 -0.26708000898361206 98 0 166
-0.7113189697265625 0.653400719165802 -0.25902292132377625 90 0 165
-0.6945362687110901 0.6184555888175964 -0.3676031827926636 82 1 163
-0.694450318813324 0.5934616327285767 -0.40686866641044617 76 2 161
-0.6960771083831787 0.5816434025764465 -0.4209126830101013 73 2 159
-0.7028669714927673 0.567260205745697 -0.4291782081127167 71 2 159
-0.7062519192695618 0.5205959677696228 -0.4797791838645935 68 3 158
-0.7158620953559875 0.5454607009887695 -0.4359062612056732 66 3 157
-0.6970042586326599 0.5546236038208008 -0.4545082449913025 61 3 155
-0.7031272053718567 0.5355784893035889 -0.4677262008190155 59 3 154
-0.7040428519248962 0.5143088698387146 -0.48970404267311096 59 3 154
-0.6960858702659607 0.502525806427002 -0.5127692818641663 59 3 154
-0.73343825340271 0.4788791239261627 -0.48243463039398193 54 4 152
-0.7213661074638367 0.47834548354148865 -0.5008158683776855 47 4 149
-0.6966357231140137 0.4446053206920624 -0.5630496144294739 47 4 149
-0.6954671144485474 0.4290388226509094 -0.5764122605323792 49 4 150
-0.6998168230056763 0.4235493540763855 -0.5752063989639282 49 4 150
-0.6972011923789978 0.41779616475105286 -0.5825433731079102 51 4 151
-0.6873898506164551 0.42413753271102905 -0.5895783305168152 51 4 151
-0.7054123878479004 0.401458203792572 -0.5841444134712219 47 4 149
-0.7073752880096436 0.3834434449672699 -0.5937939882278442 47 4 149
-0.685280978679657 0.39127442240715027 -0.6142428517341614 47 4 149
-0.7129121422767639 0.40635940432548523 -0.5715140700340271 49 4 150
-0.7195419073104858 0.40922045707702637 -0.5610686540603638 52 4 152
-0.7189789414405823 0.40484756231307983 -0.5649492740631104 56 4 153
-0.6895974278450012 0.40331774950027466 -0.6014899611473083 59 3 154
-0.687354564666748 0.40481433272361755 -0.6030496954917908 63 3 156
-0.6253644227981567 0.4189896881580353 -0.6583061814308167 64 3 156
-0.6541956067085266 0.4754272997379303 -0.5882149934768677 66 3 157
-0.6371929049491882 0.5005689263343811 -0.5860170722007751 66 3 157
-0.6730816960334778 0.4718100130558014 -0.5695229768753052 63 3 156
-0.6694767475128174 0.4332992732524872 -0.6033677458763123 59 3 154
-0.6329433917999268 0.424426406621933 -0.6474912166595459 56 4 153
-0.6861226558685303 0.4046253263950348 -0.6045776605606079 54 4 152
-0.6941505074501038 0.40094298124313354 -0.5978292226791382 51 4 151
-0.6993319392204285 0.33394962549209595 -0.631990909576416 52 4 152
-0.6967273950576782 0.3133847713470459 -0.6452603340148926 47 4 149
-0.7003417015075684 0.2915804386138916 -0.6515384316444397 51 4 151
-0.7253803610801697 0.302219957113266 -0.6184549331665039 54 4 152
-0.7342627048492432 0.32741791009902954 -0.5946896076202393 56 4 153
-0.7537491321563721 0.32752400636672974 -0.5697282552719116 58 4 154
-0.7401475310325623 0.3346058428287506 -0.583284318447113 58 4 154
-0.7617980241775513 0.3680247664451599 -0.5331243276596069 56 4 153
-0.7798423767089844 0.36377134919166565 -0.5094274878501892 47 4 149
-0.772803783416748 0.3782820403575897 -0.5095852017402649 43 5 148
-0.7606973648071289 0.3260337710380554 -0.5612855553627014 41 5 147
-0.7304362058639526 0.3053573668003082 -0.6109172105789185 51 4 151
-0.7752505540847778 0.302511990070343 -0.554502546787262 43 5 148
-0.7883420586585999 0.2986546456813812 -0.537886917591095 37 5 145
-0.7530615329742432 0.26160722970962524 -0.6037052273750305 37 5 145
-0.7789269685745239 0.22783108055591583 -0.5842652320861816 39 5 146
-0.7598146796226501 0.15338341891765594 -0.6317872405052185 37 5 145
-0.822413444519043 0.09197944402694702 -0.5614053010940552 31 5 142
-0.8057059049606323 0.09565073251724243 -0.5845416784286499 29 6 141
-0.7997649908065796 0.06046165153384209 -0.5972607135772705 29 6 141
-0.7786265015602112 0.04816175997257233 -0.625636637210846 31 5 142
-0.7618357539176941 0.06756740063428879 -0.64423668384552 35 5 144
-0.7987971901893616 0.1274828165769577 -0.5879380106925964 31 5 142
-0.7923184037208557 0.14318645000457764 -0.5930675268173218 33 5 143
-0.7480719089508057 0.17984256148338318 -0.6387839913368225 33 5 143
-0.788844883441925 0.18617670238018036 -0.5857149362564087 31 5 142
-0.7852324843406677 0.18940582871437073 -0.5895213484764099 31 5 142
-0.8126750588417053 0.15282955765724182 -0.5623188018798828 29 6 141
-0.7415708899497986 0.12632432579994202 -0.6588737964630127 31 5 142
-0.7460166811943054 0.17114070057868958 -0.6435604095458984 27 6 140
-0.7460079193115234 0.17166393995285034 -0.6434311866760254 24 6 139
-0.7306848764419556 0.16384443640708923 -0.6627627611160278 24 6 139
-0.707155168056488 0.22517015039920807 -0.6702461242675781 24 6 139
-0.716162919998169 0.1810317486524582 -0.6740461587905884 24 6 139
-0.6813133955001831 0.2087741643190384 -0.7015877366065979 27 6 140
-0.6911513209342957 0.2645215392112732 -0.67256098985672 27 6 140
-0.6858946681022644 0.28791797161102295 -0.6683201789855957 29 6 141
-0.7374064922332764 0.2491241991519928 -0.6278285980224609 27 6 140
-0.7214467525482178 0.2201792597770691 -0.6565331220626831 24 6 139
-0.673592746257782 0.2776448726654053 -0.6849716901779175 27 6 140
-0.6271945238113403 0.37880319356918335 -0.6805403828620911 29 6 141
-0.7079854607582092 0.3299141824245453 -0.6244303584098816 29 6 141
-0.6745292544364929 0.3640417754650116 -0.6422491073608398 29 6 141
-0.6088728904724121 0.39552125334739685 -0.6876312494277954 29 6 141
-0.659411609172821 0.4082193970680237 -0.6312949657440186 27 6 140
-0.6547003388404846 0.39059293270111084 -0.6471511721611023 29 6 141
-0.7026160359382629 0.4598033130168915 -0.5430576205253601 29 6 141
-0.7416765689849854 0.45355260372161865 -0.49417197704315186 29 6 141
-0.6758787035942078 0.5237326622009277 -0.5185480117797852 27 6 140
-0.6254532337188721 0.5551124215126038 -0.5483232140541077 27 6 140
-0.6370342373847961 0.6352533102035522 -0.43662428855895996 27 6 140
-0.5812756419181824 0.6128652095794678 -0.5352707505226135 27 6 140
-0.6315689086914062 0.6258988380432129 -0.45757099986076355 29 6 141
-0.5341562628746033 0.629706621170044 -0.5640448927879333 29 6 141
-0.6124749183654785 0.6348528861999512 -0.4709950089454651 29 6 141
-0.6827448606491089 0.5949363708496094 -0.42415839433670044 27 6 140
-0.5943953990936279 0.5135511755943298 -0.6188371777534485 29 6 141
-0.5281500816345215 0.48434486985206604 -0.6974722146987915 27 6 140
-0.6083002090454102 0.33501797914505005 -0.7195371985435486 27 6 140
-0.662579357624054 0.31187212467193604 -0.6809730529785156 31 5 142
-0.6646041870117188 0.39597728848457336 -0.633642852306366 29 6 141
-0.6009936332702637 0.3730541169643402 -0.7068502306938171 31 5 142
-0.5939164757728577 0.41450008749961853 -0.6895309686660767 29 6 141
-0.5573148131370544 0.3997651934623718 -0.727728009223938 29 6 141
-0.5580549240112305 0.4451928734779358 -0.7002699375152588 29 6 141
-0.6230124235153198 0.3451293110847473 -0.701955258846283 29 6 141
-0.567201554775238 0.3050615191459656 -0.7649965882301331 29 6 141
-0.6473987698554993 0.29081547260284424 -0.7044865489006042 29 6 141
-0.6596019268035889 0.3609083890914917 -0.6592954397201538 29 6 141
-0.736655056476593 0.44326251745224 -0.5107423663139343 33 5 143
-0.7181620597839355 0.4738829433917999 -0.5095863342285156 29 6 141
-0.7114048600196838 0.5202101469039917 -0.47252994775772095 31 5 142
-0.711162805557251 0.615078330039978 -0.34047913551330566 31 5 142
-0.640258252620697 0.6248465180397034 -0.4468066394329071 29 6 141
-0.6519115567207336 0.6015995740890503 -0.4616158902645111 31 5 142
-0.641448438167572 0.6385750770568848 -0.42516565322875977 31 5 142
-0.6177940964698792 0.617840051651001 -0.48641979694366455 29 6 141
-0.6637172698974609 0.6121200323104858 -0.42987027764320374 29 6 141
-0.7286490797996521 0.48044103384017944 -0.48810556530952454 33 5 143
-0.7536516189575195 0.3811691701412201 -0.5354619026184082 58 4 154
-0.7572519779205322 0.35429084300994873 -0.548677921295166 68 3 158
-0.4914311170578003 0.24117636680603027 -0.8368567824363708 76 2 161
-0.6087011098861694 -0.04820576682686806 -0.7919338345527649 79 2 162
-0.6922415494918823 -0.13064083456993103 -0.7097426056861877 79 2 162
-0.7205372452735901 -0.27476996183395386 -0.6366533637046814 87 1 164
-0.5953794717788696 -0.2973306477069855 -0.7464032769203186 89 1 164
-0.41096067428588867 -0.34275513887405396 -0.84476637840271 89 1 164
-0.3496054708957672 -0.5279691815376282 -0.7739667296409607 87 1 164
-0.3258154094219208 -0.5406729578971863 -0.7755753397941589 89 1 164
-0.2996787130832672 -0.5678927898406982 -0.7666097283363342 86 1 163
-0.2946181297302246 -0.6022450923919678 -0.7419576048851013 84 1 163
-0.4350748658180237 -0.6715845465660095 -0.599736750125885 84 1 163
-0.38923195004463196 -0.6267220377922058 -0.6750688552856445 81 1 162
-0.251973420381546 -0.7134450078010559 -0.653839111328125 78 2 161
-0.29142525792121887 -0.682417631149292 -0.6703560948371887 74 2 160
-0.3608044385910034 -0.6798999905586243 -0.638401210308075 69 3 158
-0.46770724654197693 -0.632191002368927 -0.6177252531051636 71 2 159
-0.4149138927459717 -0.591167688369751 -0.6916409730911255 71 2 159
-0.4230095446109772 -0.46908557415008545 -0.7752557992935181 66 3 157
-0.38354429602622986 -0.46847906708717346 -0.7958775162696838 66 3 157
-0.37410229444503784 -0.40253713726997375 -0.8354706764221191 68 3 158
-0.3883557915687561 -0.364475816488266 -0.8463670015335083 74 2 160
-0.3910271227359772 -0.3641758859157562 -0.8452655076980591 84 1 163
-0.37691637873649597 -0.3204272985458374 -0.8690571188926697 95 0 166
-0.38148581981658936 -0.29033005237579346 -0.8775972723960876 103 0 167
-0.4650743007659912 -0.32275786995887756 -0.8243381381034851 109 0 168
-0.41644302010536194 -0.3623496890068054 -0.8338332772254944 112 0 168
-0.3652380704879761 -0.41923680901527405 -0.8311688899993896 115 0 168
-0.34408289194107056 -0.4366433024406433 -0.8312337398529053 117 0 168
-0.32844170928001404 -0.505103588104248 -0.7981205582618713 118 1 168
-0.3642096519470215 -0.47015181183815 -0.8039331436157227 126 3 167
-0.3458525836467743 -0.44253474473953247 -0.8273747563362122 132 5 166
-0.3422183692455292 -0.4341143071651459 -0.8333255052566528 137 8 165
-0.26505714654922485 -0.4589429497718811 -0.8480071425437927 142 12 164
-0.28675052523612976 -0.42786070704460144 -0.8571519255638123 146 15 162
-0.3633517026901245 -0.415849894285202 -0.833693265914917 147 16 161
-0.4185958206653595 -0.3916133642196655 -0.8194000720977783 154 21 158
-0.390733003616333 -0.3571697175502777 -0.848385214805603 158 25 156
-0.3785606324672699 -0.32614806294441223 -0.8662097454071045 162 28 154
-0.45880597829818726 -0.35185226798057556 -0.8159025311470032 165 31 151
-0.4327869713306427 -0.4249362349510193 -0.7950626611709595 168 34 150
-0.3686952292919159 -0.38638827204704285 -0.8454394340515137 172 37 147
-0.3239101469516754 -0.34831899404525757 -0.8796340823173523 174 39 145
-0.33536994457244873 -0.41396692395210266 -0.8462614417076111 172 37 147
-0.330227792263031 -0.3907446265220642 -0.8592253923416138 169 35 149
-0.34450826048851013 -0.3784729838371277 -0.8591113090515137 165 31 151
-0.3275415301322937 -0.43009501695632935 -0.8412697911262512 167 33 151
-0.3126490116119385 -0.4090064764022827 -0.8573005795478821 170 36 148
-0.29151347279548645 -0.3891496956348419 -0.8738320469856262 172 37 147
-0.251009076833725 -0.2901987135410309 -0.9234604835510254 169 35 149
-0.25454938411712646 -0.22369098663330078 -0.9408330917358398 163 29 153
-0.2657143175601959 -0.11437052488327026 -0.9572436213493347 160 27 155
-0.23619885742664337 -0.07767811417579651 -0.9685949683189392 158 25 156
-0.25001463294029236 -0.034472402185201645 -0.9676281809806824 157 24 157
-0.2931581139564514 0.023562410846352577 -0.9557735919952393 157 24 157
-0.31511157751083374 0.09517553448677063 -0.9442703127861023 159 26 155
-0.16408608853816986 0.19979402422904968 -0.966001033782959 159 26 155
-0.03538978472352028 0.2832051217556 -0.9584062099456787 162 28 154
0.20626778900623322 0.1546621024608612 -0.9661952257156372 162 28 154
0.30557772517204285 0.05530209839344025 -0.9505597949028015 157 24 157
0.36019933223724365 -0.08474140614271164 -0.9290184378623962 155 23 158
0.4334368407726288 -0.17171214520931244 -0.8846735954284668 151 19 160
0.4620376229286194 -0.23776443302631378 -0.8543941974639893 150 18 160
0.25099384784698486 -0.20353293418884277 -0.9463489651679993 150 18 160
0.28644368052482605 -0.3941882848739624 -0.8732501268386841 151 19 160
0.19705919921398163 -0.3865460753440857 -0.9009715914726257 151 19 160
0.175141841173172 -0.39282986521720886 -0.9027790427207947 154 21 158
0.3206777572631836 -0.3717188537120819 -0.8712007999420166 153 20 159
0.36987563967704773 -0.43071356415748596 -0.8232119083404541 147 16 161
0.33337920904159546 -0.5010250210762024 -0.7986440062522888 144 14 163
0.3562023341655731 -0.5563668608665466 -0.7507168650627136 140 10 164
0.32944512367248535 -0.556662380695343 -0.7626224160194397 139 9 164
0.37694188952445984 -0.5715125799179077 -0.7288951873779297 142 12 164
0.3407928943634033 -0.5606164932250977 -0.7546981573104858 143 13 163
0.3718421459197998 -0.5794012546539307 -0.7252776026725769 142 12 164
0.39867907762527466 -0.5973794460296631 -0.6958396434783936 140 10 164
0.4147149920463562 -0.5665164589881897 -0.7120888233184814 139 9 164
0.4128270447254181 -0.6287025213241577 -0.6590196490287781 139 9 164
0.420737087726593 -0.6549990177154541 -0.6276596188545227 139 9 164
0.34813717007637024 -0.6321898102760315 -0.6921969056129456 137 8 165
0.3020087480545044 -0.6219773292541504 -0.7224505543708801 136 7 165
0.36266276240348816 -0.6192513108253479 -0.6964219212532043 133 6 166
0.38149216771125793 -0.5734220147132874 -0.7250178456306458 130 4 167
0.46215561032295227 -0.5311405062675476 -0.710142195224762 132 5 166
0.3966285288333893 -0.6147900223731995 -0.6817030906677246 133 6 166
0.4196326732635498 -0.4860002398490906 -0.7666239142417908 136 7 165
0.5538197755813599 -0.4643731117248535 -0.6911160349845886 136 7 165
0.585305392742157 -0.4792417585849762 -0.6540221571922302 134 7 166
0.5133122801780701 -0.47042396664619446 -0.7177826166152954 133 6 166
0.4089575707912445 -0.444228857755661 -0.7971289157867432 129 4 167
0.4522319734096527 -0.48728951811790466 -0.7470175623893738 130 4 167
0.4023713767528534 -0.4979318082332611 -0.768219530582428 133 6 166
0.48958632349967957 -0.5366836786270142 -0.6872233152389526 137 8 165
0.4955184757709503 -0.40730810165405273 -0.7671776413917542 139 9 164
0.5379292368888855 -0.4031372368335724 -0.7403462529182434 137 8 165
0.4412769377231598 -0.24905763566493988 -0.8621165752410889 136 7 165
0.44731977581977844 -0.09999760240316391 -0.8887662887573242 137 8 165
0.43920210003852844 -0.07546337693929672 -0.89521324634552 140 10 164
0.4356129467487335 -0.11318124085664749 -0.8929901719093323 142 12 164
0.4089452922344208 -0.05981149896979332 -0.9105966687202454 143 13 163
0.611405611038208 -0.06895241141319275 -0.7883075475692749 140 10 164
0.6093636751174927 -0.07855681329965591 -0.7889896631240845 139 9 164
0.6421303749084473 -0.06255973875522614 -0.7640385627746582 142 12 164
0.5036026835441589 -0.00969711970537901 -0.86388099193573 142 12 164
0.5057904124259949 -0.10645139217376709 -0.856063187122345 139 9 164
0.5509886145591736 0.012194959446787834 -0.8344236612319946 134 7 166
0.45235392451286316 -0.0690235048532486 -0.8891634345054626 133 6 166
0.3607521057128906 -0.19894978404045105 -0.9111953377723694 133 6 166
0.46362367272377014 0.006006541196256876 -0.8860118389129639 130 4 167
0.45597386360168457 0.025654520839452744 -0.8896233439445496 127 3 167
0.3564659059047699 0.16371780633926392 -0.9198524355888367 118 1 168
0.3727627694606781 0.2703746259212494 -0.887662947177887 112 0 168
0.36820903420448303 0.199384406208992 -0.9081123471260071 104 0 167
0.30315670371055603 0.2493215948343277 -0.9197471737861633 95 0 166
0.2667703926563263 0.2400088906288147 -0.9333966374397278 89 1 164
0.2634449303150177 0.19634415209293365 -0.9444817900657654 86 1 163
0.19274409115314484 0.18077202141284943 -0.9644538164138794 86 1 163
0.23986832797527313 0.19338196516036987 -0.9513498544692993 87 1 164
0.3537408709526062 0.1502862125635147 -0.9231909513473511 87 1 164
0.2440037727355957 0.13486583530902863 -0.9603506326675415 90 0 165
0.3058185577392578 -0.09046793729066849 -0.9477819204330444 92 0 165
0.24992786347866058 -0.16014720499515533 -0.9549287557601929 92 0 165
0.3239651918411255 -0.164231538772583 -0.9317052364349365 90 0 165
0.4341494143009186 -0.16512636840343475 -0.8855774998664856 94 0 165
0.38736972212791443 -0.12815913558006287 -0.912973165512085 95 0 166
0.4382047653198242 -0.08882959932088852 -0.8944752216339111 103 0 167
0.29392221570014954 -0.04359669238328934 -0.9548345804214478 111 0 168
0.3375876247882843 -0.20748616755008698 -0.9181416630744934 112 0 168
0.6070362329483032 -0.3558785915374756 -0.7105332612991333 112 0 168
0.5693654417991638 -0.17172084748744965 -0.8039495944976807 112 0 168
0.7360747456550598 -0.16430708765983582 -0.65665602684021 114 0 168
0.7776397466659546 -0.28632745146751404 -0.559725821018219 111 0 168
0.7283212542533875 -0.5509052872657776 -0.4074941575527191 115 0 168
0.8199192881584167 -0.5165154337882996 -0.24686898291110992 124 2 167
0.8069812059402466 -0.5714837312698364 -0.14895546436309814 132 5 166
0.9071403741836548 -0.4104253053665161 0.09299185872077942 143 13 163
0.8704577088356018 -0.3836405575275421 0.3084206283092499 155 23 158
0.8652191758155823 -0.22496625781059265 0.4480914771556854 163 29 153
0.8394538164138794 -0.3828994929790497 0.3856232464313507 170 36 148
0.9323509931564331 -0.347861647605896 0.09855883568525314 178 44 142
0.8289051651954651 -0.3961999714374542 0.39489465951919556 185 51 136
0.7546741366386414 -0.4669645130634308 0.46088075637817383 195 62 127
0.8481940627098083 -0.3377785384654999 0.408010333776474 198 65 124
0.8943031430244446 -0.3217714726924896 0.3109422028064728 200 68 122
0.7940816283226013 -0.49393075704574585 0.35421285033226013 203 71 119
0.7772496938705444 -0.4959316551685333 0.38721412420272827 206 74 117
0.816340446472168 -0.4412010610103607 0.3727329969406128 207 75 116
0.7635982036590576 -0.5041580200195312 0.40341341495513916 208 77 115
0.7351780533790588 -0.5485751032829285 0.39821934700012207 209 78 114
0.7141798734664917 -0.488208532333374 0.5015969276428223 209 78 114
0.71249920129776 -0.4747503399848938 0.5166788697242737 209 79 113
0.6819036602973938 -0.43953046202659607 0.5846541523933411 206 74 117
0.6623384356498718 -0.4887988865375519 0.5677882432937622 207 75 116
0.6765474081039429 -0.4991500973701477 0.5414174795150757 202 70 120
0.6739823222160339 -0.5159848928451538 0.5286845564842224 202 70 120
0.5634604096412659 -0.4660951495170593 0.6821052432060242 202 70 120
0.5141827464103699 -0.4718351364135742 0.7162315845489502 203 71 119
0.5021769404411316 -0.47502052783966064 0.7226159572601318 205 73 117
0.5180455446243286 -0.5076794028282166 0.6883970499038696 205 73 117
0.5305275917053223 -0.5332154631614685 0.6589549779891968 207 75 116
0.5123046040534973 -0.5656013488769531 0.6462500691413879 202 70 120
0.488971471786499 -0.5454881191253662 0.6806979775428772 202 70 120
0.4988526403903961 -0.6003333330154419 0.6250967979431152 208 77 115
0.5392542481422424 -0.5811329483985901 0.6094992756843567 209 78 114
0.5492111444473267 -0.6124006509780884 0.5686235427856445 200 68 122
0.6151636838912964 -0.6090547442436218 0.5006256103515625 204 72 118
0.6493179798126221 -0.5614657998085022 0.5129740834236145 203 71 119
0.6122605800628662 -0.7333530783653259 0.29551687836647034 204 72 118
0.6244658827781677 -0.7285118699073792 0.28162524104118347 210 80 112
0.6537290215492249 -0.6136002540588379 0.4428691267967224 215 86 108
0.6974032521247864 -0.6599065065383911 0.2795569598674774 217 89 105
0.7357271313667297 -0.6173754334449768 0.2784835696220398 220 93 102
0.6851254105567932 -0.7231348156929016 0.08763124793767929 223 97 99
0.7043716907501221 -0.7003024220466614 0.11591765284538269 225 101 96
0.7647170424461365 -0.6127175688743591 0.1994621604681015 227 104 94
0.8372960090637207 -0.5287942886352539 0.13896769285202026 229 107 92
0.845362663269043 -0.5065730214118958 0.16954557597637177 228 106 93
0.7943917512893677 -0.5814449191093445 0.17568017542362213 227 104 94
0.8329121470451355 -0.5532511472702026 0.01305682398378849 227 104 94
0.7892000675201416 -0.6121686100959778 0.049119796603918076 223 97 99
0.7815020680427551 -0.5719293355941772 0.24930183589458466 224 100 97
0.869594395160675 -0.41117510199546814 0.27338719367980957 223 98 98
0.8894928097724915 -0.33175984025001526 0.31422582268714905 220 94 102
0.882786214351654 -0.39651867747306824 0.2519153356552124 220 93 102
0.837387204170227 -0.5332009792327881 0.12033054232597351 223 97 99
0.8546770215034485 -0.4769885540008545 0.20496127009391785 225 101 96
0.914029598236084 -0.31125152111053467 0.260139137506485 226 102 96
0.8714543581008911 -0.21346545219421387 0.44158777594566345 226 102 96
0.9425091743469238 -0.12237139046192169 0.31096917390823364 209 79 113
0.909112274646759 -0.07852417230606079 0.4090830385684967 218 90 104
0.939159095287323 -0.037746477872133255 0.3414021134376526 222 96 100
0.8803768157958984 0.09395947307348251 0.4648745059967041 219 91 103
0.8375514149665833 0.21365272998809814 0.5028520226478577 217 89 105
0.8830263018608093 0.21493832767009735 0.4172123074531555 216 88 106
0.8640002012252808 0.2641889750957489 0.42861154675483704 213 83 109
0.9022058248519897 0.19851012527942657 0.38290780782699585 210 80 112
0.9101451635360718 0.12577833235263824 0.3947346806526184 209 78 114
0.9011063575744629 0.03211384266614914 0.4324074387550354 208 77 115
0.8614089488983154 0.018569929525256157 0.5075724720954895 203 71 119
0.8585031032562256 0.025279097259044647 0.5121847987174988 197 64 125
0.8918094038963318 -0.008877466432750225 0.45232412219047546 193 60 128
0.9281033277511597 -0.012263273820281029 0.37212076783180237 192 59 129
0.9601719975471497 0.05882171541452408 0.2731478214263916 193 60 128
0.9564735889434814 0.13993509113788605 0.2560788691043854 193 60 128
0.9567140936851501 0.13559941947460175 0.2575089931488037 190 56 131
0.9453266263008118 0.09328050166368484 0.3125000298023224 186 52 135
0.9532821178436279 0.15304820239543915 0.26044103503227234 180 45 141
0.9837413430213928 0.12721964716911316 0.12676015496253967 172 37 147
0.9983712434768677 -0.05549558997154236 -0.013232038356363773 163 29 153
0.9861809611320496 -0.16320204734802246 -0.028498711064457893 154 21 158
0.9667706489562988 -0.25509560108184814 0.016757169738411903 146 15 162
0.9087860584259033 -0.3330233693122864 -0.25140252709388733 136 7 165
0.8390389084815979 -0.40652111172676086 -0.36159956455230713 130 4 167
0.8610504269599915 -0.44889554381370544 -0.23892459273338318 121 1 168
0.8385471701622009 -0.3988925814628601 -0.37111082673072815 108 0 168
0.8701854348182678 -0.40834057331085205 -0.27574485540390015 95 0 166
0.834368109703064 -0.43659818172454834 -0.3364696800708771 87 1 164
0.715859591960907 -0.5055375099182129 -0.48163971304893494 79 2 162
0.6611382961273193 -0.6247892379760742 -0.4153728187084198 76 2 161
0.5860980749130249 -0.725180983543396 -0.36138829588890076 79 2 162
0.47751447558403015 -0.700432538986206 -0.530447244644165 84 1 163
0.34987473487854004 -0.6770548224449158 -0.6474446654319763 87 1 164
0.21816566586494446 -0.7227402329444885 -0.6557822227478027 82 1 163
0.11024302989244461 -0.8107303977012634 -0.5749458074569702 73 2 159
0.12445880472660065 -0.7514550089836121 -0.6479393243789673 78 2 161
0.043675631284713745 -0.6198567748069763 -0.7834985256195068 59 3 154
-0.018449366092681885 -0.6012805104255676 -0.7988249659538269 58 4 154
-0.019218359142541885 -0.6713522672653198 -0.7408892512321472 56 4 153
0.07817503064870834 -0.6954230070114136 -0.7143357396125793 52 4 152
0.11116974800825119 -0.6621507406234741 -0.7410787343978882 52 4 152
0.35107412934303284 -0.7842122912406921 -0.5116228461265564 52 4 152
0.4582345485687256 -0.8390925526618958 -0.2931634783744812 51 4 151
0.33483368158340454 -0.8471247553825378 -0.4126330614089966 49 4 150
0.6076738834381104 -0.6777774691581726 -0.4139445722103119 49 4 150
0.5264219641685486 -0.7835099101066589 -0.3301395773887634 56 4 153
0.47064653038978577 -0.8593987822532654 -0.19981375336647034 59 3 154
0.4216904938220978 -0.8728337287902832 -0.24563859403133392 59 3 154
0.43792128562927246 -0.8962584137916565 0.07032657414674759 58 4 154
0.5415282845497131 -0.8371241688728333 -0.07726794481277466 58 4 154
0.7171465754508972 -0.6936168670654297 0.06779666990041733 61 3 155
0.8380232453346252 -0.5448963642120361 0.02837199531495571 61 3 155
0.802932858467102 -0.5843750238418579 0.11749369651079178 63 3 156
0.6964133381843567 -0.7173163890838623 0.02158144675195217 63 3 156
0.6549107432365417 -0.7555078268051147 -0.017314128577709198 64 3 156
0.7132728695869446 -0.6968805193901062 -0.07482830435037613 66 3 157
0.791145384311676 -0.5662075281143188 -0.23129664361476898 68 3 158
0.7852298617362976 -0.5475963950157166 -0.2890540361404419 66 3 157
0.7634128332138062 -0.579402506351471 -0.28547075390815735 69 3 158
0.7890333533287048 -0.5395704507827759 -0.2937517762184143 76 2 161
0.8058376312255859 -0.5352806448936462 -0.25318071246147156 79 2 162
0.7650101780891418 -0.5315235257148743 -0.3636510372161865 78 2 161
0.7463371157646179 -0.6010074615478516 -0.2859562933444977 78 2 161
0.7150699496269226 -0.6808498501777649 -0.15848805010318756 76 2 161
0.7342232465744019 -0.6682044267654419 -0.12007910013198853 78 2 161
0.6278872489929199 -0.7335368394851685 -0.2601563334465027 87 1 164
0.6036966443061829 -0.7395731806755066 -0.2976270020008087 97 0 166
0.5874320268630981 -0.7902380228042603 -0.17449183762073517 108 0 168
0.699370265007019 -0.7018340229988098 -0.13531513512134552 117 0 168
0.6829482316970825 -0.6640596985816956 -0.30431315302848816 117 0 168
0.6783149838447571 -0.6611456871032715 -0.32058560848236084 109 0 168
0.6144856810569763 -0.7536793947219849 -0.233183816075325 104 0 167
0.6194788217544556 -0.7305495738983154 -0.28730347752571106 115 0 168
0.6136391758918762 -0.7030127048492432 -0.3594721257686615 118 1 168
0.6099152565002441 -0.7035678625106812 -0.36468565464019775 118 1 168
0.5784605145454407 -0.6869009137153625 -0.4399438202381134 114 0 168
0.5282068252563477 -0.7262508273124695 -0.4399513900279999 112 0 168
0.5702284574508667 -0.7540589570999146 -0.32593661546707153 108 0 168
0.5571391582489014 -0.7328909635543823 -0.3904702067375183 114 0 168
0.4982442259788513 -0.720613956451416 -0.48214954137802124 114 0 168
0.46413442492485046 -0.7549871802330017 -0.46322083473205566 114 0 168
0.45557618141174316 -0.7624503970146179 -0.45947760343551636 112 0 168
0.4676380455493927 -0.7103787064552307 -0.5260007381439209 112 0 168
0.40366068482398987 -0.7110798358917236 -0.5756940245628357 108 0 168
0.3553909957408905 -0.7043918967247009 -0.6144341230392456 109 0 168
0.36991992592811584 -0.7186021208763123 -0.5888721346855164 109 0 168
0.42587998509407043 -0.7255594730377197 -0.5405457019805908 115 0 168
