ply
format ascii 1.0
element vertex 687
property float x
property float y
property float z
property uchar red
property uchar green
property uchar blue
end_header
0.1288747936487198 -0.6424341797828674 0.7554267644882202 255 127 0
-0.10997166484594345 -0.6996268033981323 0.705994725227356 255 127 0
-0.14067398011684418 -0.6656376123428345 0.732896625995636 255 127 0
-0.04959481582045555 -0.7203138470649719 0.6918730735778809 255 127 0
-0.1668735295534134 -0.6951314806938171 0.6992464065551758 255 127 0
-0.004577948246151209 -0.7455979585647583 0.6663802862167358 255 127 0
0.11883887648582458 -0.5007922053337097 0.8573706150054932 255 127 0
0.4627877175807953 -0.651347279548645 0.6013104319572449 255 127 0
0.4245646297931671 -0.5517058372497559 0.717889666557312 255 127 0
0.4000568091869354 -0.5019457936286926 0.7668148279190063 255 127 0
0.5345774292945862 -0.4726589322090149 0.7005857825279236 255 127 0
0.4682197868824005 -0.5733158588409424 0.6723683476448059 255 127 0
0.44155362248420715 -0.6284019947052002 0.6404228806495667 255 127 0
0.5999637246131897 -0.4515048563480377 0.660444438457489 255 127 0
0.7423356771469116 -0.37871262431144714 0.5527337789535522 255 127 0
0.6755291819572449 -0.36573657393455505 0.6402320861816406 255 127 0
0.7474740147590637 -0.20710384845733643 0.6311819553375244 255 127 0
0.7832357287406921 -0.22215279936790466 0.5806805491447449 255 127 0
0.744299054145813 -0.15013892948627472 0.6507512927055359 255 127 0
0.7448502779006958 0.015159017406404018 0.6670594215393066 255 127 0
0.8825750946998596 -0.09866448491811752 0.45970264077186584 255 127 0
0.9060401320457458 0.06534116715192795 0.4181169271469116 255 127 0
0.8596800565719604 0.16238786280155182 0.48433488607406616 255 127 0
0.911180317401886 0.11486692726612091 0.3956715762615204 255 127 0
0.9202808141708374 0.19773556292057037 0.33761489391326904 255 127 0
0.9397231936454773 0.15457046031951904 0.30500543117523193 255 127 0
0.9336349964141846 0.07043424248695374 0.3512330949306488 255 127 0
0.9222036600112915 0.062481530010700226 0.38162338733673096 255 127 0
0.9578515887260437 -0.0071310061030089855 0.28717491030693054 255 127 0
0.9555820226669312 0.12328042089939117 0.26770317554473877 255 127 0
0.9941847920417786 0.035264600068330765 0.10175006091594696 255 127 0
0.9961360692977905 -0.080055832862854 -0.03611159697175026 255 127 0
0.9953643083572388 0.0756954550743103 -0.059330858290195465 255 127 0
0.9946966171264648 0.04966682940721512 -0.09006548672914505 255 127 0
0.998655378818512 -0.028491908684372902 -0.04330901429057121 255 127 0
0.9909836649894714 -0.09999237954616547 -0.08917921036481857 255 127 0
0.9935975074768066 -0.0395471416413784 -0.10582958161830902 255 127 0
0.977763831615448 -0.15094834566116333 -0.14557655155658722 255 127 0
0.9526207447052002 -0.24084295332431793 -0.18576441705226898 255 127 0
0.9447095990180969 -0.2979199290275574 -0.13699494302272797 255 127 0
0.9802836179733276 -0.13235944509506226 -0.14671367406845093 255 127 0
0.9810979962348938 -0.04070625081658363 -0.1891818791627884 255 127 0
0.9843112230300903 -0.0775732472538948 -0.1584738790988922 255 127 0
0.9672414660453796 -0.12039277702569962 -0.22349393367767334 255 127 0
0.9672951102256775 0.039792999625205994 -0.25051289796829224 255 127 0
0.9391703009605408 -0.08783599734306335 -0.3320300877094269 255 127 0
0.9451554417610168 -0.10035410523414612 -0.31082212924957275 255 127 0
0.8768496513366699 -0.18132345378398895 -0.44526007771492004 255 127 0
0.9116259813308716 -0.10327164083719254 -0.397835373878479 255 127 0
0.8976068496704102 -0.13120737671852112 -0.4208166003227234 255 127 0
0.9074791073799133 -0.018261754885315895 -0.4196999669075012 255 127 0
0.8903928995132446 -0.1539205014705658 -0.42837947607040405 255 127 0
0.8569658994674683 -0.24125631153583527 -0.4554172158241272 255 127 0
0.80070561170578 -0.28563493490219116 -0.5265768766403198 255 127 0
0.769993007183075 -0.26957082748413086 -0.5783098340034485 255 127 0
0.8232500553131104 -0.18869225680828094 -0.5354013442993164 255 127 0
0.8485462665557861 -0.1476452648639679 -0.5081044435501099 255 127 0
0.8575708270072937 -0.051149267703294754 -0.5118164420127869 255 127 0
0.8614897131919861 -0.029330551624298096 -0.5069271922111511 255 127 0
0.8607276082038879 0.08304665982723236 -0.502246081829071 255 127 0
0.7911264896392822 0.07101910561323166 -0.6075156331062317 255 127 0
0.750558078289032 0.07685112208127975 -0.6563202738761902 255 127 0
0.7474098205566406 0.031269658356904984 -0.6636269688606262 255 127 0
0.7739903330802917 0.015135546214878559 -0.6330165266990662 255 127 0
0.8260600566864014 0.010444878600537777 -0.5634854435920715 255 127 0
0.8305158019065857 0.08304205536842346 -0.5507699251174927 255 127 0
0.8082841038703918 0.10205554962158203 -0.5798806548118591 255 127 0
0.7978628873825073 0.11354199796915054 -0.5920498967170715 255 127 0
0.7972559332847595 0.12599897384643555 -0.5903450846672058 255 127 0
0.7950884699821472 0.125817209482193 -0.5932995676994324 255 127 0
0.7904976010322571 0.24157506227493286 -0.5628100633621216 255 127 0
0.7710379958152771 0.11929812282323837 -0.625514566898346 255 127 0
0.7815514206886292 0.07994265109300613 -0.618697464466095 255 127 0
0.7775754928588867 0.04156864434480667 -0.6274141073226929 255 127 0
0.8170008063316345 0.10252591222524643 -0.5674487948417664 255 127 0
0.8309066891670227 0.09825317561626434 -0.5476680994033813 255 127 0
0.8097155094146729 0.12505532801151276 -0.5733428597450256 255 127 0
0.8132215142250061 0.09649912267923355 -0.5738977789878845 255 127 0
0.7556127309799194 0.023022834211587906 -0.6546138525009155 255 127 0
0.7595571279525757 0.0759863406419754 -0.6459869146347046 255 127 0
0.7517058253288269 0.04327821359038353 -0.6580770611763 255 127 0
0.741372287273407 0.038942281156778336 -0.6699631810188293 255 127 0
0.7790073752403259 0.04800662770867348 -0.625174343585968 255 127 0
0.7480821013450623 0.22400757670402527 -0.62465500831604 255 127 0
0.7417219877243042 0.2561244070529938 -0.6198779344558716 255 127 0
0.7885349988937378 0.3084122836589813 -0.5320661664009094 255 127 0
0.7259249091148376 0.2985261082649231 -0.6196088194847107 255 127 0
0.7412325739860535 0.38972097635269165 -0.546527087688446 255 127 0
0.7343371510505676 0.3394027352333069 -0.5878390669822693 255 127 0
0.7703832983970642 0.35128194093704224 -0.5320813059806824 255 127 0
0.7457279562950134 0.3583219051361084 -0.5616896748542786 255 127 0
0.7424041628837585 0.3411363363265991 -0.5765953063964844 255 127 0
0.7208915948867798 0.27198347449302673 -0.6374481916427612 255 127 0
0.7003965973854065 0.4542847275733948 -0.5505179762840271 255 127 0
0.7232332229614258 0.34939295053482056 -0.5956999063491821 255 127 0
0.7519389390945435 0.3417791426181793 -0.5637151598930359 255 127 0
0.6785324215888977 0.3442767262458801 -0.6488970518112183 255 127 0
0.6289761662483215 0.36175188422203064 -0.6881312727928162 255 127 0
0.5696194171905518 0.3231354057788849 -0.7557229399681091 255 127 0
0.5847744941711426 0.3618372678756714 -0.7260252237319946 255 127 0
0.5924493670463562 0.38778066635131836 -0.7061372995376587 255 127 0
0.5117906928062439 0.4477516710758209 -0.7332043647766113 255 127 0
0.5503227114677429 0.4470340311527252 -0.7051990032196045 255 127 0
0.6331452131271362 0.3429670035839081 -0.6939024925231934 255 127 0
0.6550478339195251 0.34157854318618774 -0.6739705801010132 255 127 0
0.6309347152709961 0.32762306928634644 -0.7032670378684998 255 127 0
0.602809488773346 0.38143691420555115 -0.7008042931556702 255 127 0
0.6282524466514587 0.35861051082611084 -0.690432608127594 255 127 0
0.6195750832557678 0.26824668049812317 -0.7376790642738342 255 127 0
0.6455411911010742 0.2980573773384094 -0.7031630873680115 255 127 0
0.5984662771224976 0.27671197056770325 -0.7518434524536133 255 127 0
0.6183731555938721 0.3006935119628906 -0.7260840535163879 255 127 0
0.584056556224823 0.25005781650543213 -0.7722364068031311 255 127 0
0.5425027012825012 0.2575933039188385 -0.799585223197937 255 127 0
0.5181929469108582 0.26185110211372375 -0.8141929507255554 255 127 0
0.4349616467952728 0.36030396819114685 -0.8252208828926086 255 127 0
0.4925457835197449 0.2861245572566986 -0.8219071626663208 255 127 0
0.4554630219936371 0.24465052783489227 -0.8559786677360535 255 127 0
0.4307853579521179 0.27701395750045776 -0.8588871955871582 255 127 0
0.34342294931411743 0.34576594829559326 -0.8732161521911621 255 127 0
0.3659014105796814 0.2816393971443176 -0.8870149254798889 255 127 0
0.4572935104370117 0.28122830390930176 -0.8436784148216248 255 127 0
0.5736802220344543 0.27589812874794006 -0.7712141275405884 255 127 0
0.5619727373123169 0.2990380525588989 -0.7712087631225586 255 127 0
0.5195531845092773 0.4563446044921875 -0.722366988658905 255 127 0
0.6126117706298828 0.2878396809101105 -0.736108124256134 255 127 0
0.6105796098709106 0.3674710988998413 -0.7015393972396851 255 127 0
0.5308136940002441 0.49220770597457886 -0.6899045705795288 255 127 0
0.4433724880218506 0.5015808343887329 -0.7428576350212097 255 127 0
0.3486558198928833 0.5273740291595459 -0.7748004794120789 255 127 0
0.47591349482536316 0.519834578037262 -0.7094211578369141 255 127 0
0.43187201023101807 0.6061422228813171 -0.667890727519989 255 127 0
0.4175977110862732 0.6537068486213684 -0.6310938596725464 255 127 0
0.3045678734779358 0.719890296459198 -0.6236956715583801 255 127 0
0.32638320326805115 0.737581729888916 -0.5911406874656677 255 127 0
0.3277696967124939 0.7133644223213196 -0.6194176077842712 255 127 0
0.36285990476608276 0.7263513207435608 -0.5837348699569702 255 127 0
0.25290489196777344 0.8095725178718567 -0.5297466516494751 255 127 0
0.2179873138666153 0.7234368324279785 -0.6550730466842651 255 127 0
0.15300250053405762 0.7890027761459351 -0.5950335264205933 255 127 0
0.11115259677171707 0.7482117414474487 -0.6540827751159668 255 127 0
0.054759275168180466 0.739647626876831 -0.670762836933136 255 127 0
0.0383966825902462 0.7882646322250366 -0.6141372323036194 255 127 0
-0.020654093474149704 0.7834979295730591 -0.6210510730743408 255 127 0
-0.011810229159891605 0.7727739810943604 -0.6345714330673218 255 127 0
-0.042169515043497086 0.6166917681694031 -0.7860743403434753 255 127 0
-0.06256349384784698 0.677102267742157 -0.7332245111465454 255 127 0
-0.02281714230775833 0.533097505569458 -0.8457460403442383 255 127 0
0.17289313673973083 0.57131028175354 -0.8023170232772827 255 127 0
0.29777416586875916 0.40579360723495483 -0.8640961050987244 255 127 0
0.3604631721973419 0.5394147038459778 -0.7609848380088806 255 127 0
0.5384310483932495 0.6113690137863159 -0.5799310207366943 255 127 0
0.6963733434677124 0.4794498383998871 -0.5340336561203003 255 127 0
0.5410211682319641 0.47440582513809204 -0.6944316029548645 255 127 0
0.6549208164215088 0.4944187104701996 -0.5715145468711853 255 127 0
0.664635956287384 0.1770518273115158 -0.725886881351471 255 127 0
0.7487112879753113 0.145376518368721 -0.6467588543891907 255 127 0
0.6790892481803894 0.12877213954925537 -0.7226725220680237 255 127 0
0.7559608817100525 0.11850208789110184 -0.6438015699386597 255 127 0
0.8045223951339722 0.21409334242343903 -0.553992509841919 255 127 0
0.7948506474494934 0.11521151661872864 -0.5957674384117126 255 127 0
0.8051111698150635 0.16103948652744293 -0.5708435773849487 255 127 0
0.8298991918563843 0.3077596426010132 -0.46535080671310425 255 127 0
0.8848305344581604 0.16952334344387054 -0.43397778272628784 255 127 0
0.9014236927032471 0.1349349021911621 -0.41137319803237915 255 127 0
0.8937797546386719 0.31358471512794495 -0.32065922021865845 255 127 0
0.9120789766311646 0.3591342866420746 -0.19782492518424988 255 127 0
0.9423708319664001 0.30883029103279114 -0.12868930399417877 255 127 0
0.8601782917976379 0.41785281896591187 -0.2923905551433563 255 127 0
0.8991648554801941 0.3173254132270813 -0.30134230852127075 255 127 0
0.8779240846633911 0.3990349769592285 -0.26461371779441833 255 127 0
0.9241570234298706 0.33254683017730713 -0.18800628185272217 255 127 0
0.9562462568283081 0.24294598400592804 -0.163004070520401 255 127 0
0.9476514458656311 0.27912262082099915 -0.1550721973180771 255 127 0
0.9557276368141174 0.26950180530548096 -0.11812421679496765 255 127 0
0.9335866570472717 0.298475444316864 -0.1983138769865036 255 127 0
0.9393291473388672 0.14388927817344666 -0.3113785982131958 255 127 0
0.9063583016395569 0.07630819827318192 -0.41556188464164734 255 127 0
0.8362226486206055 0.37534913420677185 -0.39980578422546387 255 127 0
0.8208548426628113 0.19068115949630737 -0.5383659601211548 255 127 0
0.7316668033599854 0.30037519335746765 -0.6119137406349182 255 127 0
0.6401480436325073 0.31149235367774963 -0.7022698521614075 255 127 0
0.6012871861457825 0.21858133375644684 -0.7685545086860657 255 127 0
0.41662126779556274 0.38182690739631653 -0.8250060677528381 255 127 0
0.17374005913734436 0.16023869812488556 -0.9716675877571106 255 127 0
-0.12190850079059601 0.10481801629066467 -0.9869911670684814 255 127 0
-0.19766995310783386 -0.10762917250394821 -0.9743420481681824 255 127 0
-0.08426731079816818 -0.15006095170974731 -0.9850790500640869 255 127 0
0.015678616240620613 -0.2236621081829071 -0.974540650844574 255 127 0
0.11621399223804474 -0.06046852841973305 -0.991381824016571 255 127 0
0.13084474205970764 -0.25115546584129333 -0.9590623378753662 255 127 0
0.046777449548244476 -0.38883376121520996 -0.9201196432113647 255 127 0
0.6017860770225525 -0.2846752107143402 -0.7461994290351868 255 127 0
0.27453848719596863 -0.33599862456321716 -0.9009625911712646 255 127 0
-0.140621617436409 -0.5279917120933533 -0.837526261806488 255 127 0
-0.13630619645118713 -0.5782379508018494 -0.8044012784957886 255 127 0
-0.14345014095306396 -0.695575475692749 -0.703986406326294 255 127 0
-0.02678126096725464 -0.7212335467338562 -0.6921741366386414 255 127 0
0.06408771872520447 -0.8044112920761108 -0.5906057953834534 255 127 0
0.0529862605035305 -0.7908408045768738 -0.6097238659858704 255 127 0
0.12674130499362946 -0.8593449592590332 -0.4954420328140259 255 127 0
0.21584701538085938 -0.8947891592979431 -0.390848308801651 255 127 0
0.19152085483074188 -0.9237504601478577 -0.33166977763175964 255 127 0
0.3241949677467346 -0.7954905033111572 -0.5119497776031494 255 127 0
0.22129276394844055 -0.7578107714653015 -0.6138015389442444 255 127 0
0.13745465874671936 -0.7733355760574341 -0.6189171075820923 255 127 0
0.2836792469024658 -0.687859058380127 -0.6681138277053833 255 127 0
0.5304471850395203 -0.6028708219528198 -0.5959635376930237 255 127 0
0.8155630230903625 -0.4218427836894989 -0.39611318707466125 255 127 0
0.8530452251434326 -0.30436304211616516 -0.42388325929641724 255 127 0
0.8554835319519043 -0.29274043440818787 -0.42714282870292664 255 127 0
0.8666397333145142 -0.28531843423843384 -0.4093029499053955 255 127 0
0.860197901725769 -0.2636377811431885 -0.4365256130695343 255 127 0
0.8666094541549683 -0.2504536211490631 -0.4315796494483948 255 127 0
0.8488280177116394 -0.2582380175590515 -0.4613071382045746 255 127 0
0.759742021560669 -0.37315699458122253 -0.5324902534484863 255 127 0
0.7093031406402588 -0.4903702735900879 -0.5063853859901428 255 127 0
0.7218437790870667 -0.5088713765144348 -0.4690325856208801 255 127 0
0.7471020817756653 -0.4346367120742798 -0.5029208064079285 255 127 0
0.6559153199195862 -0.5214478969573975 -0.545772135257721 255 127 0
0.5572535395622253 -0.6396090388298035 -0.5294985771179199 255 127 0
0.6672530174255371 -0.561588704586029 -0.4892764687538147 255 127 0
0.6358275413513184 -0.590666651725769 -0.4968262016773224 255 127 0
0.6053317189216614 -0.5966777205467224 -0.5268295407295227 255 127 0
0.6300867795944214 -0.5735348463058472 -0.5234963893890381 255 127 0
0.5545210242271423 -0.655633270740509 -0.5124953389167786 255 127 0
0.5961334705352783 -0.6717271208763123 -0.43978121876716614 255 127 0
0.55641770362854 -0.7363290786743164 -0.3849921226501465 255 127 0
0.6074519157409668 -0.7249985933303833 -0.32462161779403687 255 127 0
0.6210464835166931 -0.7282401919364929 -0.2897714674472809 255 127 0
0.7240654826164246 -0.6275065541267395 -0.2862946689128876 255 127 0
0.7640946507453918 -0.5890614986419678 -0.2629941701889038 255 127 0
0.7535577416419983 -0.6083667874336243 -0.24907952547073364 255 127 0
0.7182641625404358 -0.6877139210700989 -0.10557520389556885 255 127 0
0.7271757125854492 -0.6506025791168213 -0.21893340349197388 255 127 0
0.7252287268638611 -0.6653953194618225 -0.1768963485956192 255 127 0
0.7393073439598083 -0.6123014092445374 -0.2801993787288666 255 127 0
0.7636943459510803 -0.494928240776062 -0.4145081341266632 255 127 0
0.6762262582778931 -0.5060635209083557 -0.535366952419281 255 127 0
0.4766070246696472 -0.639155924320221 -0.6035938262939453 255 127 0
0.39765211939811707 -0.7266502380371094 -0.5602251887321472 255 127 0
0.33240070939064026 -0.7610204815864563 -0.5570974349975586 255 127 0
0.2604571580886841 -0.8525409698486328 -0.4531401991844177 255 127 0
0.1723838448524475 -0.8365828990936279 -0.5200123190879822 255 127 0
0.09426110237836838 -0.8736039400100708 -0.4774213135242462 255 127 0
0.10619477927684784 -0.8397624492645264 -0.5324676036834717 255 127 0
0.18433114886283875 -0.8100036382675171 -0.5567011833190918 255 127 0
0.36157089471817017 -0.7955896258354187 -0.4861106276512146 255 127 0
0.42814964056015015 -0.7186902761459351 -0.547879695892334 255 127 0
0.4676417410373688 -0.6052388548851013 -0.6442027688026428 255 127 0
0.5036341547966003 -0.48775240778923035 -0.7130569815635681 255 127 0
0.4315437376499176 -0.5205636620521545 -0.736738383769989 255 127 0
0.2764908969402313 -0.533684253692627 -0.7992082238197327 255 127 0
0.26876404881477356 -0.520922839641571 -0.8101884126663208 255 127 0
0.2511617839336395 -0.5285254120826721 -0.8109122514724731 255 127 0
0.2040541023015976 -0.5489415526390076 -0.8105708360671997 255 127 0
0.2588670253753662 -0.6142755746841431 -0.7454215884208679 255 127 0
0.29045572876930237 -0.6310389041900635 -0.7193228602409363 255 127 0
0.2903735339641571 -0.6312546133995056 -0.7191666960716248 255 127 0
0.22304438054561615 -0.6477757692337036 -0.7284488677978516 255 127 0
0.17229117453098297 -0.6532034873962402 -0.737320065498352 255 127 0
0.13271969556808472 -0.7138678431510925 -0.6875887513160706 255 127 0
0.1297813057899475 -0.7112203240394592 -0.6908853054046631 255 127 0
0.0940917357802391 -0.7472264766693115 -0.6578748226165771 255 127 0
0.037100035697221756 -0.725392758846283 -0.6873347163200378 255 127 0
-0.03560611978173256 -0.7065610885620117 -0.7067556381225586 255 127 0
-0.0623415932059288 -0.6769540905952454 -0.7333803772926331 255 127 0
-0.028279701247811317 -0.6837736964225769 -0.729145884513855 255 127 0
-0.014344085939228535 -0.6367750763893127 -0.7709161043167114 255 127 0
0.04321564361453056 -0.6405051946640015 -0.7667369842529297 255 127 0
0.054656531661748886 -0.6177223324775696 -0.7844946384429932 255 127 0
0.018839212134480476 -0.5785316228866577 -0.8154423832893372 255 127 0
0.033092301338911057 -0.5705064535140991 -0.8206261992454529 255 127 0
0.026683352887630463 -0.6047450304031372 -0.7959719300270081 255 127 0
0.026672013103961945 -0.6292098164558411 -0.7767776846885681 255 127 0
-0.0001428284595021978 -0.6390970349311829 -0.7691260576248169 255 127 0
-0.02422258071601391 -0.6369063258171082 -0.7705605626106262 255 127 0
0.01677435263991356 -0.6083676815032959 -0.7934780716896057 255 127 0
0.018882766366004944 -0.5944211483001709 -0.8039321899414062 255 127 0
0.08064859360456467 -0.5985538959503174 -0.7970125079154968 255 127 0
0.02754375897347927 -0.6750290393829346 -0.7372767925262451 255 127 0
0.11976426094770432 -0.5880382061004639 -0.7999172210693359 255 127 0
0.029667755588889122 -0.6425510048866272 -0.7656683921813965 255 127 0
0.059157904237508774 -0.6665564775466919 -0.7431034445762634 255 127 0
0.10643759369850159 -0.7138218283653259 -0.6921917200088501 255 127 0
0.13669976592063904 -0.7135217189788818 -0.6871680617332458 255 127 0
0.18574312329292297 -0.745142936706543 -0.6405165791511536 255 127 0
0.17846998572349548 -0.7108391523361206 -0.680335283279419 255 127 0
0.28618353605270386 -0.7101711630821228 -0.6432385444641113 255 127 0
0.23604324460029602 -0.7554441690444946 -0.6112181544303894 255 127 0
0.3256279528141022 -0.7555890083312988 -0.5683763027191162 255 127 0
0.42064881324768066 -0.6584609150886536 -0.624086320400238 255 127 0
0.3548588454723358 -0.5752843022346497 -0.7369689345359802 255 127 0
-0.023495322093367577 -0.7022770643234253 -0.7115159630775452 255 127 0
-0.17475996911525726 -0.8378726840019226 -0.5171346068382263 255 127 0
-0.1330682784318924 -0.8976361751556396 -0.42016908526420593 255 127 0
-0.21496149897575378 -0.8751412034034729 -0.4334965944290161 255 127 0
-0.16550718247890472 -0.9247782230377197 -0.3426261246204376 255 127 0
-0.21183882653713226 -0.9462854862213135 -0.24427065253257751 255 127 0
-0.19916434586048126 -0.9610848426818848 -0.19144085049629211 255 127 0
-0.2223781943321228 -0.9152425527572632 -0.33597466349601746 255 127 0
-0.28361594676971436 -0.8343505859375 -0.4726744592189789 255 127 0
-0.23507504165172577 -0.7772256135940552 -0.583660900592804 255 127 0
-0.295022189617157 -0.6896036267280579 -0.6613688468933105 255 127 0
-0.23403288424015045 -0.6259719133377075 -0.7439003586769104 255 127 0
-0.23239654302597046 -0.6630517840385437 -0.7115856409072876 255 127 0
-0.09401628375053406 -0.6866211891174316 -0.7209106683731079 255 127 0
-0.07093323767185211 -0.6432146430015564 -0.7623931765556335 255 127 0
-0.07454810291528702 -0.5713393688201904 -0.8173211216926575 255 127 0
-0.1440555900335312 -0.521455705165863 -0.8410302400588989 255 127 0
-0.11172918230295181 -0.49968600273132324 -0.858970582485199 255 127 0
-0.1690060943365097 -0.5028749108314514 -0.8476755023002625 255 127 0
-0.27384597063064575 -0.48616698384284973 -0.8298494219779968 255 127 0
-0.22874344885349274 -0.4398886263370514 -0.8684321641921997 255 127 0
-0.25145235657691956 -0.45217788219451904 -0.8557493686676025 255 127 0
-0.25585949420928955 -0.4729495644569397 -0.8431220054626465 255 127 0
-0.2597507834434509 -0.4891014099121094 -0.8326520323753357 255 127 0
-0.23889505863189697 -0.4152964949607849 -0.8777573704719543 255 127 0
-0.25174054503440857 -0.4176774322986603 -0.8730248212814331 255 127 0
-0.2301226556301117 -0.4667567312717438 -0.8539214134216309 255 127 0
-0.2864688038825989 -0.5060139298439026 -0.8135634660720825 255 127 0
-0.32112064957618713 -0.5082423686981201 -0.7991065382957458 255 127 0
-0.2673811912536621 -0.5130178928375244 -0.8156713843345642 255 127 0
-0.2985764443874359 -0.4656475782394409 -0.8330813050270081 255 127 0
-0.25282788276672363 -0.4433360993862152 -0.8599600195884705 255 127 0
-0.30794286727905273 -0.3836095929145813 -0.8706403970718384 255 127 0
-0.3633636236190796 -0.33501124382019043 -0.8693298697471619 255 127 0
-0.3065321147441864 -0.38922595977783203 -0.8686433434486389 255 127 0
-0.28425133228302 -0.40797609090805054 -0.8676155209541321 255 127 0
-0.31124842166900635 -0.41074138879776 -0.8569806814193726 255 127 0
-0.2937016487121582 -0.42012226581573486 -0.8586248159408569 255 127 0
-0.3173798620700836 -0.417754203081131 -0.8513233065605164 255 127 0
-0.303114116191864 -0.3824659287929535 -0.8728353977203369 255 127 0
-0.3521212637424469 -0.3645420968532562 -0.8620439171791077 255 127 0
-0.34113603830337524 -0.41647085547447205 -0.8427207469940186 255 127 0
-0.3604772388935089 -0.42633184790611267 -0.829636812210083 255 127 0
-0.4070727825164795 -0.3985568583011627 -0.8218541741371155 255 127 0
-0.4036638140678406 -0.4081389009952545 -0.8188273310661316 255 127 0
-0.45298317074775696 -0.42556607723236084 -0.7833899259567261 255 127 0
-0.4381715953350067 -0.38494715094566345 -0.8122939467430115 255 127 0
-0.38230830430984497 -0.39842113852500916 -0.8337270617485046 255 127 0
-0.2961476445198059 -0.3792038857936859 -0.8766418099403381 255 127 0
-0.35555580258369446 -0.42059382796287537 -0.8346741795539856 255 127 0
-0.43223533034324646 -0.4114542007446289 -0.8024200797080994 255 127 0
-0.5432417392730713 -0.4118868410587311 -0.7315993309020996 255 127 0
-0.5877074003219604 -0.37428441643714905 -0.7172943949699402 255 127 0
-0.6335221529006958 -0.36040106415748596 -0.6846609711647034 255 127 0
-0.6958815455436707 -0.3663012683391571 -0.6177153587341309 255 127 0
-0.6901414394378662 -0.3918699324131012 -0.6083936095237732 255 127 0
-0.6424054503440857 -0.4523462653160095 -0.6186259388923645 255 127 0
-0.6514814496040344 -0.48795846104621887 -0.5809204578399658 255 127 0
-0.6705070734024048 -0.5396368503570557 -0.5091290473937988 255 127 0
-0.7708689570426941 -0.46875107288360596 -0.43131595849990845 255 127 0
-0.7976599335670471 -0.5092827677726746 -0.32306304574012756 255 127 0
-0.8141947984695435 -0.47656485438346863 -0.3316214680671692 255 127 0
-0.7880656719207764 -0.518279492855072 -0.33217278122901917 255 127 0
-0.807601809501648 -0.47392159700393677 -0.3509668707847595 255 127 0
-0.7850821018218994 -0.4834427535533905 -0.38720691204071045 255 127 0
-0.8052908778190613 -0.4542103409767151 -0.38105079531669617 255 127 0
-0.8169457912445068 -0.4625311493873596 -0.3444770574569702 255 127 0
-0.7900804877281189 -0.4953429102897644 -0.3611207604408264 255 127 0
-0.8047136068344116 -0.44853270053863525 -0.38891440629959106 255 127 0
-0.7684653401374817 -0.4824722111225128 -0.420335054397583 255 127 0
-0.7455518245697021 -0.5071892142295837 -0.43233269453048706 255 127 0
-0.743714451789856 -0.47425320744514465 -0.4711398482322693 255 127 0
-0.7600131630897522 -0.41435104608535767 -0.5006926655769348 255 127 0
-0.7433782815933228 -0.40737178921699524 -0.5305063724517822 255 127 0
-0.7045338749885559 -0.34087935090065 -0.6224414110183716 255 127 0
-0.6679443120956421 -0.4121985137462616 -0.6196310520172119 255 127 0
-0.658904492855072 -0.4368835687637329 -0.6123542189598083 255 127 0
-0.6317160129547119 -0.37575194239616394 -0.6780453324317932 255 127 0
-0.6243759393692017 -0.3521480858325958 -0.6972419023513794 255 127 0
-0.6375210285186768 -0.3764709234237671 -0.6721879839897156 255 127 0
-0.6652552485466003 -0.40915989875793457 -0.6245187520980835 255 127 0
-0.6511934995651245 -0.43073520064353943 -0.6248313188552856 255 127 0
-0.6261336207389832 -0.46129390597343445 -0.6286211609840393 255 127 0
-0.6390696167945862 -0.47858700156211853 -0.6021166443824768 255 127 0
-0.6315768957138062 -0.46903011202812195 -0.6173502206802368 255 127 0
-0.6017002463340759 -0.4990251362323761 -0.6236430406570435 255 127 0
-0.5786592364311218 -0.532862663269043 -0.6174226999282837 255 127 0
-0.5707983374595642 -0.5590501427650452 -0.6013753414154053 255 127 0
-0.5567857027053833 -0.5642344355583191 -0.6096140146255493 255 127 0
-0.535139262676239 -0.5605573654174805 -0.6319820284843445 255 127 0
-0.5074006915092468 -0.5809736251831055 -0.636407196521759 255 127 0
-0.5203889608383179 -0.591405987739563 -0.6159823536872864 255 127 0
-0.5215750932693481 -0.5962588787078857 -0.6102742552757263 255 127 0
-0.5131975412368774 -0.5892311930656433 -0.6240471601486206 255 127 0
-0.506226658821106 -0.5899237394332886 -0.6290664076805115 255 127 0
-0.5234202742576599 -0.5730921626091003 -0.6305525898933411 255 127 0
-0.5024937987327576 -0.5894256234169006 -0.6325166821479797 255 127 0
-0.4915061295032501 -0.6007297039031982 -0.6305121779441833 255 127 0
-0.49431195855140686 -0.5738456845283508 -0.6529600024223328 255 127 0
-0.48487305641174316 -0.569370687007904 -0.6638637781143188 255 127 0
-0.4770514667034149 -0.5883190035820007 -0.6529185771942139 255 127 0
-0.5046836733818054 -0.578033983707428 -0.6412262320518494 255 127 0
-0.5130475163459778 -0.5923175811767578 -0.6212424039840698 255 127 0
-0.522002100944519 -0.5857694149017334 -0.619990348815918 255 127 0
-0.5389086008071899 -0.5851154923439026 -0.6059845685958862 255 127 0
-0.5490438938140869 -0.5812067985534668 -0.600624144077301 255 127 0
-0.5418861508369446 -0.5756186246871948 -0.61239093542099 255 127 0
-0.5392128825187683 -0.5880744457244873 -0.6028414368629456 255 127 0
-0.5477949380874634 -0.5813472867012024 -0.6016278862953186 255 127 0
-0.5371781587600708 -0.5684477090835571 -0.6231427192687988 255 127 0
-0.5328633189201355 -0.5427544713020325 -0.6492105722427368 255 127 0
-0.5294341444969177 -0.4934330880641937 -0.6900893449783325 255 127 0
-0.5041407346725464 -0.4928947985172272 -0.7091522216796875 255 127 0
-0.49843594431877136 -0.49228599667549133 -0.7135938405990601 255 127 0
-0.4760780334472656 -0.49457064270973206 -0.72715163230896 255 127 0
-0.4921012818813324 -0.49652957916259766 -0.7150487899780273 255 127 0
-0.5086889266967773 -0.4880087673664093 -0.7092834711074829 255 127 0
-0.5141903758049011 -0.5084558725357056 -0.6907103657722473 255 127 0
-0.5507969856262207 -0.5102553963661194 -0.6605013608932495 255 127 0
-0.5660167336463928 -0.5213024020195007 -0.638646125793457 255 127 0
-0.5378336906433105 -0.578863263130188 -0.6129047274589539 255 127 0
-0.5519124269485474 -0.5729905366897583 -0.6058667898178101 255 127 0
-0.5704581141471863 -0.5419754385948181 -0.6171225309371948 255 127 0
-0.5752275586128235 -0.5599498748779297 -0.596296489238739 255 127 0
-0.5468000173568726 -0.554938018321991 -0.6269398927688599 255 127 0
-0.48933541774749756 -0.5804675817489624 -0.6508519649505615 255 127 0
-0.5400815010070801 -0.5633949637413025 -0.625218391418457 255 127 0
-0.5041863322257996 -0.5601154565811157 -0.6573179364204407 255 127 0
-0.5238940119743347 -0.49118390679359436 -0.6958975791931152 255 127 0
-0.31638064980506897 -0.5383004546165466 -0.7811119556427002 255 127 0
-0.3998503088951111 -0.5491730570793152 -0.7338451147079468 255 127 0
-0.35147473216056824 -0.5195060968399048 -0.7788317799568176 255 127 0
-0.3552887439727783 -0.5624414682388306 -0.7466119527816772 255 127 0
-0.35854876041412354 -0.562690794467926 -0.7448636293411255 255 127 0
-0.48065516352653503 -0.5601795315742493 -0.6746625900268555 255 127 0
-0.4663233160972595 -0.5554073452949524 -0.6885240077972412 255 127 0
-0.477120041847229 -0.6385235786437988 -0.603857696056366 255 127 0
-0.5405397415161133 -0.5956502556800842 -0.5941527485847473 255 127 0
-0.506476879119873 -0.6083768606185913 -0.6110309362411499 255 127 0
-0.5014637112617493 -0.614770233631134 -0.6087624430656433 255 127 0
-0.5052300095558167 -0.6101135611534119 -0.6103310585021973 255 127 0
-0.4891473948955536 -0.5222463607788086 -0.6985652446746826 255 127 0
-0.4406479001045227 -0.45096611976623535 -0.7761822938919067 255 127 0
-0.4118344187736511 -0.4427386522293091 -0.7964764833450317 255 127 0
-0.48117610812187195 -0.4606779217720032 -0.7458186745643616 255 127 0
-0.4632290303707123 -0.4221569299697876 -0.7792319655418396 255 127 0
-0.48620182275772095 -0.44645076990127563 -0.751192033290863 255 127 0
-0.570203423500061 -0.48967549204826355 -0.6596105694770813 255 127 0
-0.5714831948280334 -0.5060626268386841 -0.6459934711456299 255 127 0
-0.5910384058952332 -0.5016390681266785 -0.6316896677017212 255 127 0
-0.6000117659568787 -0.49250054359436035 -0.6304196715354919 255 127 0
-0.6567652225494385 -0.4261963367462158 -0.6221061944961548 255 127 0
-0.6542865633964539 -0.4190747141838074 -0.6295120716094971 255 127 0
-0.6372318267822266 -0.3982626795768738 -0.6597898006439209 255 127 0
-0.6867172122001648 -0.3409036099910736 -0.642031192779541 255 127 0
-0.7109019160270691 -0.30567479133605957 -0.633388876914978 255 127 0
-0.7085651755332947 -0.22756141424179077 -0.6679455041885376 255 127 0
-0.7051970362663269 -0.15149429440498352 -0.6926374435424805 255 127 0
-0.6770755052566528 -0.11654064804315567 -0.7266272306442261 255 127 0
-0.6794466376304626 -0.08702938258647919 -0.7285451889038086 255 127 0
-0.6946724057197571 -0.11636501550674438 -0.7098516821861267 255 127 0
-0.731368362903595 -0.08897324651479721 -0.6761538982391357 255 127 0
-0.7193778157234192 -0.10860922932624817 -0.6860755085945129 255 127 0
-0.7171422243118286 -0.16187971830368042 -0.6778656840324402 255 127 0
-0.7301290035247803 -0.20887215435504913 -0.6506028771400452 255 127 0
-0.7813959121704102 -0.23403039574623108 -0.5784896016120911 255 127 0
-0.7668660879135132 -0.2587333917617798 -0.5873444080352783 255 127 0
-0.7392394542694092 -0.2849956750869751 -0.6101660132408142 255 127 0
-0.7668794393539429 -0.29610398411750793 -0.5694018602371216 255 127 0
-0.7628991603851318 -0.3151904344558716 -0.5644820332527161 255 127 0
-0.8009228110313416 -0.31076735258102417 -0.511806845664978 255 127 0
-0.8025336265563965 -0.3238981068134308 -0.501028835773468 255 127 0
-0.7761877775192261 -0.39495453238487244 -0.49147066473960876 255 127 0
-0.7932975888252258 -0.41924169659614563 -0.44149231910705566 255 127 0
-0.8255623579025269 -0.3926204442977905 -0.40533435344696045 255 127 0
-0.8330683708190918 -0.408674955368042 -0.3728027045726776 255 127 0
-0.8447130918502808 -0.3848729133605957 -0.371930867433548 255 127 0
-0.8783549666404724 -0.3627445697784424 -0.3113020360469818 255 127 0
-0.862636923789978 -0.29388388991355896 -0.4116913676261902 255 127 0
-0.8663471341133118 -0.2502606511116028 -0.4322177469730377 255 127 0
-0.8361365795135498 -0.2280425727367401 -0.4988709092140198 255 127 0
-0.8291161060333252 -0.1859830766916275 -0.5272349119186401 255 127 0
-0.8054363131523132 -0.24176932871341705 -0.5411283373832703 255 127 0
-0.7710906267166138 -0.3527848720550537 -0.5300585031509399 255 127 0
-0.8564204573631287 -0.2382115125656128 -0.4580385684967041 255 127 0
-0.8371263146400452 -0.30054283142089844 -0.45704880356788635 255 127 0
-0.8564006686210632 -0.2119060903787613 -0.47082236409187317 255 127 0
-0.848151445388794 -0.24241863191127777 -0.4710332155227661 255 127 0
-0.875979483127594 -0.14491458237171173 -0.46006500720977783 255 127 0
-0.841036856174469 -0.13604025542736053 -0.5235934853553772 255 127 0
-0.8026772141456604 -0.05855662748217583 -0.5935322046279907 255 127 0
-0.8309394121170044 -0.15030516684055328 -0.5356752872467041 255 127 0
-0.7575366497039795 -0.3378743827342987 -0.5585508942604065 255 127 0
-0.8813176155090332 -0.2761729657649994 -0.3834158778190613 255 127 0
-0.9285551309585571 -0.2029063105583191 -0.3108285069465637 255 127 0
-0.9504764676094055 -0.1930972933769226 -0.24353213608264923 255 127 0
-0.9956691265106201 -0.09240462630987167 -0.010215358808636665 255 127 0
-0.965040922164917 -0.1738804429769516 0.1961163580417633 255 127 0
-0.723738968372345 -0.24771691858768463 0.644079327583313 255 127 0
-0.6868636012077332 -0.07800145447254181 0.7225884795188904 255 127 0
-0.6344640254974365 -0.43314042687416077 0.6401911973953247 255 127 0
-0.7523109912872314 -0.318065345287323 0.5769425630569458 255 127 0
-0.6632481217384338 -0.49767640233039856 0.5589455962181091 255 127 0
-0.6272846460342407 -0.5149691104888916 0.5842268466949463 255 127 0
-0.5983166098594666 -0.5733985900878906 0.5596706867218018 255 127 0
-0.6521368622779846 -0.5767747759819031 0.4919840693473816 255 127 0
-0.7115771174430847 -0.5854882597923279 0.3884088397026062 255 127 0
-0.7662047147750854 -0.5767349600791931 0.2833852171897888 255 127 0
-0.7336226105690002 -0.6188390254974365 0.2807777523994446 255 127 0
-0.7056827545166016 -0.6185694336891174 0.3455193042755127 255 127 0
-0.7421880960464478 -0.5797019600868225 0.33630701899528503 255 127 0
-0.7518768310546875 -0.5792847871780396 0.31481802463531494 255 127 0
-0.7745766043663025 -0.5759162902832031 0.2614414393901825 255 127 0
-0.7861458659172058 -0.5808977484703064 0.21102753281593323 255 127 0
-0.7935670018196106 -0.5769820809364319 0.19324320554733276 255 127 0
-0.7442538142204285 -0.6436451077461243 0.1783457249403 255 127 0
-0.7462596297264099 -0.6371303200721741 0.19277283549308777 255 127 0
-0.7838351726531982 -0.5938810110092163 0.18140509724617004 255 127 0
-0.7500450611114502 -0.6102855801582336 0.2549193203449249 255 127 0
-0.7492359280586243 -0.6104001402854919 0.2570161819458008 255 127 0
-0.7982653975486755 -0.5550504326820374 0.2338620275259018 255 127 0
-0.8424156904220581 -0.4809037446975708 0.24303774535655975 255 127 0
-0.8162899017333984 -0.5280566215515137 0.23415152728557587 255 127 0
-0.834938108921051 -0.4743897616863251 0.2789851427078247 255 127 0
-0.840277910232544 -0.4800822138786316 0.2519010603427887 255 127 0
-0.8092089891433716 -0.5377541184425354 0.23664620518684387 255 127 0
-0.7968279123306274 -0.5502455234527588 0.249590203166008 255 127 0
-0.8112968802452087 -0.5421809554100037 0.2187173068523407 255 127 0
-0.8438930511474609 -0.5079554915428162 0.17270135879516602 255 127 0
-0.8467183709144592 -0.5096805095672607 0.15262280404567719 255 127 0
-0.7519787549972534 -0.6185551285743713 0.2278541922569275 255 127 0
-0.8120863437652588 -0.5130293369293213 0.2780589461326599 255 127 0
-0.859186053276062 -0.46864885091781616 0.20534750819206238 255 127 0
-0.9694893956184387 -0.23476295173168182 0.0705447793006897 255 127 0
-0.9894346594810486 -0.13634364306926727 0.04928867518901825 255 127 0
-0.9984484910964966 -0.00948263332247734 -0.05486873909831047 255 127 0
-0.9885756373405457 0.1085796132683754 -0.10453992336988449 255 127 0
-0.9794392585754395 0.11251254379749298 -0.16745078563690186 255 127 0
-0.9730371236801147 0.018411045894026756 -0.22991275787353516 255 127 0
-0.9836073517799377 0.04824778810143471 -0.17374883592128754 255 127 0
-0.9685441255569458 0.08672188967466354 -0.23324154317378998 255 127 0
-0.9695824384689331 0.03259916976094246 -0.24258458614349365 255 127 0
-0.9362390041351318 -0.06938779354095459 -0.3444439768791199 255 127 0
-0.9238905310630798 -0.19310057163238525 -0.3303609788417816 255 127 0
-0.9604992866516113 -0.16828539967536926 -0.22163280844688416 255 127 0
-0.9416981339454651 -0.20777708292007446 -0.26463812589645386 255 127 0
-0.9710178375244141 0.0996319055557251 -0.217250257730484 255 127 0
-0.9704447984695435 0.16975665092468262 -0.1715214103460312 255 127 0
-0.9594361186027527 0.1533992737531662 -0.2365397810935974 255 127 0
-0.9864427447319031 0.09512393176555634 -0.13372454047203064 255 127 0
-0.9689573645591736 0.13722912967205048 -0.20564506947994232 255 127 0
-0.9454250335693359 0.0885872170329094 -0.3135664165019989 255 127 0
-0.8627667427062988 0.03286400064826012 -0.5045329928398132 255 127 0
-0.8667201995849609 -0.09852374345064163 -0.48896753787994385 255 127 0
-0.8551848530769348 -0.11090373247861862 -0.5063193440437317 255 127 0
-0.7984665036201477 -0.11235174536705017 -0.5914627909660339 255 127 0
-0.8321821689605713 -0.14678922295570374 -0.5347203016281128 255 127 0
-0.8100807070732117 -0.1056174635887146 -0.5767271518707275 255 127 0
-0.8195037841796875 -0.15138690173625946 -0.5527165532112122 255 127 0
-0.8260753750801086 -0.12572532892227173 -0.5493565201759338 255 127 0
-0.817817211151123 -0.13314636051654816 -0.5598633885383606 255 127 0
-0.8157178163528442 -0.16199980676174164 -0.5553022027015686 255 127 0
-0.8075630068778992 -0.1673421710729599 -0.5655427575111389 255 127 0
-0.8166806697845459 -0.106380395591259 -0.5671999454498291 255 127 0
-0.811083972454071 -0.1641775667667389 -0.561416506767273 255 127 0
-0.8071249127388 -0.1360776573419571 -0.5744842290878296 255 127 0
-0.8183633685112 -0.19734010100364685 -0.5397576689720154 255 127 0
-0.8299620747566223 -0.22947625815868378 -0.5084326267242432 255 127 0
-0.8316444754600525 -0.30870959162712097 -0.4615905284881592 255 127 0
-0.8633262515068054 -0.33085209131240845 -0.38105738162994385 255 127 0
-0.892687976360321 -0.2604692578315735 -0.36778247356414795 255 127 0
-0.8821168541908264 -0.31842219829559326 -0.3470979928970337 255 127 0
-0.900844395160675 -0.31133127212524414 -0.3025757968425751 255 127 0
-0.9034603238105774 -0.3114006817340851 -0.2945997714996338 255 127 0
-0.9071773290634155 -0.3150686025619507 -0.2788568139076233 255 127 0
-0.8955965638160706 -0.3428775370121002 -0.2834462821483612 255 127 0
-0.902459979057312 -0.36241376399993896 -0.23285681009292603 255 127 0
-0.9107427597045898 -0.3559139370918274 -0.20945844054222107 255 127 0
-0.9110733270645142 -0.3578352928161621 -0.20469297468662262 255 127 0
-0.9175780415534973 -0.33300498127937317 -0.21715961396694183 255 127 0
-0.9173986911773682 -0.3367687463760376 -0.21205304563045502 255 127 0
-0.9161406755447388 -0.33946824073791504 -0.21318446099758148 255 127 0
-0.910063624382019 -0.34237468242645264 -0.2335888147354126 255 127 0
-0.9046506881713867 -0.3373614549636841 -0.26037347316741943 255 127 0
-0.9032257199287415 -0.35253214836120605 -0.24475368857383728 255 127 0
-0.8954678177833557 -0.3350977599620819 -0.292996346950531 255 127 0
-0.9046790599822998 -0.2969304621219635 -0.3055945634841919 255 127 0
-0.9049200415611267 -0.2853167951107025 -0.3157752752304077 255 127 0
-0.9019380211830139 -0.30704429745674133 -0.3036966323852539 255 127 0
-0.9028797745704651 -0.29643890261650085 -0.31133922934532166 255 127 0
-0.9197407960891724 -0.2374328225851059 -0.31257396936416626 255 127 0
-0.9125050902366638 -0.23930583894252777 -0.33176371455192566 255 127 0
-0.9328781962394714 -0.21401406824588776 -0.28971731662750244 255 127 0
-0.9340992569923401 -0.24518993496894836 -0.25950074195861816 255 127 0
-0.9429194927215576 -0.151571586728096 -0.29652801156044006 255 127 0
-0.9455502033233643 -0.1342424750328064 -0.2965024411678314 255 127 0
-0.9539235234260559 -0.12544822692871094 -0.2725670337677002 255 127 0
-0.9718403220176697 -0.06031116470694542 -0.2277917116880417 255 127 0
-0.9695390462875366 -0.04831262677907944 -0.24012473225593567 255 127 0
-0.9737794399261475 0.0032318036537617445 -0.2274712771177292 255 127 0
-0.9649560451507568 0.07234376668930054 -0.2522420287132263 255 127 0
-0.957819938659668 0.06539463251829147 -0.27982962131500244 255 127 0
-0.9484910368919373 0.1395541876554489 -0.28441065549850464 255 127 0
-0.9155933260917664 0.049129143357276917 -0.3990931212902069 255 127 0
-0.8885855674743652 0.25850313901901245 -0.37893497943878174 255 127 0
-0.7112478613853455 0.5878888368606567 -0.3853740990161896 255 127 0
-0.6398981809616089 0.5681997537612915 -0.5173774361610413 255 127 0
-0.6456117630004883 0.6035609841346741 -0.46786701679229736 255 127 0
-0.4517917335033417 0.7026745676994324 -0.5496659874916077 255 127 0
-0.3561565577983856 0.7894006967544556 -0.4999990463256836 255 127 0
-0.5024474859237671 0.7612113356590271 -0.41000479459762573 255 127 0
-0.48908859491348267 0.8293103575706482 -0.2702530026435852 255 127 0
-0.2700786292552948 0.9386967420578003 -0.21425697207450867 255 127 0
-0.084231436252594 0.9692132472991943 -0.23136702179908752 255 127 0
-0.10164081305265427 0.9808400273323059 -0.16619828343391418 255 127 0
-0.2544494867324829 0.9577103853225708 -0.13433624804019928 255 127 0
-0.19104906916618347 0.9776256680488586 -0.08802469074726105 255 127 0
-0.010420641861855984 0.9866577982902527 -0.16247373819351196 255 127 0
-0.18145743012428284 0.9698000550270081 -0.16297563910484314 255 127 0
-0.14406244456768036 0.9801343083381653 -0.13631850481033325 255 127 0
-0.13618120551109314 0.9892834424972534 -0.05265842378139496 255 127 0
-0.032603636384010315 0.9813001155853271 -0.18970245122909546 255 127 0
-0.084658682346344 0.9750072360038757 -0.20541121065616608 255 127 0
-0.002604748820886016 0.9729676842689514 -0.23092670738697052 255 127 0
0.12362288683652878 0.956923246383667 -0.26270756125450134 255 127 0
0.23418667912483215 0.8300054669380188 -0.5062089562416077 255 127 0
0.2280651330947876 0.7982984185218811 -0.5574100613594055 255 127 0
0.22576214373111725 0.7454214692115784 -0.6271987557411194 255 127 0
0.1625629961490631 0.6830559968948364 -0.7120448350906372 255 127 0
0.1522793024778366 0.6580788493156433 -0.7373895645141602 255 127 0
0.14805981516838074 0.666135847568512 -0.7309865951538086 255 127 0
0.08025558292865753 0.7220238447189331 -0.6871976852416992 255 127 0
0.04115194082260132 0.7229713201522827 -0.6896513104438782 255 127 0
-0.0239266250282526 0.733089029788971 -0.6797117590904236 255 127 0
-0.07477276027202606 0.7904125452041626 -0.6079942584037781 255 127 0
-0.30652034282684326 0.7647202610969543 -0.5667876601219177 255 127 0
-0.4284737706184387 0.7482949495315552 -0.5064235329627991 255 127 0
-0.453159362077713 0.7769774198532104 -0.43698132038116455 255 127 0
-0.26868295669555664 0.8768436312675476 -0.3986912965774536 255 127 0
0.0005682864575646818 0.9495481252670288 -0.3136208653450012 255 127 0
0.07328386604785919 0.9304603934288025 -0.3589887022972107 255 127 0
0.026335863396525383 0.9585473537445068 -0.2837134599685669 255 127 0
0.06681647896766663 0.9948995113372803 -0.0755680650472641 255 127 0
0.25441545248031616 0.9653719067573547 -0.05770562216639519 255 127 0
0.4102192223072052 0.9094575047492981 0.06787613034248352 255 127 0
0.4507436156272888 0.890737771987915 0.05845022201538086 255 127 0
0.4834562838077545 0.8709443807601929 0.08789718896150589 255 127 0
0.5557445883750916 0.8245295286178589 0.10629685968160629 255 127 0
0.5411355495452881 0.8006654977798462 0.257112979888916 255 127 0
0.6594299077987671 0.6930919289588928 0.2911628782749176 255 127 0
0.7016156315803528 0.6457529664039612 0.3012283146381378 255 127 0
0.619896650314331 0.6963472962379456 0.3617022633552551 255 127 0
0.5581850409507751 0.7154370546340942 0.4202132821083069 255 127 0
0.5960458517074585 0.6714915633201599 0.4402593970298767 255 127 0
0.6758541464805603 0.6715700626373291 0.3036687970161438 255 127 0
0.7146564722061157 0.6428546905517578 0.275688111782074 255 127 0
0.6616409420967102 0.6861206293106079 0.30243968963623047 255 127 0
0.6197477579116821 0.7085886597633362 0.3373645544052124 255 127 0
0.6616839170455933 0.6902125477790833 0.29288381338119507 255 127 0
0.6564780473709106 0.6797886490821838 0.326992392539978 255 127 0
0.5757851600646973 0.7383407354354858 0.35117557644844055 255 127 0
0.586578369140625 0.7318271994590759 0.3469219505786896 255 127 0
0.6014323234558105 0.7060669660568237 0.37382975220680237 255 127 0
0.5491990447044373 0.7044221758842468 0.44963303208351135 255 127 0
0.49284833669662476 0.7699458003044128 0.40531957149505615 255 127 0
0.5929484367370605 0.6040869355201721 0.5324389934539795 255 127 0
0.5813049674034119 0.6486992239952087 0.4911963939666748 255 127 0
0.5382309556007385 0.673926591873169 0.5060932636260986 255 127 0
0.7412552833557129 0.5392307639122009 0.39971327781677246 255 127 0
0.6355751752853394 0.6694173216819763 0.38460972905158997 255 127 0
0.6298860311508179 0.6982449293136597 0.3401435911655426 255 127 0
0.6981127262115479 0.6225987076759338 0.35356661677360535 255 127 0
0.8002164959907532 0.5844346880912781 0.13449743390083313 255 127 0
0.8168569803237915 0.5144118070602417 0.26100796461105347 255 127 0
0.8614664673805237 0.4635758399963379 0.20729941129684448 255 127 0
0.8450735211372375 0.511324405670166 0.15619856119155884 255 127 0
0.8591797351837158 0.5116018652915955 -0.008588135242462158 255 127 0
0.8366237282752991 0.546412467956543 0.03865494206547737 255 127 0
0.8212844133377075 0.5698825716972351 -0.026939695701003075 255 127 0
0.8781061768531799 0.4783647954463959 -0.009826092049479485 255 127 0
0.8624284863471985 0.5022541880607605 -0.06291140615940094 255 127 0
0.7618781328201294 0.6477184295654297 -0.001586311380378902 255 127 0
0.854771077632904 0.5075433254241943 -0.10847198218107224 255 127 0
0.7895327806472778 0.6127232909202576 -0.03475803881883621 255 127 0
0.7464675903320312 0.6590669751167297 -0.09174404293298721 255 127 0
0.7673324942588806 0.6351805925369263 -0.08801411837339401 255 127 0
0.7672901153564453 0.6269445419311523 -0.13493095338344574 255 127 0
0.781136691570282 0.6243547201156616 0.00257450295612216 255 127 0
0.738438606262207 0.6608639359474182 -0.13404174149036407 255 127 0
0.7570462822914124 0.6514942049980164 -0.04935857281088829 255 127 0
0.6849787831306458 0.7014977931976318 -0.19673553109169006 255 127 0
0.7153642177581787 0.6552824974060059 -0.24260856211185455 255 127 0
0.6690595746040344 0.6799131631851196 -0.3001289367675781 255 127 0
0.518690288066864 0.8010307550430298 -0.29884809255599976 255 127 0
