ply
format ascii 1.0
element vertex 668
property float x
property float y
property float z
property uchar red
property uchar green
property uchar blue
end_header
-0.20774315297603607 -0.04076891764998436 0.16671222448349 249 219 36
-0.1695416271686554 -0.023020831868052483 0.18189415335655212 248 223 36
-0.21911576390266418 -0.025259386748075485 0.20682552456855774 248 223 36
-0.3072158098220825 -0.009918255731463432 0.22327542304992676 249 217 36
-0.2937188744544983 0.023905642330646515 0.19469095766544342 250 213 36
-0.3916812241077423 0.09325935691595078 0.23631808161735535 251 211 36
-0.26583123207092285 0.16142357885837555 0.24030053615570068 251 208 36
-0.3501073122024536 0.28836914896965027 0.24033568799495697 251 208 36
-0.2968462407588959 0.32118991017341614 0.259737104177475 251 208 36
-0.35186031460762024 0.2502742409706116 0.2786247730255127 250 213 36
-0.35271766781806946 0.24419452250003815 0.2775638997554779 252 204 37
-0.3360583186149597 0.30222585797309875 0.26390036940574646 252 203 37
-0.32387521862983704 0.3081856966018677 0.2762145400047302 252 206 37
-0.3256646692752838 0.21563370525836945 0.27704912424087524 252 199 38
-0.34409844875335693 0.22772914171218872 0.30257323384284973 253 198 38
-0.28522998094558716 0.27687862515449524 0.3213943839073181 253 195 40
-0.27435192465782166 0.2637444734573364 0.30943310260772705 252 201 38
-0.28388074040412903 0.21481052041053772 0.29616859555244446 252 206 37
-0.36561113595962524 0.1847887635231018 0.292273610830307 252 206 37
-0.3053898513317108 0.22098663449287415 0.2830006182193756 251 208 36
-0.29990655183792114 0.2706521451473236 0.27529841661453247 252 206 37
-0.27712881565093994 0.2982606291770935 0.2554691433906555 252 206 37
-0.32887670397758484 0.25469037890434265 0.24063898622989655 253 184 44
-0.34574609994888306 0.27922767400741577 0.23236696422100067 253 198 38
-0.3209865391254425 0.2782972455024719 0.24272631108760834 253 196 39
-0.3165498673915863 0.2871006727218628 0.23815487325191498 253 192 41
-0.3447727560997009 0.2879215478897095 0.20050419867038727 253 192 41
-0.38242167234420776 0.25687718391418457 0.21245430409908295 253 193 40
-0.3661588430404663 0.2583676874637604 0.23478269577026367 253 195 40
-0.3781891465187073 0.20695377886295319 0.2286337912082672 252 199 38
-0.3701048195362091 0.2041955143213272 0.2290494590997696 252 204 37
-0.3649946451187134 0.2179110050201416 0.23089942336082458 250 214 36
-0.35882332921028137 0.1873054802417755 0.2494259476661682 251 211 36
-0.3441351354122162 0.14527468383312225 0.24561485648155212 251 208 36
-0.3978710472583771 0.15227492153644562 0.2038046419620514 247 224 36
-0.39759084582328796 0.06761615723371506 0.23689725995063782 247 224 36
-0.33384132385253906 0.1648010015487671 0.22747620940208435 247 226 37
-0.38604480028152466 0.10006382316350937 0.199467733502388 245 231 38
-0.35492369532585144 0.046068355441093445 0.19347020983695984 245 233 38
-0.32377418875694275 0.0197849553078413 0.17399094998836517 246 228 37
-0.35103121399879456 0.037449974566698074 0.14828455448150635 246 229 37
-0.3319140374660492 0.0939003974199295 0.15651480853557587 246 229 37
-0.32068514823913574 0.09330934286117554 0.2195722758769989 246 229 37
-0.323594331741333 -0.020888956263661385 0.2309563308954239 247 226 37
-0.4796774387359619 0.05261417105793953 0.18514855206012726 247 226 37
-0.3621988296508789 0.16851550340652466 0.15123161673545837 247 224 36
-0.49044644832611084 0.12735749781131744 0.13394825160503387 247 224 36
-0.47131094336509705 0.12881015241146088 0.17585456371307373 246 228 37
-0.49584487080574036 0.10874171555042267 0.12146436423063278 247 224 36
-0.48442038893699646 0.14006224274635315 0.13827502727508545 253 196 39
-0.40873774886131287 0.1621636599302292 0.21850407123565674 253 190 41
-0.4989512264728546 0.09691805392503738 0.17456406354904175 253 185 43
-0.4124034345149994 0.2324187010526657 0.14990819990634918 253 185 43
-0.44276341795921326 0.22696688771247864 0.10691357403993607 253 185 43
-0.42011216282844543 0.24253246188163757 0.1320861279964447 253 179 46
-0.4276818633079529 0.16262024641036987 0.18780335783958435 253 176 48
-0.4299452304840088 0.10354305803775787 0.1797621250152588 252 167 53
-0.42628809809684753 0.10625002533197403 0.13709600269794464 251 162 56
-0.3521682918071747 0.08707872033119202 0.08939150720834732 250 156 59
-0.3160395920276642 0.11436214298009872 0.04618794843554497 245 139 70
-0.2933785021305084 0.06758856773376465 0.07394377142190933 244 138 71
-0.2928563356399536 0.05434310808777809 0.08735571801662445 244 137 71
-0.3333962559700012 0.06506571173667908 0.0829954743385315 242 132 75
-0.28966423869132996 0.040331896394491196 0.07477394491434097 240 128 77
-0.28180423378944397 0.02670859917998314 0.08296207338571548 239 125 79
-0.29379358887672424 -0.01685558445751667 0.10002101212739944 236 119 84
-0.2425997406244278 -0.06412394344806671 0.06875420361757278 234 115 86
-0.21124160289764404 -0.06840570271015167 0.024110708385705948 233 114 87
-0.17692610621452332 0.02013220638036728 0.022005189210176468 234 116 85
-0.21713629364967346 0.02049449272453785 0.07103005796670914 236 120 83
-0.2098083347082138 -0.019313599914312363 0.07769742608070374 232 113 88
-0.2291390746831894 -0.056242987513542175 0.14215032756328583 227 104 94
-0.22060802578926086 -0.06812763214111328 0.11386150121688843 221 95 101
-0.1539783924818039 -0.015421127900481224 0.07487653195858002 220 94 102
-0.19906599819660187 0.04655463248491287 0.09126714617013931 214 85 109
-0.17560280859470367 0.0577019564807415 0.10842272639274597 206 74 117
-0.22229157388210297 0.026972485706210136 0.16505295038223267 196 63 126
-0.24578852951526642 -0.08784230798482895 0.2140902280807495 188 54 133
-0.12138611823320389 -0.07231390476226807 0.14230094850063324 183 48 138
-0.19181589782238007 -0.011736884713172913 0.0961708128452301 176 42 143
-0.17745302617549896 -0.051506780087947845 0.12235596776008606 174 39 145
-0.16378936171531677 -0.04131151735782623 0.12130225449800491 174 39 145
-0.19673189520835876 -0.07882663607597351 0.1289139837026596 174 39 145
-0.1888396143913269 -0.17118017375469208 0.04569724202156067 174 39 145
-0.05990089848637581 -0.10147209465503693 0.009369585663080215 173 38 146
-0.06266330927610397 -0.20542676746845245 -0.0028298404067754745 173 38 146
-0.06964332610368729 -0.21776697039604187 -0.0007272054208442569 174 39 145
-0.07467405498027802 -0.19067329168319702 0.026942839846014977 175 40 144
-0.08118875324726105 -0.14735426008701324 0.04501143470406532 175 40 144
-0.1731140911579132 -0.15524978935718536 0.07390900701284409 175 40 144
-0.12452958524227142 -0.24442562460899353 0.027746709063649178 175 40 144
-0.05209231376647949 -0.18063411116600037 0.015528207644820213 175 40 144
-0.07349887490272522 -0.19426140189170837 -0.01943311281502247 173 38 146
-0.05777044966816902 -0.1957707554101944 -0.04136085882782936 169 35 149
-0.028429744765162468 -0.22169995307922363 -0.025097640231251717 165 31 151
-0.017034484073519707 -0.2138245701789856 -0.028299735859036446 170 36 148
-0.027304356917738914 -0.21030688285827637 -0.033603690564632416 157 24 157
-0.033417731523513794 -0.18674205243587494 -0.0320444256067276 153 20 159
-0.05113101005554199 -0.17830805480480194 -0.02191217429935932 154 21 158
-0.04213402420282364 -0.18742798268795013 0.01160444412380457 155 23 158
-0.08922280371189117 -0.13818472623825073 0.009621362201869488 155 23 158
-0.1057828962802887 -0.10694334656000137 0.03326772525906563 155 23 158
-0.10417366772890091 -0.08273971080780029 0.03720822185277939 158 25 156
-0.12404212355613708 -0.09791051596403122 0.06421778351068497 159 26 155
-0.12563617527484894 -0.0586189404129982 0.05504687502980232 157 24 157
-0.1358400136232376 -0.004845703020691872 0.07216928899288177 154 21 158
-0.1723158359527588 -0.04430399835109711 0.11388147622346878 147 16 161
-0.1554078310728073 -0.08507519215345383 0.10139214992523193 140 10 164
-0.11999697983264923 -0.05285711586475372 0.06977243721485138 130 4 167
-0.138628289103508 -0.07278090715408325 0.04815191775560379 129 4 167
-0.08952977508306503 -0.09558678418397903 0.062213826924562454 115 0 168
-0.08313076198101044 -0.08897674083709717 0.06662590801715851 118 1 168
-0.06677699834108353 -0.10139180719852448 0.07387930899858475 121 1 168
-0.08803974837064743 -0.13937076926231384 0.09235420823097229 124 2 167
-0.05946112796664238 -0.14477047324180603 0.05415111407637596 121 1 168
-0.05598800629377365 -0.13166868686676025 0.03391777351498604 121 1 168
-0.04051995649933815 -0.10879009962081909 0.033394891768693924 118 1 168
-0.04336922615766525 -0.13236528635025024 0.0457528755068779 114 0 168
-0.07341307401657104 -0.12802788615226746 0.02515503764152527 114 0 168
-0.054106175899505615 -0.15408176183700562 0.01976727321743965 112 0 168
-0.06552713364362717 -0.1831757128238678 0.0099754324182868 114 0 168
-0.028627358376979828 -0.17929038405418396 0.034612007439136505 114 0 168
-0.011487421579658985 -0.161411315202713 0.017919886857271194 111 0 168
-0.04673461243510246 -0.16445402801036835 0.005975542590022087 108 0 168
-0.03511462360620499 -0.17188329994678497 0.02857535146176815 98 0 166
-0.027981992810964584 -0.1329294741153717 0.018272528424859047 87 1 164
-0.0303090438246727 -0.16623935103416443 0.03393953666090965 76 2 161
-0.04221775010228157 -0.1755482703447342 0.04694261774420738 64 3 156
-0.022066211327910423 -0.169308140873909 0.053348246961832047 56 4 153
0.0008240166353061795 -0.17920538783073425 0.036322712898254395 56 4 153
-0.03551855310797691 -0.1914043128490448 0.030374698340892792 52 4 152
-0.012801824137568474 -0.1890747994184494 0.03181514889001846 49 4 150
0.0062468396499753 -0.19860725104808807 0.012830662541091442 51 4 151
-0.05817651003599167 -0.2681146562099457 -0.00708864675834775 58 4 154
0.014050377532839775 -0.23791395127773285 0.009932401590049267 63 3 156
-0.012088139541447163 -0.2233508676290512 0.00046896698768250644 63 3 156
-0.025113526731729507 -0.21887607872486115 -0.0015242433873936534 61 3 155
-0.05591438710689545 -0.2387169599533081 0.016127560287714005 59 3 154
-0.011838793754577637 -0.26567041873931885 0.013589444570243359 59 3 154
0.019496090710163116 -0.262959748506546 0.018730198964476585 58 4 154
0.048156414180994034 -0.25758376717567444 -0.01419925969094038 49 4 150
0.028204595670104027 -0.24092258512973785 -0.02633555233478546 56 4 153
0.04077591374516487 -0.19233445823192596 -0.024515405297279358 59 3 154
0.057783398777246475 -0.19138531386852264 -0.025204703211784363 63 3 156
0.025830110535025597 -0.1938805878162384 0.0314863957464695 61 3 155
0.04429831728339195 -0.23007826507091522 0.0011669064406305552 63 3 156
-0.01348554901778698 -0.23453263938426971 0.005028982181102037 64 3 156
0.023448197171092033 -0.2168399542570114 -0.01843128353357315 58 4 154
0.013704612851142883 -0.2373414933681488 -0.04595847427845001 51 4 151
0.051931969821453094 -0.2560274600982666 -0.05661903694272041 49 4 150
0.048727624118328094 -0.2986455261707306 -0.05418732389807701 51 4 151
0.11863373219966888 -0.3122008740901947 -0.07124926149845123 51 4 151
0.12588605284690857 -0.2991050183773041 -0.10993119329214096 49 4 150
0.1262933313846588 -0.3127939701080322 -0.12873061001300812 51 4 151
0.13797436654567719 -0.29891353845596313 -0.12909448146820068 52 4 152
0.159200057387352 -0.3007209599018097 -0.130234956741333 49 4 150
0.15214450657367706 -0.2864236831665039 -0.1517530083656311 47 4 149
0.14442382752895355 -0.28285741806030273 -0.15110215544700623 45 4 148
0.14119310677051544 -0.2933267056941986 -0.14102864265441895 43 5 148
0.1331629902124405 -0.2842361032962799 -0.1405153125524521 41 5 147
0.13329721987247467 -0.29997023940086365 -0.12028122693300247 37 5 145
0.10615228861570358 -0.3185211420059204 -0.10003145784139633 37 5 145
0.1317894011735916 -0.33618712425231934 -0.09905432164669037 39 5 146
0.10435231029987335 -0.32752954959869385 -0.09882424771785736 51 4 151
0.15389421582221985 -0.276520311832428 -0.1297120749950409 43 5 148
0.12692777812480927 -0.2816348969936371 -0.12473342567682266 41 5 147
0.1639423370361328 -0.29381343722343445 -0.10994507372379303 49 4 150
0.16220180690288544 -0.2812562882900238 -0.12247271835803986 45 4 148
0.1534399390220642 -0.26179176568984985 -0.10761336982250214 37 5 145
0.15673045814037323 -0.2677491009235382 -0.10032740235328674 31 5 142
0.16489531099796295 -0.28859350085258484 -0.08909429609775543 31 5 142
0.17360062897205353 -0.2653942406177521 -0.10428085923194885 33 5 143
0.15230005979537964 -0.2761573791503906 -0.08847053349018097 35 5 144
0.1156540960073471 -0.29558151960372925 -0.0950453132390976 33 5 143
0.13227273523807526 -0.28439056873321533 -0.09149383008480072 35 5 144
0.14368358254432678 -0.2766049802303314 -0.09666858613491058 33 5 143
0.13116423785686493 -0.2901480495929718 -0.1319935917854309 35 5 144
0.13442844152450562 -0.28801146149635315 -0.11373960971832275 33 5 143
0.15110237896442413 -0.2914700508117676 -0.10814020037651062 39 5 146
0.11900564283132553 -0.2941950857639313 -0.1035756766796112 45 4 148
0.10779067873954773 -0.28840172290802 -0.09373701363801956 51 4 151
0.09937689453363419 -0.30384570360183716 -0.09917275607585907 52 4 152
0.11315067857503891 -0.32151123881340027 -0.08004581183195114 49 4 150
0.13543924689292908 -0.32343602180480957 -0.10552272945642471 51 4 151
0.14560958743095398 -0.3298583924770355 -0.08962760120630264 61 3 155
0.14753840863704681 -0.34047868847846985 -0.06690279394388199 31 5 142
0.13094833493232727 -0.344901442527771 -0.07011537253856659 54 4 152
0.13614726066589355 -0.31683844327926636 -0.0744612067937851 52 4 152
0.1408631056547165 -0.2903176248073578 -0.06531507521867752 37 5 145
0.11750052869319916 -0.3099270164966583 -0.0527837872505188 61 3 155
0.11784183233976364 -0.3170652389526367 -0.04595201462507248 66 3 157
0.12059858441352844 -0.31217554211616516 -0.053586095571517944 71 2 159
0.13388937711715698 -0.30238625407218933 -0.043650317937135696 71 2 159
0.13032136857509613 -0.290083646774292 -0.050750359892845154 73 2 159
0.13824963569641113 -0.2936723828315735 -0.055117662996053696 74 2 160
0.13125856220722198 -0.2986113727092743 -0.04204628989100456 86 1 163
0.14451837539672852 -0.2920423746109009 -0.059200920164585114 90 0 165
0.14759965240955353 -0.29661187529563904 -0.05435144901275635 90 0 165
0.1511795073747635 -0.2949105203151703 -0.041570380330085754 90 0 165
0.14536729454994202 -0.29760271310806274 -0.0556284561753273 90 0 165
0.14718759059906006 -0.2946545481681824 -0.06032262742519379 92 0 165
0.1366245150566101 -0.30211618542671204 -0.05985713377594948 95 0 166
0.1506267488002777 -0.2987592816352844 -0.07130420207977295 89 1 164
0.17203548550605774 -0.3026055693626404 -0.06522414088249207 90 0 165
0.1683845818042755 -0.3054233491420746 -0.06892894953489304 90 0 165
0.1843063086271286 -0.30056801438331604 -0.08325884491205215 94 0 165
0.19440823793411255 -0.30093368887901306 -0.07409656792879105 95 0 166
0.18884608149528503 -0.29906827211380005 -0.07328129559755325 106 0 167
0.1755128651857376 -0.308593213558197 -0.0636400356888771 114 0 168
0.16069164872169495 -0.31880226731300354 -0.0659942626953125 112 0 168
0.18719927966594696 -0.31165963411331177 -0.08235576003789902 114 0 168
0.21571962535381317 -0.32137277722358704 -0.08809804916381836 109 0 168
0.1956637054681778 -0.33673903346061707 -0.08789243549108505 106 0 167
0.21229241788387299 -0.32850566506385803 -0.09086578339338303 97 0 166
0.21645690500736237 -0.32487598061561584 -0.08801133185625076 92 0 165
0.21302804350852966 -0.3263181149959564 -0.09325294196605682 78 2 161
0.2120693475008011 -0.31671518087387085 -0.10624918341636658 74 2 160
0.21701015532016754 -0.3179148733615875 -0.09389760345220566 79 2 162
0.22931483387947083 -0.3207113742828369 -0.09480603784322739 78 2 161
0.2212752103805542 -0.32913580536842346 -0.09165771305561066 81 1 162
0.20741580426692963 -0.31983497738838196 -0.10037098824977875 82 1 163
0.23706363141536713 -0.31029319763183594 -0.11121311783790588 79 2 162
0.2226964384317398 -0.3236324191093445 -0.1016487330198288 76 2 161
0.25175079703330994 -0.31598401069641113 -0.11580037325620651 71 2 159
0.23077134788036346 -0.34528595209121704 -0.11114242672920227 74 2 160
0.24050509929656982 -0.34632354974746704 -0.12238448858261108 79 2 162
0.27027902007102966 -0.3205385208129883 -0.14088796079158783 89 1 164
0.2816263437271118 -0.32574838399887085 -0.12382467091083527 94 0 165
0.2728799879550934 -0.35217198729515076 -0.12152837216854095 101 0 167
0.26919397711753845 -0.35443276166915894 -0.1453792005777359 109 0 168
0.26810431480407715 -0.3217335641384125 -0.16504159569740295 120 1 168
0.27813267707824707 -0.33250394463539124 -0.1518840193748474 121 1 168
0.2849311828613281 -0.32099834084510803 -0.16594360768795013 120 1 168
0.2787545323371887 -0.31309565901756287 -0.16946911811828613 115 0 168
0.27370485663414 -0.32735756039619446 -0.14905335009098053 120 1 168
0.2808613181114197 -0.3104378581047058 -0.1491592526435852 130 4 167
0.2553688585758209 -0.32140684127807617 -0.14505206048488617 140 10 164
0.26448753476142883 -0.32903048396110535 -0.1398480385541916 140 10 164
0.26016300916671753 -0.3279106020927429 -0.15867239236831665 139 9 164
0.26197460293769836 -0.2996712327003479 -0.15878766775131226 137 8 165
0.2501937448978424 -0.3237014710903168 -0.15105079114437103 139 9 164
0.23414680361747742 -0.3377222716808319 -0.13636267185211182 140 10 164
0.23390987515449524 -0.34563755989074707 -0.13481716811656952 139 9 164
0.252069354057312 -0.32164713740348816 -0.13917973637580872 137 8 165
0.26214638352394104 -0.31213319301605225 -0.14948299527168274 130 4 167
0.24383710324764252 -0.3120582401752472 -0.15850971639156342 133 6 166
0.27367541193962097 -0.32554394006729126 -0.13429874181747437 139 9 164
0.2453070431947708 -0.3423304855823517 -0.16140173375606537 140 10 164
0.2747094929218292 -0.31400731205940247 -0.18951287865638733 140 10 164
0.3090512156486511 -0.3031300902366638 -0.16805142164230347 136 7 165
0.24809116125106812 -0.34793469309806824 -0.16773132979869843 139 9 164
0.3276895582675934 -0.31662461161613464 -0.15771730244159698 139 9 164
0.31359800696372986 -0.3179399073123932 -0.1728539913892746 136 7 165
0.30529338121414185 -0.3196057081222534 -0.1923561990261078 139 9 164
0.3298979103565216 -0.3046678900718689 -0.1999763548374176 140 10 164
0.34049156308174133 -0.3002609610557556 -0.2024756520986557 139 9 164
0.3518858253955841 -0.2939581573009491 -0.19284012913703918 137 8 165
0.30989885330200195 -0.3103048801422119 -0.23286005854606628 137 8 165
0.32134106755256653 -0.28167757391929626 -0.23180902004241943 137 8 165
0.35615596175193787 -0.2876826524734497 -0.2198919951915741 140 10 164
0.331314355134964 -0.23666192591190338 -0.23331943154335022 142 12 164
0.3540871739387512 -0.2158767580986023 -0.21794679760932922 144 14 163
0.33383023738861084 -0.22811153531074524 -0.19517259299755096 151 19 160
0.30493998527526855 -0.22080545127391815 -0.20008441805839539 160 27 155
0.2741225063800812 -0.14967626333236694 -0.2164234071969986 168 34 150
0.23959527909755707 -0.05193423852324486 -0.215620219707489 177 43 143
0.17798644304275513 -0.0025623429100960493 -0.16894231736660004 187 53 134
0.06319591403007507 0.0968940332531929 -0.1085348054766655 195 62 127
0.03624536469578743 0.16562992334365845 -0.04671637713909149 198 65 124
-0.07028281688690186 0.1996747851371765 -0.007291788700968027 202 70 120
-0.11515415459871292 0.23304350674152374 -0.0183121170848608 209 78 114
-0.09482726454734802 0.20539288222789764 0.000310976873151958 215 87 107
-0.09885586053133011 0.22900381684303284 0.0008131670183502138 220 94 102
-0.11825629323720932 0.2091076523065567 0.021528085693717003 223 98 98
-0.12132822722196579 0.20036689937114716 0.004609015304595232 229 107 92
-0.07210876792669296 0.20258867740631104 -0.0020047123543918133 234 115 86
-0.08145367354154587 0.18677988648414612 -0.02449626289308071 239 125 79
-0.06349986046552658 0.1993752121925354 -0.00521936034783721 243 135 72
-0.07407479733228683 0.19775187969207764 -0.012439639307558537 245 141 69
-0.10523386299610138 0.21181859076023102 0.01315194834023714 244 137 71
-0.11197368800640106 0.23201924562454224 -0.005722146015614271 240 128 77
-0.1085750088095665 0.20662561058998108 0.005510638002306223 236 120 83
-0.12092091143131256 0.1944437474012375 0.004713012371212244 236 120 83
-0.07505303621292114 0.20948101580142975 -0.020689696073532104 239 126 78
-0.09160598367452621 0.19704854488372803 -0.02244930900633335 239 125 79
-0.04422513768076897 0.22184360027313232 -0.0348578579723835 238 124 80
-0.0266372412443161 0.20349708199501038 -0.0316639244556427 238 124 80
-0.04282528534531593 0.18619473278522491 -0.02537137269973755 236 120 83
-0.008939393796026707 0.18958891928195953 -0.030506063252687454 234 115 86
-0.026473717764019966 0.2158995419740677 -0.004435639828443527 232 113 88
-0.011085836216807365 0.1940639168024063 -0.014583396725356579 242 132 75
-0.02328874170780182 0.16660422086715698 -0.02752605825662613 240 129 77
0.033342182636260986 0.1713961958885193 -0.046642303466796875 242 132 75
0.04298756644129753 0.17409296333789825 -0.03888975456357002 241 130 76
0.03448832407593727 0.1705334335565567 -0.03907424584031105 240 128 77
0.031969666481018066 0.15698005259037018 -0.038037389516830444 239 125 79
0.04408036172389984 0.15879683196544647 -0.03386719152331352 241 130 76
0.06347008049488068 0.14462894201278687 -0.050895120948553085 241 130 76
0.057961829006671906 0.15282177925109863 -0.027338381856679916 242 133 74
0.055008068680763245 0.15182583034038544 -0.03328404575586319 242 132 75
0.06703758239746094 0.13777853548526764 -0.02908441796898842 241 130 76
0.0412503220140934 0.12855707108974457 -0.03848987817764282 242 132 75
0.055518172681331635 0.12390876561403275 -0.03584375977516174 239 126 78
0.06952806562185287 0.15983057022094727 -0.03199400752782822 244 137 71
0.07105348259210587 0.16012555360794067 -0.024105334654450417 245 141 69
0.05748305842280388 0.16294391453266144 -0.02181050181388855 246 145 66
0.03790273144841194 0.17656099796295166 -0.021950561553239822 249 154 60
0.06007464975118637 0.20410189032554626 -0.020507067441940308 252 166 53
0.04396498203277588 0.1974061131477356 -0.023006973788142204 253 181 45
0.03728121519088745 0.2062658816576004 -0.019467124715447426 253 188 42
0.06729602068662643 0.20288221538066864 -0.022184763103723526 253 193 40
0.06079131364822388 0.20711901783943176 -0.0040884618647396564 252 199 38
0.03505167365074158 0.1897164285182953 -8.093824135357863e-07 251 208 36
0.011292420327663422 0.18193627893924713 -0.006029454991221428 250 216 36
0.04510181397199631 0.1717613786458969 -0.006567575037479401 248 223 36
-0.000414908368838951 0.17076143622398376 -0.002826473442837596 247 226 37
0.03519842401146889 0.16772377490997314 -0.018056485801935196 248 221 36
-0.017309987917542458 0.14682835340499878 -0.020438237115740776 249 219 36
0.02062457799911499 0.13335759937763214 -0.037279754877090454 249 219 36
0.0155980559065938 0.12442633509635925 -0.039492134004831314 249 219 36
0.03933902084827423 0.12926112115383148 -0.01935642398893833 249 217 36
0.012357832863926888 0.14422890543937683 -0.017209328711032867 249 217 36
0.03464240953326225 0.16818997263908386 -0.014364400878548622 248 221 36
-0.004911194089800119 0.14171285927295685 0.00786522962152958 248 221 36
0.01830451749265194 0.15055622160434723 0.008249188773334026 251 211 36
0.022018443793058395 0.1510627567768097 0.021696092560887337 251 209 36
-0.0005282227066345513 0.16927233338356018 0.009956704452633858 252 201 38
-0.017694691196084023 0.17457960546016693 0.019306661561131477 252 206 37
-0.05604933574795723 0.1164640337228775 0.019325699657201767 252 201 38
-0.03728755563497543 0.12315263599157333 0.014245454221963882 253 195 40
-0.03195242956280708 0.1516345888376236 0.002263049827888608 253 190 41
-0.004080641083419323 0.17311345040798187 0.019178997725248337 253 185 43
-0.024787800386548042 0.17576144635677338 0.04818651080131531 253 181 45
-0.06571531295776367 0.17035409808158875 0.04304210841655731 253 176 48
-0.044325247406959534 0.1780211478471756 0.03158518671989441 253 176 48
-0.04051198437809944 0.20625419914722443 0.026203487068414688 253 176 48
0.03788324445486069 0.19917608797550201 0.032673392444849014 252 170 51
0.0013143818359822035 0.17921704053878784 0.033773571252822876 251 162 56
0.01712772622704506 0.15383286774158478 0.021972207352519035 249 153 61
-0.013060148805379868 0.1821994036436081 0.029751883819699287 247 146 65
-0.006843984127044678 0.2012191265821457 0.03389700502157211 244 137 71
0.021984977647662163 0.18555520474910736 0.07644892483949661 241 130 76
-0.008338560350239277 0.19077511131763458 0.019317904487252235 238 124 80
0.020790275186300278 0.24974378943443298 0.061298590153455734 235 118 84
0.014100993052124977 0.23661726713180542 0.06496629118919373 233 114 87
-0.06020210310816765 0.20465196669101715 0.0988534465432167 231 110 90
-0.0740785300731659 0.2224230319261551 0.10429774224758148 230 109 90
-0.06923525780439377 0.29763633012771606 0.10467476397752762 229 107 92
-0.09346254914999008 0.3087811768054962 0.10737699270248413 226 102 96
-0.0828595906496048 0.33623185753822327 0.10233619809150696 224 100 97
-0.06482542306184769 0.3647180497646332 0.08786087483167648 223 97 99
-0.03777242824435234 0.3379165828227997 0.13589206337928772 220 94 102
-0.1156780794262886 0.2793138921260834 0.09205680340528488 219 91 103
-0.027654729783535004 0.29394811391830444 0.04734858125448227 219 91 103
-0.08074994385242462 0.23998843133449554 0.04815239459276199 217 89 105
0.015900610014796257 0.23603761196136475 0.02312406711280346 216 88 106
0.005140402354300022 0.2488386183977127 -0.011795726604759693 215 87 107
0.07797998934984207 0.2528992295265198 -0.021363163366913795 213 83 109
0.0426764152944088 0.21641689538955688 0.0007198075763881207 212 82 110
0.013064110651612282 0.20550747215747833 -0.03133262321352959 210 80 112
0.03295351192355156 0.1579732745885849 -0.029521459713578224 209 79 113
0.056216754019260406 0.1834786981344223 -0.05643390119075775 209 78 114
0.09057833254337311 0.17684400081634521 -0.06398434937000275 206 74 117
0.04652203992009163 0.1139971911907196 -0.08612766861915588 202 70 120
0.14901407063007355 0.18862266838550568 -0.10155711323022842 199 66 123
0.17128542065620422 0.1169576346874237 -0.06844427436590195 195 62 127
0.04525518789887428 0.09993992000818253 -0.11809805035591125 194 61 128
0.20322604477405548 0.11242976039648056 -0.1172809898853302 193 60 128
0.05368367210030556 0.04917879030108452 -0.14557231962680817 194 61 128
0.2031618356704712 0.1225905567407608 -0.17235597968101501 194 61 128
0.16187924146652222 0.08327564597129822 -0.1863342821598053 195 62 127
0.1481035053730011 0.10491359978914261 -0.24659229815006256 199 66 123
0.29214248061180115 0.11681971698999405 -0.24178633093833923 208 77 115
0.29715821146965027 0.06096236780285835 -0.2243228554725647 218 90 104
0.17602722346782684 0.10182803869247437 -0.2909928560256958 223 98 98
0.2579091489315033 0.12029262632131577 -0.20980852842330933 225 101 96
0.20223160088062286 0.03546614572405815 -0.22505293786525726 227 103 95
0.23952020704746246 0.18394295871257782 -0.19797390699386597 229 108 91
0.17114000022411346 0.1771383136510849 -0.19839999079704285 227 104 94
0.1149667277932167 0.19777172803878784 -0.1422441303730011 227 104 94
0.1618451178073883 0.2197898030281067 -0.1285092979669571 230 109 90
0.14511285722255707 0.20314255356788635 -0.1422787606716156 229 108 91
0.10383476316928864 0.22732217609882355 -0.053249578922986984 223 98 98
0.10526181757450104 0.25427624583244324 -0.02362227626144886 224 100 97
-0.0389963760972023 0.12684714794158936 -0.09816410392522812 227 103 95
0.0386689193546772 0.18636423349380493 -0.06984936445951462 232 112 89
0.05106402188539505 0.12821240723133087 -0.07876746356487274 231 110 90
0.06800839304924011 0.19436033070087433 -0.0752498060464859 227 103 95
-0.015170341357588768 0.1559913158416748 -0.051597077399492264 224 100 97
-0.019196586683392525 0.17850999534130096 -0.05881897732615471 223 97 99
-0.009236333891749382 0.18208129703998566 -0.10600688308477402 223 98 98
0.08978753536939621 0.22253300249576569 -0.083877332508564 221 95 101
0.01954774186015129 0.14721885323524475 -0.07046251744031906 216 88 106
0.11086010187864304 0.13601930439472198 -0.15083862841129303 212 82 110
0.1987377256155014 0.12271632254123688 -0.1576610803604126 206 74 117
0.21272005140781403 0.038422707468271255 -0.1435069739818573 203 71 119
0.16319552063941956 -0.037233516573905945 -0.13758675754070282 199 66 123
0.14924383163452148 -0.13531358540058136 -0.1649496853351593 194 61 128
0.18941442668437958 -0.05121302604675293 -0.1264023780822754 195 62 127
0.19184930622577667 -0.084123894572258 -0.11964502185583115 198 65 124
0.14073783159255981 -0.09613847732543945 -0.12041596323251724 192 59 129
0.1673772782087326 -0.05392498895525932 -0.0910501480102539 203 71 119
0.09869207441806793 -0.06735868752002716 -0.10299503058195114 215 86 108
0.11784504354000092 -0.06463725119829178 -0.07003625482320786 218 90 104
0.0936451256275177 -0.05151679366827011 -0.05282985791563988 220 94 102
0.08636005967855453 -0.045532096177339554 -0.0828981101512909 220 93 102
0.0052137854509055614 -0.06488935649394989 -0.05073455721139908 220 94 102
0.03919646143913269 -0.025837179273366928 -0.05635087192058563 220 93 102
-0.019184038043022156 -0.004877657163888216 -0.04609455540776253 222 96 100
-0.04603220149874687 0.037331368774175644 -0.009334282018244267 221 95 101
-0.014111432246863842 0.024235187098383904 -0.011370044201612473 223 98 98
-0.07019983232021332 0.036747127771377563 -0.017471516504883766 223 97 99
-0.04074283689260483 0.0668206512928009 0.03044176660478115 223 97 99
-0.06115850433707237 0.0461914949119091 0.04860110953450203 219 91 103
-0.0889892429113388 0.029317760840058327 0.04519161209464073 220 94 102
-0.14927491545677185 0.02290247194468975 0.03633613511919975 213 83 109
-0.13321270048618317 0.04993482679128647 0.10106628388166428 215 87 107
-0.28523319959640503 -0.0008934608194977045 0.0920783281326294 210 80 112
-0.133026123046875 0.07623683661222458 0.0748218297958374 212 82 110
-0.1735750436782837 0.06715404242277145 0.10406271368265152 212 82 110
-0.14552021026611328 0.06084825471043587 0.12210545688867569 209 79 113
-0.08533307909965515 0.07211294770240784 0.12668132781982422 205 73 117
-0.1122991293668747 0.07969945669174194 0.12840276956558228 197 64 125
-0.1555950939655304 0.06770157814025879 0.10702142119407654 192 59 129
-0.08581646531820297 0.07215990126132965 0.10992053896188736 192 59 129
-0.11732377111911774 0.05498235672712326 0.11717955023050308 193 60 128
-0.0939696654677391 0.07379070669412613 0.10349602997303009 192 59 129
-0.09027542173862457 0.07354209572076797 0.06714138388633728 194 61 128
-0.09551482647657394 0.08574389666318893 0.0744234025478363 202 70 120
-0.06124390289187431 0.06337165832519531 0.09718166291713715 203 71 119
-0.06505140662193298 0.054759010672569275 0.08254323154687881 220 93 102
-0.09229912608861923 0.031878210604190826 0.06895995140075684 209 78 114
-0.09576234221458435 0.023020852357149124 0.08151739090681076 202 70 120
-0.15611876547336578 -0.025843068957328796 0.06467878818511963 202 70 120
-0.11340197920799255 0.04125037044286728 0.08977975696325302 200 68 122
-0.03012993559241295 0.019071878865361214 0.12522508203983307 199 66 123
-0.051468316465616226 0.02162131853401661 0.09907456487417221 198 65 124
-0.005805532447993755 0.0065823448821902275 0.10554952174425125 197 64 125
0.048410117626190186 0.003393167397007346 0.08893954008817673 203 71 119
0.039383817464113235 -0.03700341656804085 0.06537578254938126 206 74 117
0.014872598461806774 -0.07090479880571365 0.10387147963047028 208 77 115
0.025217963382601738 -0.10568154603242874 0.08712600916624069 213 83 109
0.019565677270293236 -0.10096342861652374 0.07328489422798157 213 83 109
0.028890281915664673 -0.12938369810581207 0.05182815343141556 206 74 117
0.07949889451265335 -0.16192983090877533 0.06754116714000702 205 73 117
0.04357658699154854 -0.18605855107307434 0.02531519904732704 207 75 116
0.12869714200496674 -0.17742611467838287 0.026368245482444763 202 70 120
0.06655565649271011 -0.15558306872844696 0.029581770300865173 204 72 118
0.0988190695643425 -0.14660422503948212 0.028514083474874496 205 73 117
0.09264793992042542 -0.1114569902420044 0.039310261607170105 208 77 115
0.09682739526033401 -0.14696724712848663 0.05764761567115784 209 79 113
0.06937926262617111 -0.16521456837654114 0.0627836361527443 209 78 114
0.09183461964130402 -0.15912571549415588 0.056068141013383865 209 79 113
0.07953637093305588 -0.15445132553577423 0.06839992105960846 207 75 116
0.11630507558584213 -0.15305276215076447 0.06601223349571228 206 74 117
0.12170334905385971 -0.17319567501544952 0.05761902406811714 208 77 115
0.12334757298231125 -0.15790440142154694 0.04071490466594696 206 74 117
0.12723350524902344 -0.15534986555576324 0.03192191198468208 202 70 120
0.13127322494983673 -0.16660338640213013 0.045605193823575974 195 62 127
0.1265421360731125 -0.1361507624387741 0.04589696228504181 194 61 128
0.08425340801477432 -0.13111376762390137 0.0714726373553276 194 61 128
0.08321190625429153 -0.11960189044475555 0.07695640623569489 197 64 125
0.06018940731883049 -0.0900287851691246 0.06162334978580475 197 64 125
0.07590087503194809 -0.10010100901126862 0.07227454334497452 199 66 123
0.035278547555208206 -0.11048540472984314 0.05827593803405762 205 73 117
0.06723758578300476 -0.10555577278137207 0.039005111902952194 206 74 117
0.04674779251217842 -0.13235700130462646 0.05927776172757149 211 81 111
0.045482225716114044 -0.13488666713237762 0.04368814453482628 213 83 109
0.06415151059627533 -0.12557704746723175 0.02748209610581398 216 88 106
0.09127804636955261 -0.1569177359342575 0.004662679508328438 219 91 103
0.08410241454839706 -0.13414515554904938 -0.006383002270013094 220 94 102
0.12243063002824783 -0.10698521137237549 -0.0018279242794960737 222 96 100
0.13150422275066376 -0.10981761664152145 0.0008980658021755517 225 101 96
0.10434575378894806 -0.1561891883611679 0.02380073070526123 227 104 94
0.234061136841774 -0.11432624608278275 0.024645287543535233 229 108 91
0.21916645765304565 -0.09346698224544525 0.07140384614467621 229 107 92
0.176634281873703 -0.09889557212591171 0.06984741985797882 229 107 92
0.24389682710170746 -0.12638802826404572 0.052373163402080536 229 107 92
0.19362756609916687 -0.1106000766158104 0.06941806524991989 227 104 94
0.3183629512786865 -0.10120560228824615 0.08322712033987045 227 103 95
0.1934697926044464 -0.05896856635808945 0.01806223765015602 226 102 96
0.2835729122161865 -0.11440327018499374 0.02954050712287426 226 102 96
0.22995625436306 -0.165447399020195 0.00192751653958112 228 106 93
0.30629920959472656 -0.11731622368097305 -0.027687301859259605 231 110 90
0.26126959919929504 -0.21544328331947327 -0.045036301016807556 232 113 88
0.2576170563697815 -0.24143123626708984 -0.07405927777290344 232 113 88
0.3469034731388092 -0.23348432779312134 -0.0892360582947731 232 112 89
0.33830034732818604 -0.20256724953651428 -0.13383443653583527 234 115 86
0.3444954454898834 -0.22802694141864777 -0.1389210969209671 235 118 84
0.36059918999671936 -0.21668483316898346 -0.13002122938632965 235 118 84
0.31882283091545105 -0.21496306359767914 -0.12713807821273804 233 114 87
0.30972790718078613 -0.18196271359920502 -0.1373394876718521 233 114 87
0.32942482829093933 -0.13448701798915863 -0.08765333145856857 234 115 86
0.286103218793869 -0.16843102872371674 -0.07095123082399368 234 116 85
0.24204179644584656 -0.16472074389457703 -0.09108296781778336 235 118 84
0.24591484665870667 -0.13292253017425537 -0.07550717145204544 236 119 84
0.21659454703330994 -0.14584025740623474 -0.056198228150606155 236 120 83
0.20300042629241943 -0.11689770221710205 -0.052305568009614944 236 120 83
0.1453201025724411 -0.1257854849100113 -0.03654126077890396 234 116 85
0.14884991943836212 -0.10562456399202347 -0.03620227053761482 232 112 89
0.14338360726833344 -0.09933473914861679 -0.026744987815618515 227 103 95
0.11056198924779892 -0.07501950114965439 -0.0176570862531662 224 100 97
0.12001920491456985 -0.05475303530693054 -0.025272179394960403 227 103 95
0.08691881597042084 -0.05105720832943916 -0.024856936186552048 227 104 94
0.0718788132071495 -0.06118141487240791 -0.024584384635090828 212 82 110
0.06950289011001587 -0.06400579959154129 -0.03330330550670624 199 66 123
0.12400020658969879 -0.06734955310821533 -0.04976236820220947 189 55 132
0.10709602385759354 -0.06714298576116562 -0.03666428104043007 178 44 142
0.1060030460357666 -0.03314419463276863 -0.06020602583885193 172 37 147
0.15415288507938385 -0.033984433859586716 -0.04073502868413925 167 33 151
0.09660714864730835 -0.03735140338540077 -0.032453231513500214 158 25 156
0.10241823643445969 -0.01723449118435383 -0.03610493987798691 150 18 160
0.11188695579767227 -0.009649286977946758 -0.041746873408555984 139 9 164
0.12151754647493362 -0.060869600623846054 -0.011599180288612843 126 3 167
0.05444088578224182 -0.07097349315881729 -0.06568094342947006 112 0 168
0.1422894299030304 -0.0403817780315876 -0.07554198801517487 98 0 166
0.1549457311630249 -0.04692617431282997 -0.06604482978582382 84 1 163
0.15550446510314941 -0.04094753414392471 -0.08204738795757294 73 2 159
0.1644265055656433 -0.045326147228479385 -0.08166870474815369 76 2 161
0.13427957892417908 -0.06024564802646637 -0.06779385358095169 79 2 162
0.09770826995372772 -0.07966567575931549 -0.08857487142086029 79 2 162
0.1137852668762207 -0.006732180714607239 -0.08702864497900009 69 3 158
0.14784494042396545 -0.036746516823768616 -0.04579300060868263 73 2 159
0.0112579595297575 -0.09827996045351028 -0.056459199637174606 74 2 160
0.10435894876718521 -0.014994476921856403 -0.06578858941793442 74 2 160
0.1139335185289383 0.04855844005942345 -0.042005907744169235 76 2 161
0.11787565052509308 0.07666398584842682 -0.016761204227805138 74 2 160
0.12290822714567184 0.05702456831932068 0.0896681547164917 92 0 165
0.07112797349691391 0.04076484218239784 0.0003697415522765368 89 1 164
0.048828475177288055 -0.006127933040261269 0.03216959536075592 98 0 166
0.15019410848617554 0.023761535063385963 0.027261968702077866 103 0 167
0.17378020286560059 -0.05349082499742508 0.08198888599872589 111 0 168
0.048943568021059036 -0.06789530813694 0.02461753785610199 124 2 167
0.07212190330028534 0.008613874204456806 0.005147805903106928 133 6 166
0.06722450256347656 -0.0870915949344635 0.0448506698012352 136 7 165
0.045208752155303955 -0.10673393309116364 -0.019617276266217232 133 6 166
0.1443459540605545 -0.10068561136722565 -0.042067915201187134 136 7 165
0.092562735080719 -0.1851210743188858 -0.025321636348962784 139 9 164
0.1106492355465889 -0.22992642223834991 -0.01812373474240303 140 10 164
0.08529159426689148 -0.24844352900981903 -0.006309575401246548 140 10 164
0.01734982803463936 -0.3208294212818146 -0.03368263319134712 137 8 165
0.03206893056631088 -0.3086583614349365 -0.023719608783721924 143 13 163
0.13975019752979279 -0.2582916021347046 -0.03926713392138481 142 12 164
0.18214672803878784 -0.15627901256084442 -0.07529019564390182 146 15 162
0.10014721006155014 -0.19231660664081573 -0.0703691616654396 143 13 163
0.14467696845531464 -0.15562820434570312 -0.04953177273273468 149 17 161
0.10798774659633636 -0.044367969036102295 -0.03129754960536957 151 19 160
0.05256941169500351 -0.11226766556501389 -0.03825369104743004 151 19 160
0.08616399765014648 -0.13214083015918732 0.004282988142222166 151 19 160
0.05987942963838577 -0.15794731676578522 -0.0008322399226017296 150 18 160
0.10687627643346786 -0.1481366753578186 -0.017487620934844017 151 19 160
0.061578817665576935 -0.21144632995128632 -0.040006205439567566 155 23 158
0.06935179233551025 -0.20327599346637726 0.05357695370912552 157 24 157
0.09890048950910568 -0.1783876121044159 0.011793444864451885 151 19 160
0.04150799661874771 -0.13972976803779602 -0.00837212335318327 146 15 162
0.05324922502040863 -0.14401867985725403 -0.02524235099554062 127 3 167
0.11060962826013565 -0.11129981279373169 -0.035581305623054504 123 2 168
0.10541979223489761 -0.1345231533050537 -0.030078314244747162 120 1 168
0.07928620278835297 -0.13698622584342957 0.007703861221671104 126 3 167
0.008940997533500195 -0.15699756145477295 0.008888238109648228 142 12 164
0.018511194735765457 -0.1766766458749771 -0.021647589281201363 126 3 167
0.03743573650717735 -0.16463857889175415 -0.04999928921461105 124 2 167
0.06775887310504913 -0.20594142377376556 -0.03428157791495323 126 3 167
0.06889355182647705 -0.22884246706962585 -0.06630054861307144 126 3 167
0.10348615050315857 -0.15299001336097717 -0.09139895439147949 115 0 168
0.1217658743262291 -0.11950951814651489 -0.08993808925151825 104 0 167
0.1137826219201088 -0.16655276715755463 -0.08531075716018677 101 0 167
0.10664167255163193 -0.1832553595304489 -0.08661952614784241 97 0 166
0.07679931074380875 -0.2152663916349411 -0.0802617222070694 89 1 164
0.1446702927350998 -0.16347023844718933 -0.10182572901248932 84 1 163
0.10855108499526978 -0.192684605717659 -0.09550539404153824 73 2 159
0.12457427382469177 -0.1835743486881256 -0.08969700336456299 64 3 156
0.10584850609302521 -0.16994929313659668 -0.09445802122354507 61 3 155
0.06479445844888687 -0.19797836244106293 -0.11891597509384155 61 3 155
0.1488860696554184 -0.15548475086688995 -0.12027017772197723 64 3 156
0.02729390747845173 -0.1874110847711563 -0.16521970927715302 66 3 157
0.15677113831043243 -0.11235692352056503 -0.21749217808246613 63 3 156
0.13183128833770752 -0.11254730820655823 -0.1747892200946808 59 3 154
0.13086523115634918 -0.13022755086421967 -0.16918863356113434 56 4 153
0.12672914564609528 -0.16898976266384125 -0.19185084104537964 59 3 154
0.14781850576400757 -0.2842840850353241 -0.1740626096725464 63 3 156
0.12285098433494568 -0.32269853353500366 -0.21910302340984344 64 3 156
0.20746564865112305 -0.30244535207748413 -0.26581522822380066 66 3 157
0.2184048444032669 -0.2849038243293762 -0.2685421407222748 74 2 160
0.17806388437747955 -0.3329794704914093 -0.27321451902389526 79 2 162
0.2852294445037842 -0.3242437541484833 -0.26123103499412537 82 1 163
0.21691952645778656 -0.286222904920578 -0.27723002433776855 79 2 162
0.2479662299156189 -0.2860073447227478 -0.2537234127521515 73 2 159
0.2866963744163513 -0.3007566034793854 -0.2607143819332123 68 3 158
0.26365867257118225 -0.25438767671585083 -0.2753794491291046 68 3 158
0.2594752907752991 -0.25651711225509644 -0.26904335618019104 69 3 158
0.23044784367084503 -0.30456194281578064 -0.24645867943763733 73 2 159
0.24658063054084778 -0.31967970728874207 -0.2720438241958618 73 2 159
0.257220596075058 -0.2733282148838043 -0.26379498839378357 68 3 158
0.27609261870384216 -0.26796627044677734 -0.271343469619751 64 3 156
0.2790147066116333 -0.24989892542362213 -0.2971106767654419 58 4 154
0.2718799412250519 -0.2623952031135559 -0.29565271735191345 56 4 153
0.28930410742759705 -0.24284648895263672 -0.28268173336982727 56 4 153
0.3048400282859802 -0.23568874597549438 -0.28820404410362244 59 3 154
0.30959317088127136 -0.2645423114299774 -0.2893967628479004 59 3 154
0.24174997210502625 -0.23795665800571442 -0.2935780882835388 66 3 157
0.31005892157554626 -0.2023339569568634 -0.28728026151657104 69 3 158
0.23407693207263947 -0.27107149362564087 -0.25925806164741516 73 2 159
0.22630959749221802 -0.3166361451148987 -0.24471117556095123 74 2 160
0.2286890149116516 -0.31128400564193726 -0.24175585806369781 71 2 159
0.24833793938159943 -0.2668772339820862 -0.2802062928676605 69 3 158
0.26877063512802124 -0.23395533859729767 -0.27164724469184875 71 2 159
0.26263558864593506 -0.2510594129562378 -0.2687305510044098 73 2 159
0.2636365592479706 -0.23607607185840607 -0.28792715072631836 78 2 161
0.25769639015197754 -0.26676443219184875 -0.2950975000858307 74 2 160
0.2632588744163513 -0.27907466888427734 -0.29395002126693726 69 3 158
0.26582762598991394 -0.2689334452152252 -0.3017961382865906 68 3 158
0.27644622325897217 -0.22661784291267395 -0.32722193002700806 71 2 159
0.2804141342639923 -0.2569827735424042 -0.34006181359291077 79 2 162
0.2806461453437805 -0.265061616897583 -0.3035101294517517 84 1 163
0.24959640204906464 -0.2702935039997101 -0.31564861536026 82 1 163
0.28302285075187683 -0.25155505537986755 -0.30885225534439087 84 1 163
0.2830581068992615 -0.2685340642929077 -0.30672696232795715 82 1 163
0.2852555215358734 -0.29695266485214233 -0.29999223351478577 86 1 163
0.26948919892311096 -0.3080488443374634 -0.26991337537765503 79 2 162
0.24490715563297272 -0.3260025978088379 -0.22815993428230286 76 2 161
0.2500492036342621 -0.31656476855278015 -0.23176246881484985 73 2 159
0.2651676833629608 -0.27975955605506897 -0.2465101182460785 69 3 158
0.22811225056648254 -0.3099575340747833 -0.2882966697216034 59 3 154
0.23658370971679688 -0.28781944513320923 -0.27070584893226624 68 3 158
0.25425779819488525 -0.3017136752605438 -0.24710334837436676 69 3 158
0.20317579805850983 -0.30602625012397766 -0.23978891968727112 66 3 157
0.23851712048053741 -0.31789258122444153 -0.22390928864479065 64 3 156
0.23712991178035736 -0.30581048130989075 -0.2229233682155609 58 4 154
0.21878039836883545 -0.3139113783836365 -0.23265577852725983 61 3 155
0.2235645353794098 -0.2788379192352295 -0.2370525747537613 63 3 156
0.19549085199832916 -0.31597214937210083 -0.23516975343227386 66 3 157
0.2362203449010849 -0.275485634803772 -0.24731583893299103 59 3 154
0.21054168045520782 -0.22409425675868988 -0.2507399022579193 59 3 154
0.16169288754463196 -0.2459239363670349 -0.24022836983203888 58 4 154
0.15659630298614502 -0.2437804788351059 -0.2773485779762268 51 4 151
0.13676147162914276 -0.2132880985736847 -0.2811061143875122 49 4 150
0.17423611879348755 -0.2059822976589203 -0.29659703373908997 49 4 150
0.14171966910362244 -0.21606813371181488 -0.31631937623023987 49 4 150
0.12306699901819229 -0.17305301129817963 -0.3289543688297272 45 4 148
0.17434543371200562 -0.13224387168884277 -0.3517596125602722 45 4 148
0.05941636487841606 -0.24196821451187134 -0.31231391429901123 39 5 146
0.1112794578075409 -0.28335991501808167 -0.2964104413986206 35 5 144
0.07921142131090164 -0.2352508008480072 -0.3380647599697113 35 5 144
0.17660009860992432 -0.15446357429027557 -0.3590752184391022 39 5 146
0.16850510239601135 -0.2399795651435852 -0.2933180630207062 37 5 145
0.15756262838840485 -0.1592869758605957 -0.31362760066986084 37 5 145
0.15993885695934296 -0.14972573518753052 -0.27270662784576416 37 5 145
0.1310090869665146 -0.16305360198020935 -0.2471863329410553 37 5 145
0.13918446004390717 -0.21966932713985443 -0.25354984402656555 35 5 144
0.13384650647640228 -0.20582805573940277 -0.23969842493534088 31 5 142
0.11958178132772446 -0.22007711231708527 -0.20662400126457214 29 6 141
0.14583294093608856 -0.22038814425468445 -0.21568603813648224 31 5 142
0.14182034134864807 -0.18935154378414154 -0.22277024388313293 33 5 143
0.17371110618114471 -0.20283137261867523 -0.22390033304691315 39 5 146
0.1671980768442154 -0.20618882775306702 -0.21337096393108368 43 5 148
0.1420762687921524 -0.16651205718517303 -0.22974367439746857 49 4 150
0.14570030570030212 -0.1490122228860855 -0.2304907739162445 51 4 151
0.11956802755594254 -0.14337094128131866 -0.221208855509758 49 4 150
0.16989876329898834 -0.16277456283569336 -0.20798824727535248 51 4 151
0.13251060247421265 -0.16036729514598846 -0.20582681894302368 61 3 155
0.1589311808347702 -0.1549055576324463 -0.20565266907215118 66 3 157
0.11459613591432571 -0.1882936805486679 -0.19001850485801697 73 2 159
0.17454807460308075 -0.22350531816482544 -0.19559234380722046 78 2 161
0.16650831699371338 -0.2053290605545044 -0.21263840794563293 82 1 163
0.1579119712114334 -0.17375007271766663 -0.19279144704341888 90 0 165
0.16034536063671112 -0.18860164284706116 -0.2130323052406311 92 0 165
0.15623924136161804 -0.19499371945858002 -0.20325683057308197 92 0 165
