ply
format ascii 1.0
element vertex 693
property float x
property float y
property float z
property uchar red
property uchar green
property uchar blue
end_header
-0.05136328935623169 0.025436704978346825 0.1213381364941597 0 0 255
-0.045702677220106125 -0.044056110084056854 0.14880138635635376 0 0 255
-0.08802653104066849 -0.09109187126159668 0.120132215321064 0 0 255
-0.12310335785150528 -0.058257993310689926 0.07874972373247147 0 0 255
-0.167441725730896 -0.050792329013347626 0.04509306326508522 0 0 255
-0.18929484486579895 -0.0913325697183609 -0.003359530121088028 0 0 255
-0.1838199496269226 -0.05349431559443474 -0.035907067358493805 0 0 255
-0.22181369364261627 -0.09311240911483765 -0.07109976559877396 0 0 255
-0.23408156633377075 -0.08323489129543304 -0.06229117512702942 0 0 255
-0.2397085428237915 -0.07211306691169739 -0.06287100166082382 0 0 255
-0.29136019945144653 -0.11285318434238434 -0.05080558359622955 0 0 255
-0.29223793745040894 -0.09380953758955002 -0.051894403994083405 0 0 255
-0.2595701515674591 -0.059073448181152344 -0.03643696755170822 0 0 255
-0.21978481113910675 0.010980146005749702 0.07702621072530746 0 0 255
-0.19855894148349762 0.04589026793837547 0.16411574184894562 0 0 255
-0.2278938740491867 0.030296698212623596 0.2267591506242752 0 0 255
-0.21613383293151855 0.06375247985124588 0.20668815076351166 0 0 255
-0.23696769773960114 0.017884613946080208 0.13996101915836334 0 0 255
-0.27189919352531433 -0.0044839526526629925 0.11664875596761703 0 0 255
-0.3047557473182678 0.02489352412521839 0.10456666350364685 0 0 255
-0.3079083263874054 0.13026173412799835 0.12436084449291229 0 0 255
-0.2479206770658493 0.0736638754606247 0.16411402821540833 0 0 255
-0.17432332038879395 0.03355877473950386 0.16677981615066528 0 0 255
-0.26077786087989807 -0.02945665642619133 0.15620842576026917 0 0 255
-0.2258395403623581 0.00040525567601434886 0.12812715768814087 0 0 255
-0.09914243221282959 0.12321550399065018 0.25847238302230835 0 0 255
0.0169700738042593 0.19901305437088013 0.3724480867385864 0 0 255
0.09602691233158112 0.23756593465805054 0.42943432927131653 0 0 255
0.1876198798418045 0.153516486287117 0.3834676146507263 0 0 255
0.1419147551059723 0.09735023975372314 0.36253806948661804 0 0 255
0.030511757358908653 0.08648205548524857 0.3528079390525818 0 0 255
-0.07122499495744705 0.07653558254241943 0.27643996477127075 0 0 255
-0.16945743560791016 -0.027526849880814552 0.22035931050777435 0 0 255
-0.037424635142087936 0.07070892304182053 0.2727786898612976 0 0 255
-0.08077763020992279 0.09015333652496338 0.3539752662181854 0 0 255
0.04460574686527252 0.12072823941707611 0.2935793101787567 0 0 255
0.037646468728780746 0.07341525703668594 0.33292505145072937 0 0 255
-0.002147004008293152 0.03831300884485245 0.2679302394390106 0 0 255
-0.0953170508146286 0.12314449995756149 0.271144300699234 0 0 255
-0.10951433330774307 0.18665464222431183 0.24415354430675507 0 0 255
-0.06375793367624283 0.10291166603565216 0.2116747498512268 0 0 255
-0.11983995884656906 0.1568494439125061 0.22849948704242706 0 0 255
-0.17796295881271362 0.15543121099472046 0.21152590215206146 0 0 255
-0.15753574669361115 0.09898370504379272 0.17830686271190643 0 0 255
-0.16516922414302826 0.16537564992904663 0.1392090618610382 0 0 255
-0.1264873892068863 0.1327345371246338 0.17208804190158844 0 0 255
-0.15900133550167084 0.10044858604669571 0.24074511229991913 0 0 255
-0.19849082827568054 0.05527327582240105 0.2725640833377838 0 0 255
-0.1316036880016327 0.10618831217288971 0.3068537414073944 0 0 255
-0.09828315675258636 0.1012037917971611 0.39504992961883545 0 0 255
-0.02128800004720688 0.1519842892885208 0.44068169593811035 0 0 255
0.10241352766752243 0.15850915014743805 0.48994213342666626 0 0 255
0.1618608981370926 0.1843584030866623 0.4866659641265869 0 0 255
0.19170811772346497 0.18243803083896637 0.43659543991088867 0 0 255
0.15161289274692535 0.13698479533195496 0.32024314999580383 0 0 255
0.08786281943321228 0.11349622905254364 0.2650972008705139 0 0 255
0.033550962805747986 0.11464168131351471 0.26048898696899414 0 0 255
0.007968394085764885 0.08250720053911209 0.2849339246749878 0 0 255
0.06243520602583885 0.03726274147629738 0.2552765905857086 0 0 255
0.008551590144634247 -0.014133334159851074 0.2358548492193222 0 0 255
-0.0695941299200058 -0.00474243750795722 0.1940172165632248 0 0 255
-0.09607767313718796 0.05979340896010399 0.19698643684387207 0 0 255
-0.11334625631570816 0.08632239699363708 0.18889456987380981 0 0 255
-0.07294655591249466 0.08101944625377655 0.24693438410758972 0 0 255
-0.07310578972101212 0.12430442869663239 0.2654483914375305 0 0 255
-0.08207682520151138 0.16311833262443542 0.2539491355419159 0 0 255
-0.0647713840007782 0.08280108869075775 0.17798496782779694 0 0 255
-0.10205893218517303 0.0025193952023983 0.16716268658638 0 0 255
-0.12152944505214691 0.03526097163558006 0.1915094405412674 0 0 255
-0.12432821094989777 0.09407845139503479 0.24915075302124023 0 0 255
-0.11602580547332764 0.13234466314315796 0.26500847935676575 0 0 255
-0.1097603589296341 0.19673827290534973 0.2911149859428406 0 0 255
0.03518817573785782 0.286910742521286 0.3126967251300812 0 0 255
0.3735675811767578 0.3821144104003906 0.20592647790908813 0 0 255
0.2983628213405609 0.36468952894210815 0.1958325207233429 0 0 255
0.2827405035495758 0.2981010973453522 0.15105397999286652 0 0 255
0.29036447405815125 0.17276254296302795 0.1950720101594925 0 0 255
0.261924684047699 0.14351718127727509 0.17084628343582153 0 0 255
0.2767341434955597 0.2056684046983719 0.15507487952709198 0 0 255
0.3122778832912445 0.23544107377529144 0.14553424715995789 0 0 255
0.3322001099586487 0.23902997374534607 0.13426049053668976 0 0 255
0.25702524185180664 0.18057526648044586 0.13978314399719238 0 0 255
0.22836089134216309 0.24983814358711243 0.11725512892007828 0 0 255
0.2507486939430237 0.2725759744644165 0.120719775557518 0 0 255
0.27352550625801086 0.2741542160511017 0.1514032632112503 0 0 255
0.22574669122695923 0.32264479994773865 0.07469382137060165 0 0 255
0.21124950051307678 0.24031305313110352 0.0839039757847786 0 0 255
0.23223954439163208 0.3820895254611969 0.17839206755161285 0 0 255
0.3590465486049652 0.4582935869693756 0.2656036615371704 0 0 255
0.3596397042274475 0.3988973796367645 0.3400338888168335 0 0 255
0.35259366035461426 0.30232739448547363 0.4449951648712158 0 0 255
0.4119332730770111 0.35593143105506897 0.4062267541885376 0 0 255
0.462101012468338 0.37336426973342896 0.4690955877304077 0 0 255
0.5098145008087158 0.1514824479818344 0.5603477358818054 0 0 255
0.45872074365615845 -0.13090047240257263 0.4773535132408142 0 0 255
0.26835569739341736 -0.07369015365839005 0.4371556341648102 0 0 255
0.30810731649398804 0.10193833708763123 0.42795395851135254 0 0 255
0.33287790417671204 0.19897037744522095 0.35493385791778564 0 0 255
0.3965940773487091 0.16172252595424652 0.3146454989910126 0 0 255
0.3751782476902008 0.12694503366947174 0.2908439040184021 0 0 255
0.346520334482193 0.20194533467292786 0.2726951241493225 0 0 255
0.2606051564216614 0.21105767786502838 0.19509468972682953 0 0 255
0.23605763912200928 0.11241216212511063 0.2212296724319458 0 0 255
0.2523123025894165 0.0036393660120666027 0.2374008148908615 0 0 255
0.235245481133461 -0.0571882538497448 0.2347741425037384 0 0 255
0.21070519089698792 -0.08310683816671371 0.22411225736141205 0 0 255
0.16022269427776337 -0.12033761292695999 0.21765205264091492 0 0 255
0.1657886952161789 -0.11444725841283798 0.24682745337486267 0 0 255
0.15942582488059998 -0.04235159605741501 0.26282915472984314 0 0 255
0.1755094826221466 -0.07465771585702896 0.24577972292900085 0 0 255
0.06467237323522568 -0.08154482394456863 0.2368077039718628 0 0 255
-0.06495174765586853 -0.09226024150848389 0.13147304952144623 0 0 255
-0.12386737018823624 -0.2020116150379181 -0.0038008687552064657 0 0 255
-0.1663205623626709 -0.21725496649742126 -0.047399699687957764 0 0 255
-0.19763441383838654 -0.1305854320526123 -0.07242415845394135 0 0 255
-0.22081607580184937 -0.10927211493253708 -0.11532071232795715 0 0 255
-0.23692969977855682 -0.08522433042526245 -0.1207520067691803 0 0 255
-0.2545546889305115 -0.07826147228479385 -0.14101643860340118 0 0 255
-0.2902229428291321 -0.03341618552803993 -0.16272376477718353 0 0 255
-0.3038112223148346 -0.0039459578692913055 -0.20390023291110992 0 0 255
-0.32279741764068604 0.02889220416545868 -0.20968791842460632 0 0 255
-0.3178001344203949 0.03614882752299309 -0.24432431161403656 0 0 255
-0.3462371528148651 0.0764612928032875 -0.24001242220401764 0 0 255
-0.3394542634487152 0.0547669492661953 -0.23840472102165222 0 0 255
-0.34282612800598145 0.051970575004816055 -0.239944726228714 0 0 255
-0.33176910877227783 0.03873924911022186 -0.22473342716693878 0 0 255
-0.31747105717658997 0.013023564592003822 -0.2500574588775635 0 0 255
-0.3100326657295227 0.02621830441057682 -0.2347935140132904 0 0 255
-0.3561538755893707 0.039071761071681976 -0.2194133698940277 0 0 255
-0.3550978899002075 0.07247468084096909 -0.2045811414718628 0 0 255
-0.369520366191864 0.0590822696685791 -0.2036399245262146 0 0 255
-0.36682596802711487 0.05097175016999245 -0.23499080538749695 0 0 255
-0.36906132102012634 0.03430444747209549 -0.28882426023483276 0 0 255
-0.37917327880859375 0.03531884029507637 -0.2423519641160965 0 0 255
-0.3521239757537842 0.02839495986700058 -0.23124921321868896 0 0 255
-0.34818315505981445 0.034928590059280396 -0.22629065811634064 0 0 255
-0.2992684245109558 0.05647728592157364 -0.20794697105884552 0 0 255
-0.2769016623497009 0.08239439874887466 -0.17980729043483734 0 0 255
-0.2697661817073822 0.02053719013929367 -0.19635207951068878 0 0 255
-0.22285300493240356 0.029979854822158813 -0.17615708708763123 0 0 255
-0.26020729541778564 0.0028758097905665636 -0.16634725034236908 0 0 255
-0.2784603536128998 0.03255963325500488 -0.143321231007576 0 0 255
-0.32802048325538635 -0.004829604644328356 -0.15873757004737854 0 0 255
-0.3217175602912903 0.007081636693328619 -0.15145274996757507 0 0 255
-0.3341013491153717 0.03345172479748726 -0.1972123682498932 0 0 255
-0.3337106704711914 0.013747338205575943 -0.22552147507667542 0 0 255
-0.33871766924858093 0.031435299664735794 -0.22778354585170746 0 0 255
-0.378766268491745 0.02590896748006344 -0.2673751711845398 0 0 255
-0.383592814207077 0.02143988572061062 -0.23558035492897034 0 0 255
-0.39111635088920593 0.0402839221060276 -0.24282526969909668 0 0 255
-0.3946613669395447 0.004971214570105076 -0.24891099333763123 0 0 255
-0.40155187249183655 -0.015919001772999763 -0.25756898522377014 0 0 255
-0.39351901412010193 -0.04613473266363144 -0.2661081850528717 0 0 255
-0.3961261510848999 -0.0451534241437912 -0.2560398578643799 0 0 255
-0.3767905831336975 -0.02740309201180935 -0.27846503257751465 0 0 255
-0.37453651428222656 -0.001188485068269074 -0.28690725564956665 0 0 255
-0.37690746784210205 0.024823103100061417 -0.2871590256690979 0 0 255
-0.392854779958725 0.05885812267661095 -0.312105655670166 0 0 255
-0.408286452293396 0.0445251390337944 -0.30303627252578735 0 0 255
-0.42047134041786194 0.040592074394226074 -0.2696214020252228 0 0 255
-0.4173834025859833 0.038844410330057144 -0.2868002951145172 0 0 255
-0.4406055808067322 0.01003257092088461 -0.26212602853775024 0 0 255
-0.41267573833465576 -0.007300938479602337 -0.2096388339996338 0 0 255
-0.41783422231674194 -0.02510698512196541 -0.21529607474803925 0 0 255
-0.4327537417411804 -0.050498031079769135 -0.1924258917570114 0 0 255
-0.425189346075058 -0.07698320597410202 -0.21859988570213318 0 0 255
-0.40343257784843445 -0.07574667036533356 -0.2308606505393982 0 0 255
-0.40482097864151 -0.13001509010791779 -0.25159648060798645 0 0 255
-0.4225684106349945 -0.14694532752037048 -0.22093617916107178 0 0 255
-0.3710319399833679 -0.13909225165843964 -0.2125464826822281 0 0 255
-0.39367780089378357 -0.1432412564754486 -0.19086234271526337 0 0 255
-0.41223976016044617 -0.13881202042102814 -0.21179217100143433 0 0 255
-0.40102869272232056 -0.12189363688230515 -0.21871504187583923 0 0 255
-0.4102267622947693 -0.11462002247571945 -0.21571563184261322 0 0 255
-0.4340997636318207 -0.10429936647415161 -0.23120562732219696 0 0 255
-0.4238033890724182 -0.08526743203401566 -0.24681857228279114 0 0 255
-0.4454251229763031 -0.020342979580163956 -0.2748750150203705 0 0 255
-0.4582436680793762 0.008549838326871395 -0.3061752915382385 0 0 255
-0.4368757903575897 -0.01200003270059824 -0.3240737318992615 0 0 255
-0.45904025435447693 -0.03163619711995125 -0.3587355315685272 0 0 255
-0.4723406732082367 -0.03279890865087509 -0.38022610545158386 0 0 255
-0.5126267671585083 -0.012861017137765884 -0.3427242636680603 0 0 255
-0.44706979393959045 -0.0004580280801746994 -0.34925711154937744 0 0 255
-0.4946743845939636 0.029109343886375427 -0.38203883171081543 0 0 255
-0.5053425431251526 0.002075097756460309 -0.4260583519935608 0 0 255
-0.470507949590683 0.03884704411029816 -0.4645615220069885 0 0 255
-0.5062629580497742 0.003100654575973749 -0.4483502209186554 0 0 255
-0.4771997034549713 0.017546871677041054 -0.416684091091156 0 0 255
-0.49371129274368286 -0.001861545373685658 -0.42022719979286194 0 0 255
-0.5043911337852478 0.0666852667927742 -0.4259725511074066 0 0 255
-0.48267701268196106 0.01703314296901226 -0.40424802899360657 0 0 255
-0.4179043769836426 0.0472913533449173 -0.40530312061309814 0 0 255
-0.4158652722835541 -0.09491878002882004 -0.35756388306617737 0 0 255
-0.3725026845932007 -0.03517961502075195 -0.35691243410110474 0 0 255
-0.3606453835964203 0.09078236669301987 -0.31671836972236633 0 0 255
-0.4003854990005493 0.047842178493738174 -0.3206782937049866 0 0 255
-0.1992233842611313 0.09677071869373322 -0.29153916239738464 0 0 255
-0.27326253056526184 0.04649775102734566 -0.27736321091651917 0 0 255
-0.2250664234161377 0.0944593995809555 -0.2307768613100052 0 0 255
-0.2996200919151306 0.12445827573537827 -0.3432755470275879 0 0 255
-0.3331834375858307 0.175536647439003 -0.33066463470458984 0 0 255
-0.40574902296066284 0.15651452541351318 -0.32211369276046753 0 0 255
-0.41632744669914246 0.12992244958877563 -0.2321685254573822 0 0 255
-0.3558324873447418 0.15336450934410095 -0.26908376812934875 0 0 255
-0.2551307678222656 0.1467326581478119 -0.24747690558433533 0 0 255
-0.277172714471817 0.03294004499912262 -0.26905205845832825 0 0 255
-0.2764076590538025 -0.008826267905533314 -0.2663479149341583 0 0 255
-0.21666769683361053 0.06067103147506714 -0.2462291419506073 0 0 255
-0.3050469160079956 0.06925695389509201 -0.22566615045070648 0 0 255
-0.21848313510417938 0.08579342067241669 -0.22537526488304138 0 0 255
-0.28416165709495544 0.06781411170959473 -0.23598071932792664 0 0 255
-0.28879159688949585 0.022523557767271996 -0.1973533034324646 0 0 255
-0.2908540666103363 0.08193107694387436 -0.2556473910808563 0 0 255
-0.26102176308631897 0.09028540551662445 -0.25822713971138 0 0 255
-0.27125078439712524 0.06106944754719734 -0.20496688783168793 0 0 255
-0.2647380530834198 0.07459850609302521 -0.18298973143100739 0 0 255
-0.22187639772891998 0.08530060946941376 -0.18553674221038818 0 0 255
-0.2311665564775467 0.05810344219207764 -0.19133137166500092 0 0 255
-0.26267170906066895 0.050382811576128006 -0.18486982583999634 0 0 255
-0.2498272955417633 0.06098119542002678 -0.18017850816249847 0 0 255
-0.24083128571510315 0.06731229275465012 -0.2149772047996521 0 0 255
-0.25623974204063416 0.05702311918139458 -0.2216624617576599 0 0 255
-0.2578294575214386 0.02880055271089077 -0.2033926546573639 0 0 255
-0.23957782983779907 0.032708119601011276 -0.21895667910575867 0 0 255
-0.2523646950721741 0.043498702347278595 -0.22972014546394348 0 0 255
-0.2683095335960388 0.022870508953928947 -0.2183370441198349 0 0 255
-0.2929995357990265 0.02737327478826046 -0.2427605390548706 0 0 255
-0.24979984760284424 0.007791338954120874 -0.27665701508522034 0 0 255
-0.32424262166023254 0.03473403677344322 -0.2769601047039032 0 0 255
-0.28561675548553467 0.0075791869312524796 -0.26294705271720886 0 0 255
-0.24961444735527039 0.029465550556778908 -0.2722116708755493 0 0 255
-0.2746290862560272 0.009671167470514774 -0.25936296582221985 0 0 255
-0.23677118122577667 -0.03174906224012375 -0.26409590244293213 0 0 255
-0.2806938588619232 0.013696214184165001 -0.30878445506095886 0 0 255
-0.2846633493900299 0.0483262836933136 -0.3121308982372284 0 0 255
-0.23887011408805847 0.02726387232542038 -0.32804858684539795 0 0 255
-0.25343355536460876 0.027338087558746338 -0.312152624130249 0 0 255
-0.2639070153236389 0.021269584074616432 -0.31323912739753723 0 0 255
-0.24584467709064484 0.04788779839873314 -0.3483335077762604 0 0 255
-0.2772490680217743 0.059937380254268646 -0.39846763014793396 0 0 255
-0.23696152865886688 0.028826221823692322 -0.4040800929069519 0 0 255
-0.2790094017982483 0.026874735951423645 -0.424315482378006 0 0 255
-0.28558528423309326 -0.013506223447620869 -0.3893807828426361 0 0 255
-0.2365739792585373 0.04695768654346466 -0.42487651109695435 0 0 255
-0.2573831081390381 -0.010884520597755909 -0.47285428643226624 0 0 255
-0.25454387068748474 0.015894053503870964 -0.4396173655986786 0 0 255
-0.27717089653015137 0.0964154303073883 -0.3956405222415924 0 0 255
-0.2382308691740036 0.05295072868466377 -0.2824946939945221 0 0 255
-0.20807015895843506 0.0467907153069973 -0.25895461440086365 0 0 255
-0.24939675629138947 0.03580493479967117 -0.2832643687725067 0 0 255
-0.1685437262058258 0.027563611045479774 -0.30590352416038513 0 0 255
-0.14338178932666779 0.025001775473356247 -0.30648165941238403 0 0 255
-0.11976844072341919 0.030731191858649254 -0.2882177233695984 0 0 255
-0.1876104176044464 -0.009227115660905838 -0.34029465913772583 0 0 255
-0.1572599709033966 -0.016134340316057205 -0.2887214422225952 0 0 255
-0.13196711242198944 -0.007028502877801657 -0.28151199221611023 0 0 255
-0.12067341804504395 -0.04076163098216057 -0.21026961505413055 0 0 255
-0.0904199630022049 -0.062018562108278275 -0.17614035308361053 0 0 255
-0.03515173867344856 -0.058246977627277374 -0.12719762325286865 0 0 255
-0.07455243915319443 -0.04890414699912071 -0.06313557922840118 0 0 255
-0.171454057097435 -0.024274282157421112 -0.040777742862701416 0 0 255
-0.18354487419128418 -0.018582884222269058 -0.11097212135791779 0 0 255
-0.11107823997735977 -0.0038479850627481937 -0.09422941505908966 0 0 255
-0.005298355128616095 -0.09025746583938599 -0.017002297565340996 0 0 255
0.1525307148694992 0.015412303619086742 0.17212189733982086 0 0 255
0.28504127264022827 0.032923176884651184 0.2324346899986267 0 0 255
0.30013203620910645 -0.05726483836770058 0.29303252696990967 0 0 255
0.3007538914680481 -0.06282494217157364 0.25383034348487854 0 0 255
0.3276697099208832 -0.022176437079906464 0.21675892174243927 0 0 255
0.2722894251346588 0.057217299938201904 0.23178574442863464 0 0 255
0.1808561533689499 0.035728562623262405 0.21120093762874603 0 0 255
0.16212111711502075 0.049674663692712784 0.20091094076633453 0 0 255
0.0871322900056839 0.06897103041410446 0.22407865524291992 0 0 255
0.05984305590391159 0.050618767738342285 0.15411926805973053 0 0 255
0.07403832674026489 0.12036146968603134 0.07961300015449524 0 0 255
0.1279643476009369 0.12265176326036453 0.21679168939590454 0 0 255
0.18961051106452942 0.002187879988923669 0.20540109276771545 0 0 255
0.16096296906471252 -0.06255510449409485 0.1623854786157608 0 0 255
0.12024260312318802 -0.05239685997366905 0.08027289062738419 0 0 255
0.19843798875808716 0.036087993532419205 0.10795462876558304 0 0 255
0.15667250752449036 0.19802029430866241 0.2305755317211151 0 0 255
0.08779606968164444 0.12356531620025635 0.17840999364852905 0 0 255
0.1318088322877884 0.06854787468910217 0.19237661361694336 0 0 255
0.18474721908569336 0.0158297810703516 0.18856075406074524 0 0 255
0.20592789351940155 0.08425208926200867 0.24033983051776886 0 0 255
0.28198155760765076 0.13283516466617584 0.22089886665344238 0 0 255
0.2516017556190491 0.1591694951057434 0.20312225818634033 0 0 255
0.10824049264192581 0.03566800430417061 0.13945801556110382 0 0 255
0.14131726324558258 0.054395001381635666 0.06808838993310928 0 0 255
0.16950449347496033 0.09150641411542892 0.11522041261196136 0 0 255
0.16035757958889008 0.04248049855232239 0.19598475098609924 0 0 255
0.09389311075210571 0.0012034783139824867 0.169630765914917 0 0 255
0.07751195877790451 0.06149870157241821 0.13165082037448883 0 0 255
0.13853687047958374 0.029334889724850655 0.1639564037322998 0 0 255
0.13467520475387573 -0.02718677744269371 0.19746005535125732 0 0 255
0.1123361736536026 0.016980689018964767 0.18051490187644958 0 0 255
0.10238958150148392 -0.01107108499854803 0.14074552059173584 0 0 255
0.143438920378685 0.04529072344303131 0.2039639949798584 0 0 255
0.1273745894432068 -0.022892910987138748 0.2655264139175415 0 0 255
0.14098501205444336 -0.014383760280907154 0.2233172059059143 0 0 255
0.1303556263446808 -0.02126803621649742 0.18990066647529602 0 0 255
0.10658974200487137 -0.015989771112799644 0.14565767347812653 0 0 255
0.12809352576732635 -0.047496549785137177 0.042003557085990906 0 0 255
0.1362396776676178 -0.06816238909959793 0.04757232591509819 0 0 255
0.10461191087961197 -0.011086022481322289 -0.02844085544347763 0 0 255
0.0984262079000473 -0.034453384578228 -0.031991519033908844 0 0 255
0.0837927982211113 -0.05214948207139969 -0.00797993689775467 0 0 255
0.0530339814722538 -0.045927975326776505 -0.11574626713991165 0 0 255
0.06415052711963654 -0.09908752143383026 -0.12801840901374817 0 0 255
0.10339333117008209 -0.02922837994992733 -0.14115895330905914 0 0 255
0.09460707753896713 -0.004264443181455135 -0.15010595321655273 0 0 255
0.014713435433804989 -0.03108656033873558 -0.09597761183977127 0 0 255
0.010259822010993958 -0.06796235591173172 -0.13812290132045746 0 0 255
-0.03840639442205429 -0.08578059822320938 -0.20586718618869781 0 0 255
-0.03933759778738022 -0.10017219930887222 -0.26174455881118774 0 0 255
-0.04037007316946983 -0.056782618165016174 -0.2946292757987976 0 0 255
-0.032907504588365555 -0.017431683838367462 -0.2702871263027191 0 0 255
0.0778374895453453 -0.04226512834429741 -0.2341238558292389 0 0 255
0.11416440457105637 -0.0024545234628021717 -0.2504952847957611 0 0 255
0.106072798371315 0.020023861899971962 -0.2526448965072632 0 0 255
0.0987430289387703 -0.07127927243709564 -0.1899256706237793 0 0 255
0.05995410308241844 -0.10235756635665894 -0.11228644102811813 0 0 255
-0.0021550352685153484 -0.07341078668832779 -0.2225644737482071 0 0 255
0.10396777093410492 -0.06444120407104492 -0.19455181062221527 0 0 255
0.06577803939580917 -0.10108575224876404 -0.1567833572626114 0 0 255
0.09487833827733994 -0.09438996762037277 -0.16286326944828033 0 0 255
0.11400310695171356 -0.026084765791893005 -0.20275411009788513 0 0 255
0.16377003490924835 -0.04082947224378586 -0.17215903103351593 0 0 255
0.28294816613197327 -0.08236580342054367 -0.11298210918903351 0 0 255
0.07511050254106522 -0.17034779489040375 -0.20025096833705902 0 0 255
-0.04777780920267105 -0.002359050326049328 -0.12135906517505646 0 0 255
-0.1439007669687271 0.011914369650185108 -0.055302731692790985 0 0 255
-0.08186285197734833 -0.030700691044330597 -0.023016899824142456 0 0 255
-0.07200055569410324 -0.0036523197777569294 0.0027135363779962063 0 0 255
-0.046260371804237366 0.015788182616233826 0.00039262877544388175 0 0 255
-0.05315913259983063 0.0026659423019737005 0.024830669164657593 0 0 255
-0.04757681116461754 0.007215674035251141 0.029952397570014 0 0 255
-0.03047630563378334 0.0055461847223341465 0.0018258505733683705 0 0 255
-0.06588859111070633 -0.021906653419137 -0.014215011149644852 0 0 255
-0.08618441969156265 -0.03371104970574379 -0.036838099360466 0 0 255
-0.07246829569339752 -0.038678232580423355 -0.030920499935746193 0 0 255
-0.10911435633897781 -0.04336733743548393 -0.006361909210681915 0 0 255
-0.09785708785057068 -0.04138253256678581 -0.030347313731908798 0 0 255
-0.10710316896438599 -0.05612362548708916 -0.04475300386548042 0 0 255
-0.12621602416038513 -0.07404109835624695 -0.10237781703472137 0 0 255
-0.17636889219284058 -0.07103942334651947 -0.10479258000850677 0 0 255
-0.18305668234825134 -0.052977051585912704 -0.11682567745447159 0 0 255
-0.22978803515434265 -0.016888119280338287 -0.1860152781009674 0 0 255
-0.25285834074020386 -0.05065396800637245 -0.1951139122247696 0 0 255
-0.25818148255348206 -0.05312785133719444 -0.16289527714252472 0 0 255
-0.3017549216747284 -0.01900479570031166 -0.19929538667201996 0 0 255
-0.30083879828453064 -0.06763464957475662 -0.23767253756523132 0 0 255
-0.285981148481369 -0.07586607336997986 -0.22003452479839325 0 0 255
-0.2674219012260437 -0.11256452649831772 -0.21404297649860382 0 0 255
-0.3424126207828522 -0.11400418728590012 -0.20180046558380127 0 0 255
-0.3706758916378021 -0.09806036204099655 -0.2619936764240265 0 0 255
-0.3434615731239319 -0.15352873504161835 -0.19607287645339966 0 0 255
-0.36061954498291016 -0.19833484292030334 -0.12890461087226868 0 0 255
-0.3481498658657074 -0.21527211368083954 -0.1280776709318161 0 0 255
-0.38611534237861633 -0.15105795860290527 -0.19561679661273956 0 0 255
-0.3814397156238556 -0.15392228960990906 -0.15351994335651398 0 0 255
-0.4113216996192932 -0.26721975207328796 -0.218197762966156 0 0 255
-0.4070296883583069 -0.304656982421875 -0.3657878041267395 0 0 255
-0.40448859333992004 -0.37202367186546326 -0.3223462998867035 0 0 255
-0.38469845056533813 -0.4294700622558594 -0.21311472356319427 0 0 255
-0.3070608973503113 -0.40346866846084595 -0.12223441898822784 0 0 255
-0.3158632814884186 -0.33715328574180603 -0.16734065115451813 0 0 255
-0.4842122495174408 -0.2454548329114914 -0.29915666580200195 0 0 255
-0.29567182064056396 -0.2680681347846985 -0.18267416954040527 0 0 255
-0.361314058303833 -0.27356743812561035 -0.02288028411567211 0 0 255
-0.10794480890035629 -0.23833626508712769 0.001090843928977847 0 0 255
-0.1551811546087265 -0.3634285032749176 0.06984012573957443 0 0 255
-0.23693552613258362 -0.469142884016037 0.16410839557647705 0 0 255
-0.30577757954597473 -0.40035930275917053 0.04401762783527374 0 0 255
-0.4455074071884155 -0.30050358176231384 0.010505826212465763 0 0 255
-0.4626515209674835 -0.20703966915607452 -0.0879061371088028 0 0 255
-0.3761621415615082 -0.07544326782226562 -0.06780032068490982 0 0 255
-0.34487301111221313 -0.014936358667910099 0.01994173787534237 0 0 255
-0.2997051179409027 -0.15805727243423462 0.20965532958507538 0 0 255
-0.22817839682102203 -0.3359110355377197 0.26300060749053955 0 0 255
-0.1593443900346756 -0.22610710561275482 0.16548296809196472 0 0 255
-0.17576026916503906 -0.24992308020591736 0.13177810609340668 0 0 255
-0.20767827332019806 -0.27711087465286255 0.12415790557861328 0 0 255
-0.2171972393989563 -0.3098125755786896 0.06198183074593544 0 0 255
-0.15977829694747925 -0.36575502157211304 0.1658060997724533 0 0 255
-0.16981810331344604 -0.29564937949180603 0.1759176254272461 0 0 255
-0.15002045035362244 -0.24459503591060638 0.1483585238456726 0 0 255
-0.17899250984191895 -0.3397039771080017 0.238944873213768 0 0 255
-0.11036816239356995 -0.3262189030647278 0.29455360770225525 0 0 255
0.06110534071922302 -0.22588616609573364 0.2713084816932678 0 0 255
0.06724794209003448 -0.2670733332633972 0.20700867474079132 0 0 255
-0.023233888670802116 -0.4138753116130829 0.11816538125276566 0 0 255
-0.016742443665862083 -0.3356427252292633 0.06173234060406685 0 0 255
-0.11916650086641312 -0.3007478713989258 0.03879375383257866 0 0 255
-0.16735953092575073 -0.2688063681125641 0.05103839561343193 0 0 255
-0.1572725623846054 -0.31031274795532227 0.04229637607932091 0 0 255
-0.17781499028205872 -0.29527243971824646 0.19063034653663635 0 0 255
-0.180070698261261 -0.2201119363307953 0.18838055431842804 0 0 255
-0.057169072329998016 -0.22439903020858765 0.25474780797958374 0 0 255
0.023059433326125145 -0.3228737711906433 0.20566006004810333 0 0 255
-0.009204555302858353 -0.2100362330675125 0.3107304573059082 0 0 255
-0.09683924168348312 -0.19391420483589172 0.17316418886184692 0 0 255
-0.22084082663059235 -0.16829632222652435 0.06263355910778046 0 0 255
-0.2655821442604065 -0.18307746946811676 -0.010504855774343014 0 0 255
-0.2860575020313263 -0.1803780198097229 -0.034475576132535934 0 0 255
-0.26574504375457764 -0.12902583181858063 -0.12599559128284454 0 0 255
-0.2377622276544571 -0.11522449553012848 -0.07610511034727097 0 0 255
-0.28787678480148315 -0.15021653473377228 -0.1276216208934784 0 0 255
-0.3202783763408661 -0.12916375696659088 -0.16467329859733582 0 0 255
-0.2941606640815735 -0.1385292261838913 -0.12009335309267044 0 0 255
-0.21477866172790527 -0.10908389836549759 -0.11385142803192139 0 0 255
-0.11677514761686325 -0.19207541644573212 -0.0942717045545578 0 0 255
-0.08158781379461288 -0.2307559698820114 -0.065454863011837 0 0 255
-0.10576087981462479 -0.24391216039657593 -0.08124479651451111 0 0 255
-0.11037949472665787 -0.22330410778522491 -0.10654851049184799 0 0 255
-0.14819422364234924 -0.12296965718269348 -0.05826001241803169 0 0 255
-0.1267140954732895 -0.05797963589429855 -0.04904278367757797 0 0 255
-0.12285444140434265 -0.04504338651895523 -0.04178765043616295 0 0 255
-0.1605892926454544 -0.03352951258420944 -0.08042747527360916 0 0 255
-0.13719700276851654 -0.04493618756532669 -0.11331760883331299 0 0 255
-0.06220304220914841 -0.08453889936208725 -0.09536038339138031 0 0 255
-0.038458481431007385 -0.03128385171294212 -0.0455501452088356 0 0 255
0.002622121712192893 0.010991555638611317 -0.016140758991241455 0 0 255
0.026888681575655937 -0.0425911583006382 -0.003509143367409706 0 0 255
0.045168083161115646 -0.05239424854516983 -0.039400868117809296 0 0 255
0.09504397213459015 -0.054390598088502884 -0.03333767503499985 0 0 255
0.10131971538066864 -0.03987235203385353 -0.006775339134037495 0 0 255
0.13389284908771515 -0.07288727164268494 -0.02322477102279663 0 0 255
0.14143255352973938 -0.022542240098118782 -0.0113004045560956 0 0 255
0.22629322111606598 0.08159561455249786 0.02626786194741726 0 0 255
0.19858849048614502 0.08841747045516968 0.0932481661438942 0 0 255
0.26942577958106995 0.06316827237606049 0.11935795843601227 0 0 255
0.2911965847015381 0.03972535580396652 0.16231076419353485 0 0 255
0.3003873825073242 0.08655936270952225 0.10489162802696228 0 0 255
0.23470276594161987 0.0951615422964096 0.06816376745700836 0 0 255
0.056731052696704865 0.07971715182065964 -0.013371521607041359 0 0 255
0.03186921030282974 0.024087751284241676 -0.08863155543804169 0 0 255
-0.034533172845840454 0.0338248685002327 0.0283026322722435 0 0 255
-0.05761894956231117 -0.016457848250865936 -0.005676723085343838 0 0 255
-0.06167346239089966 -0.00902886874973774 -0.017723485827445984 0 0 255
-0.01494839508086443 -0.050556253641843796 -0.0007093750173225999 0 0 255
-0.03333194553852081 -0.0831674337387085 0.012755591422319412 0 0 255
-0.04089701920747757 -0.14808765053749084 0.009807780385017395 0 0 255
-0.05594993010163307 -0.16480909287929535 -0.0013162473915144801 0 0 255
-0.08350293338298798 -0.14217382669448853 0.005427650175988674 0 0 255
-0.09936700016260147 -0.23009264469146729 -0.011235483922064304 0 0 255
-0.0394635908305645 -0.22442634403705597 -0.05436734855175018 0 0 255
-0.09204298257827759 -0.30295076966285706 -0.08552921563386917 0 0 255
-0.09438721835613251 -0.22677327692508698 -0.028460156172513962 0 0 255
-0.06644918024539948 -0.20773360133171082 -0.019172428175807 0 0 255
-0.1231343001127243 -0.30121657252311707 0.03248050808906555 0 0 255
-0.08517690747976303 -0.29015085101127625 -0.06831365078687668 0 0 255
-0.09702415764331818 -0.23721180856227875 -0.05578194186091423 0 0 255
-0.12883125245571136 -0.0985657200217247 -0.08812007308006287 0 0 255
-0.15022720396518707 -0.0798659399151802 -0.105438731610775 0 0 255
-0.20213352143764496 -0.10790479183197021 -0.09894019365310669 0 0 255
-0.25962552428245544 -0.08224038034677505 -0.16595549881458282 0 0 255
-0.2807004749774933 -0.03495708853006363 -0.11398840695619583 0 0 255
-0.3640604317188263 -0.0021846117451786995 -0.13358968496322632 0 0 255
-0.3796409070491791 0.003754520323127508 -0.11901300400495529 0 0 255
-0.36329329013824463 -0.006753663066774607 -0.1641899198293686 0 0 255
-0.3126910626888275 0.014426514506340027 -0.15481393039226532 0 0 255
-0.27316907048225403 0.03992973640561104 -0.1296672523021698 0 0 255
-0.2668581008911133 0.013868710026144981 -0.06492956727743149 0 0 255
-0.2686992585659027 -0.026560109108686447 -0.026190176606178284 0 0 255
-0.27114808559417725 -0.022635089233517647 0.008124183863401413 0 0 255
-0.2942638695240021 -0.048419009894132614 0.008170174434781075 0 0 255
-0.25318577885627747 -0.09178407490253448 0.08204516023397446 0 0 255
-0.21814072132110596 -0.04590296000242233 0.16476057469844818 0 0 255
-0.17148402333259583 -0.006199792958796024 0.24624450504779816 0 0 255
-0.15102694928646088 -0.01215809304267168 0.3202914893627167 0 0 255
-0.09155205637216568 -0.07459957897663116 0.3458322584629059 0 0 255
-0.06170513853430748 -0.1509384959936142 0.35175496339797974 0 0 255
-0.025157270953059196 -0.1911202371120453 0.3605411648750305 0 0 255
-0.03276565670967102 -0.18201513588428497 0.3532964289188385 0 0 255
-0.014485995285212994 -0.1599464863538742 0.35875508189201355 0 0 255
-0.016520844772458076 -0.21556450426578522 0.3728296160697937 0 0 255
-0.01309544499963522 -0.2584928572177887 0.39193007349967957 0 0 255
0.07666285336017609 -0.22133465111255646 0.3548887372016907 0 0 255
0.02023841254413128 -0.2538050711154938 0.2581329047679901 0 0 255
0.004849111661314964 -0.3294171392917633 0.29960310459136963 0 0 255
-0.008797257207334042 -0.3180777430534363 0.305851548910141 0 0 255
0.04123242199420929 -0.3008033335208893 0.35401374101638794 0 0 255
0.1593049317598343 -0.209613636136055 0.39937624335289 0 0 255
0.1315821260213852 -0.10482173413038254 0.4980790615081787 0 0 255
0.14556163549423218 -0.13484635949134827 0.5107889771461487 0 0 255
0.1784522384405136 -0.07492043823003769 0.5712465643882751 0 0 255
0.19613218307495117 -0.023352142423391342 0.6217997670173645 0 0 255
0.21987144649028778 -0.039699897170066833 0.625359833240509 0 0 255
0.22101430594921112 -0.012330947443842888 0.6561678647994995 0 0 255
0.283550500869751 -0.023037441074848175 0.6595664024353027 0 0 255
0.3125787675380707 -0.0015877749538049102 0.6763855218887329 0 0 255
0.329982727766037 -0.05191092938184738 0.6564891934394836 0 0 255
0.34757640957832336 -0.04099773243069649 0.5610238909721375 0 0 255
0.3930008113384247 0.011998122557997704 0.5088946223258972 0 0 255
0.24478287994861603 0.06947358697652817 0.45370233058929443 0 0 255
0.2338258922100067 0.1534852683544159 0.37640514969825745 0 0 255
0.2266836166381836 0.1693546324968338 0.34578385949134827 0 0 255
0.22545012831687927 0.1662997156381607 0.3090771734714508 0 0 255
0.26083582639694214 0.14345699548721313 0.24973398447036743 0 0 255
0.24042534828186035 0.09062042087316513 0.2310507595539093 0 0 255
0.23064923286437988 0.056708548218011856 0.19607669115066528 0 0 255
0.2590433657169342 0.055744655430316925 0.17971603572368622 0 0 255
0.26619312167167664 0.040837861597537994 0.14384323358535767 0 0 255
0.20975090563297272 -0.0007311899098567665 0.11101146042346954 0 0 255
0.1337718814611435 -0.00640903552994132 0.1219884380698204 0 0 255
0.12075074017047882 0.03898647800087929 0.15072780847549438 0 0 255
0.1430782526731491 0.06315907835960388 0.11386115103960037 0 0 255
0.1632329374551773 0.10146930813789368 0.10120738297700882 0 0 255
0.12733767926692963 0.09069576859474182 0.0873563215136528 0 0 255
0.10618045926094055 0.07595803588628769 0.03295397013425827 0 0 255
0.11466415226459503 0.04570557549595833 -0.013774746097624302 0 0 255
0.019759884104132652 0.11664674431085587 -0.013143538497388363 0 0 255
-0.12386590242385864 0.25664258003234863 -0.05399499461054802 0 0 255
-0.2095821648836136 0.2547120451927185 -0.19686082005500793 0 0 255
-0.3307078778743744 0.29726850986480713 -0.18984633684158325 0 0 255
-0.29876983165740967 0.37293022871017456 -0.15698915719985962 0 0 255
-0.27251458168029785 0.34585925936698914 -0.08108536154031754 0 0 255
-0.19858025014400482 0.4155278205871582 0.019912414252758026 0 0 255
-0.4071696996688843 0.29504889249801636 0.24735240638256073 0 0 255
-0.5342286825180054 -0.06628834456205368 0.23006843030452728 0 0 255
-0.4334152638912201 -0.17593251168727875 0.22900442779064178 0 0 255
-0.25859159231185913 0.1228080689907074 0.3017028570175171 0 0 255
-0.12617729604244232 0.1392814815044403 0.4446031451225281 0 0 255
0.11146501451730728 0.22697234153747559 0.3781677782535553 0 0 255
0.14176130294799805 0.20538336038589478 0.4134531617164612 0 0 255
0.2409459352493286 0.1685708463191986 0.35514524579048157 0 0 255
0.2742987871170044 0.14122149348258972 0.352749228477478 0 0 255
0.2838886082172394 0.10086844116449356 0.27239978313446045 0 0 255
0.25918397307395935 0.08008823543787003 0.27966225147247314 0 0 255
0.21513371169567108 0.06748821586370468 0.24054136872291565 0 0 255
0.201139897108078 0.036197468638420105 0.21498671174049377 0 0 255
0.19561050832271576 0.051615938544273376 0.22654761373996735 0 0 255
0.20757973194122314 0.03866852819919586 0.2815474569797516 0 0 255
0.2624839246273041 0.039796557277441025 0.27905982732772827 0 0 255
0.2596192955970764 -0.018787769600749016 0.2904004156589508 0 0 255
0.26001256704330444 -0.05024370551109314 0.2589475214481354 0 0 255
0.25448116660118103 -0.04381157085299492 0.21911630034446716 0 0 255
0.25875547528266907 0.03912002593278885 0.2492893636226654 0 0 255
0.23607823252677917 0.014939750544726849 0.18956172466278076 0 0 255
0.2778139114379883 0.011027391068637371 0.20181934535503387 0 0 255
0.22251150012016296 -0.07258211076259613 0.13226200640201569 0 0 255
0.1902226358652115 -0.06429361552000046 0.05219218134880066 0 0 255
0.16882646083831787 -0.03185754641890526 0.10852117091417313 0 0 255
0.15900136530399323 -0.0255216546356678 0.08262936770915985 0 0 255
0.15579913556575775 0.03597444295883179 0.07433139532804489 0 0 255
0.1247827410697937 -0.05372811481356621 0.06372664868831635 0 0 255
0.11967594176530838 -0.029269030317664146 0.11179105192422867 0 0 255
0.200428307056427 0.017660241574048996 0.18856120109558105 0 0 255
0.22660872340202332 -0.05644125118851662 0.2564692497253418 0 0 255
0.2795771062374115 -0.007650386542081833 0.30196893215179443 0 0 255
0.2964734137058258 -0.03507570922374725 0.30451706051826477 0 0 255
0.32096609473228455 -0.06317169219255447 0.32632869482040405 0 0 255
0.3397378921508789 -0.11040840297937393 0.34689319133758545 0 0 255
0.39652127027511597 -0.0960373729467392 0.3371690809726715 0 0 255
0.4019484519958496 -0.15147466957569122 0.34810227155685425 0 0 255
0.358455091714859 -0.1638105809688568 0.3668133318424225 0 0 255
0.3488018214702606 -0.12393227964639664 0.3360738754272461 0 0 255
0.32927271723747253 -0.008012957870960236 0.2766905128955841 0 0 255
0.21015459299087524 0.07135649025440216 0.27195030450820923 0 0 255
0.1337195336818695 -0.02971695549786091 0.06268054246902466 0 0 255
0.23553071916103363 0.03179532289505005 0.14648696780204773 0 0 255
0.19530536234378815 -0.11266016215085983 0.15520712733268738 0 0 255
0.23676380515098572 -0.12048924714326859 0.13717004656791687 0 0 255
0.2851273715496063 0.0286954864859581 0.1364726722240448 0 0 255
0.22893473505973816 0.05788572132587433 0.13512365520000458 0 0 255
0.1829231232404709 0.050873253494501114 0.13885177671909332 0 0 255
0.13356949388980865 0.13242162764072418 -0.01571931503713131 0 0 255
0.0892622247338295 0.23438161611557007 0.032923564314842224 0 0 255
0.21792568266391754 0.2075928896665573 0.06327589601278305 0 0 255
0.24235780537128448 0.09712165594100952 0.04512365534901619 0 0 255
0.3588455617427826 0.03821701928973198 0.13259942829608917 0 0 255
0.3078422546386719 -0.008887659758329391 0.12830474972724915 0 0 255
0.342274934053421 0.04870998114347458 0.14586982131004333 0 0 255
0.2769099175930023 0.023616891354322433 0.18228130042552948 0 0 255
0.2391033172607422 0.07137472182512283 0.15447713434696198 0 0 255
0.21183648705482483 0.16255760192871094 0.14353743195533752 0 0 255
0.21456235647201538 0.14034773409366608 0.14653588831424713 0 0 255
0.22450858354568481 0.11964921653270721 0.12978795170783997 0 0 255
0.22280873358249664 0.10251813381910324 0.14731340110301971 0 0 255
0.2139468938112259 0.07882228493690491 0.1521936058998108 0 0 255
0.21645845472812653 0.05837224796414375 0.12774069607257843 0 0 255
0.19519971311092377 0.07520917057991028 0.12583127617835999 0 0 255
0.18964360654354095 0.06933622062206268 0.12344487756490707 0 0 255
0.1969505250453949 0.09937537461519241 0.09901600331068039 0 0 255
0.19755659997463226 0.09093935787677765 0.08136808127164841 0 0 255
0.20152239501476288 0.0664532408118248 0.05756056681275368 0 0 255
0.19762292504310608 0.03195726126432419 0.0769820362329483 0 0 255
0.17753177881240845 0.029411349445581436 0.1114242821931839 0 0 255
0.19105029106140137 0.0446428507566452 0.15369422733783722 0 0 255
0.20571497082710266 0.03595570847392082 0.12257161736488342 0 0 255
0.22189033031463623 0.03289664909243584 0.12233471125364304 0 0 255
0.1908567249774933 -0.05191996321082115 0.13786840438842773 0 0 255
0.17030924558639526 -0.061973292380571365 0.18815582990646362 0 0 255
0.1759301722049713 -0.006600962020456791 0.21943624317646027 0 0 255
0.25138360261917114 -0.007945886813104153 0.2239101380109787 0 0 255
0.34330737590789795 -0.028482770547270775 0.22485032677650452 0 0 255
0.3390563130378723 -0.06156836077570915 0.2246606945991516 0 0 255
0.3304060399532318 -0.06864617019891739 0.2201753407716751 0 0 255
0.4000958502292633 -0.03769638016819954 0.21460019052028656 0 0 255
0.38738274574279785 -0.012197749689221382 0.24105721712112427 0 0 255
0.40879425406455994 0.03927571326494217 0.24837516248226166 0 0 255
0.3929036855697632 0.06332271546125412 0.19431956112384796 0 0 255
0.41847726702690125 0.11919330060482025 0.22704751789569855 0 0 255
0.42034247517585754 0.09479206055402756 0.22261987626552582 0 0 255
0.4323212206363678 0.04958493635058403 0.2791833281517029 0 0 255
0.4541133940219879 0.05448830872774124 0.3722483217716217 0 0 255
0.5323670506477356 0.008517470210790634 0.24727298319339752 0 0 255
0.4209902882575989 -0.137375146150589 0.23104876279830933 0 0 255
0.17788641154766083 -0.03768337890505791 0.253555029630661 0 0 255
0.07769199460744858 0.0353715643286705 0.09296493977308273 0 0 255
0.07212769240140915 0.049249373376369476 0.0667671337723732 0 0 255
-0.009607949294149876 -0.044223397970199585 0.03876960277557373 0 0 255
-0.018029555678367615 -0.009737706743180752 0.02752147987484932 0 0 255
-0.018183309584856033 -0.06292085349559784 0.03076891601085663 0 0 255
-0.00044165048166178167 -0.13531945645809174 0.07501690834760666 0 0 255
0.08544519543647766 -0.14218029379844666 0.1108132153749466 0 0 255
0.04810469597578049 -0.11800283938646317 -0.04506469517946243 0 0 255
-0.020849307999014854 -0.09742248803377151 -0.10021946579217911 0 0 255
-0.07334047555923462 -0.07362183928489685 -0.16914136707782745 0 0 255
-0.07149750739336014 -0.039838362485170364 -0.12182426452636719 0 0 255
-0.061191510409116745 -0.08315154165029526 -0.086200051009655 0 0 255
-0.08369412273168564 -0.05871261656284332 -0.1260209083557129 0 0 255
-0.046355415135622025 -0.014430195093154907 -0.12638911604881287 0 0 255
0.015266516245901585 0.03205050528049469 -0.09955227375030518 0 0 255
0.07331212610006332 0.012410513125360012 -0.08072689920663834 0 0 255
0.10133489966392517 0.015675080940127373 0.022190464660525322 0 0 255
0.13403524458408356 0.036107275635004044 0.03942233324050903 0 0 255
0.14113691449165344 0.07032802700996399 0.1949164867401123 0 0 255
0.14902225136756897 0.1488834172487259 0.17429548501968384 0 0 255
0.38162651658058167 0.3371661901473999 0.14828070998191833 0 0 255
0.2702987790107727 0.3810492157936096 0.4129050076007843 0 0 255
0.1543990671634674 0.6390659213066101 0.44134578108787537 0 0 255
0.30850356817245483 0.5352172255516052 0.3170967400074005 0 0 255
0.3071485757827759 0.524688184261322 0.019888756796717644 0 0 255
0.2732783257961273 0.5466977953910828 0.17484374344348907 0 0 255
0.21795539557933807 0.6469707489013672 0.10473068803548813 0 0 255
0.16863413155078888 0.6123833060264587 0.18676932156085968 0 0 255
0.1430763155221939 0.5697782039642334 0.11955326795578003 0 0 255
0.11101817339658737 0.4928932785987854 0.04211236536502838 0 0 255
-0.03275877237319946 0.45028549432754517 -0.12628771364688873 0 0 255
-0.058966297656297684 0.41848400235176086 -0.15345367789268494 0 0 255
-0.0781366154551506 0.37872055172920227 -0.21464329957962036 0 0 255
-0.11206509917974472 0.41538798809051514 -0.1650812178850174 0 0 255
-0.12024004012346268 0.4030825197696686 -0.18011654913425446 0 0 255
-0.11350315064191818 0.41255807876586914 -0.18820400536060333 0 0 255
-0.12186059355735779 0.40571627020835876 -0.18569223582744598 0 0 255
-0.09702424705028534 0.41335391998291016 -0.17713214457035065 0 0 255
-0.06789824366569519 0.41608911752700806 -0.13761572539806366 0 0 255
-0.04594721272587776 0.4124583601951599 -0.10695372521877289 0 0 255
-0.02873891219496727 0.44338592886924744 -0.08713306486606598 0 0 255
-0.0009811186464503407 0.4288972318172455 -0.08565818518400192 0 0 255
-0.007139432244002819 0.4201925992965698 -0.1318385750055313 0 0 255
-0.01792454719543457 0.39985814690589905 -0.1608673334121704 0 0 255
-0.06739083677530289 0.40744322538375854 -0.1159263476729393 0 0 255
-0.05560743436217308 0.45347607135772705 -0.11252755671739578 0 0 255
-0.031164871528744698 0.46794429421424866 -0.14720097184181213 0 0 255
-0.020718948915600777 0.41883984208106995 -0.13149820268154144 0 0 255
0.00427920650690794 0.42080655694007874 -0.10791516304016113 0 0 255
-0.03011241741478443 0.39407238364219666 -0.11810595542192459 0 0 255
-0.05543453246355057 0.3768577575683594 -0.19690008461475372 0 0 255
-0.07573359459638596 0.3806229531764984 -0.19943824410438538 0 0 255
-0.11744284629821777 0.3776415288448334 -0.2203717827796936 0 0 255
-0.08497355878353119 0.3940800130367279 -0.2263241857290268 0 0 255
-0.0553116500377655 0.37614840269088745 -0.21377010643482208 0 0 255
-0.045329730957746506 0.3978525400161743 -0.14990553259849548 0 0 255
-0.0015231692232191563 0.39136701822280884 -0.15972955524921417 0 0 255
-0.02203516662120819 0.3792470395565033 -0.1879502236843109 0 0 255
-0.04701543599367142 0.3910927176475525 -0.17489024996757507 0 0 255
-0.03960351645946503 0.36636245250701904 -0.15583546459674835 0 0 255
-0.0036955277901142836 0.3467220664024353 -0.12276072055101395 0 0 255
-0.026441603899002075 0.37234318256378174 -0.09900113195180893 0 0 255
-0.01333124004304409 0.39788198471069336 -0.11611384153366089 0 0 255
-0.0049016461707651615 0.3834706246852875 -0.19168244302272797 0 0 255
0.006779756397008896 0.444436252117157 -0.1464279741048813 0 0 255
0.0533013790845871 0.45152008533477783 -0.05847352743148804 0 0 255
0.07061727344989777 0.3598856031894684 -0.05188455432653427 0 0 255
0.182725191116333 0.3779592514038086 0.013487103395164013 0 0 255
0.18827465176582336 0.310123085975647 0.03089262545108795 0 0 255
0.22018830478191376 0.3245219886302948 0.026500949636101723 0 0 255
0.18380597233772278 0.2797617018222809 -0.003529636887833476 0 0 255
0.128095343708992 0.2632408142089844 0.013568045571446419 0 0 255
0.014457903802394867 0.3147241771221161 -0.14858804643154144 0 0 255
-0.04177466034889221 0.3829217851161957 -0.22119206190109253 0 0 255
-0.08649628609418869 0.3727533221244812 -0.24910767376422882 0 0 255
-0.08596214652061462 0.3993911147117615 -0.1348470002412796 0 0 255
0.014379819855093956 0.4267235994338989 -0.10506492853164673 0 0 255
0.07639534026384354 0.3863774538040161 -0.05843961611390114 0 0 255
0.05849691480398178 0.3653908371925354 -0.09854277968406677 0 0 255
0.07105722278356552 0.39131680130958557 -0.13791625201702118 0 0 255
0.0653897151350975 0.36739516258239746 -0.2437867373228073 0 0 255
0.022709721699357033 0.4153245985507965 -0.27336737513542175 0 0 255
-0.02924981713294983 0.3735356032848358 -0.21588698029518127 0 0 255
