ply
format ascii 1.0
element vertex 702
property float x
property float y
property float z
property uchar red
property uchar green
property uchar blue
end_header
-0.1992327719926834 0.09233574569225311 -0.39009732007980347 0 0 255
-0.1823473870754242 0.10435312986373901 -0.39539122581481934 0 0 255
-0.16959461569786072 0.09290313720703125 -0.3787318468093872 0 0 255
-0.1699417531490326 0.09927811473608017 -0.3684411346912384 0 0 255
-0.1398629993200302 0.12272611260414124 -0.37180519104003906 0 0 255
-0.13469141721725464 0.13740360736846924 -0.38781166076660156 0 0 255
-0.09030288457870483 0.14536988735198975 -0.38686782121658325 0 0 255
-0.06139363721013069 0.14754313230514526 -0.39953622221946716 0 0 255
-0.02069229446351528 0.18150414526462555 -0.3905086815357208 0 0 255
-0.001464958069846034 0.2126118689775467 -0.3629792630672455 0 0 255
0.018954912200570107 0.244489848613739 -0.3365907371044159 0 0 255
0.05601527914404869 0.27264603972435 -0.3176301121711731 0 0 255
0.05973038449883461 0.29130837321281433 -0.3024371266365051 0 0 255
0.08120419085025787 0.26593488454818726 -0.2923339307308197 0 0 255
0.10507510602474213 0.24234303832054138 -0.29811203479766846 0 0 255
0.09577354043722153 0.22263459861278534 -0.2778606712818146 0 0 255
0.08578261733055115 0.19880379736423492 -0.24033240973949432 0 0 255
0.08547715842723846 0.20204508304595947 -0.21651414036750793 0 0 255
0.06425433605909348 0.19945955276489258 -0.2040814608335495 0 0 255
0.010172928683459759 0.18336045742034912 -0.18521976470947266 0 0 255
0.04460814595222473 0.1547868400812149 -0.18443001806735992 0 0 255
0.04297308251261711 0.16075322031974792 -0.23083017766475677 0 0 255
0.05572022125124931 0.16235697269439697 -0.25008317828178406 0 0 255
0.05017300322651863 0.16079962253570557 -0.2653307020664215 0 0 255
0.05645236000418663 0.19609394669532776 -0.263276070356369 0 0 255
0.0624389573931694 0.22095121443271637 -0.27871590852737427 0 0 255
0.1305716633796692 0.247641921043396 -0.289922297000885 0 0 255
0.14628997445106506 0.28204435110092163 -0.2883800268173218 0 0 255
0.16978555917739868 0.28478002548217773 -0.26557889580726624 0 0 255
0.1694045513868332 0.29301103949546814 -0.22696523368358612 0 0 255
0.12427385151386261 0.25694796442985535 -0.21196718513965607 0 0 255
0.11361078917980194 0.2357785999774933 -0.1692388951778412 0 0 255
0.12452797591686249 0.2030646950006485 -0.17709101736545563 0 0 255
0.17623130977153778 0.235789954662323 -0.1802574098110199 0 0 255
0.226063534617424 0.2910296320915222 -0.1452607959508896 0 0 255
0.2836279571056366 0.3042682707309723 -0.12195070832967758 0 0 255
0.32954683899879456 0.3420049846172333 -0.1099017933011055 0 0 255
0.33764317631721497 0.31717562675476074 -0.1025395318865776 0 0 255
0.35590195655822754 0.35493117570877075 -0.1044456884264946 0 0 255
0.39109450578689575 0.35186856985092163 -0.12722371518611908 0 0 255
0.3944263160228729 0.3797051012516022 -0.10795596241950989 0 0 255
0.40192148089408875 0.3557509779930115 -0.0834246426820755 0 0 255
0.41893020272254944 0.3663785755634308 -0.055608175694942474 0 0 255
0.438315212726593 0.35908007621765137 -0.024385303258895874 0 0 255
0.46040937304496765 0.3397926092147827 0.057753972709178925 0 0 255
0.4434548318386078 0.2991043031215668 0.13702669739723206 0 0 255
0.4361934959888458 0.284162700176239 0.13219909369945526 0 0 255
0.4326174557209015 0.30072715878486633 0.08868105709552765 0 0 255
0.41932958364486694 0.32960158586502075 0.04466722160577774 0 0 255
0.442682683467865 0.35477158427238464 0.021199142560362816 0 0 255
0.4550582468509674 0.36316820979118347 0.040587861090898514 0 0 255
0.4333436191082001 0.3515985608100891 0.0910431295633316 0 0 255
0.4485381543636322 0.34622788429260254 0.039908502250909805 0 0 255
0.45280930399894714 0.3533920645713806 0.007943270727992058 0 0 255
0.4233863055706024 0.3659234642982483 -0.05785917863249779 0 0 255
0.43011412024497986 0.3954879343509674 0.08980366587638855 0 0 255
0.38025084137916565 0.37557730078697205 0.15209636092185974 0 0 255
0.3335390090942383 0.27706220746040344 0.11911111325025558 0 0 255
0.29874688386917114 0.2513348460197449 0.18543104827404022 0 0 255
0.24661152064800262 0.17313805222511292 0.2525297701358795 0 0 255
0.34226009249687195 0.24791662395000458 0.31051066517829895 0 0 255
0.37251073122024536 0.23393939435482025 0.22991761565208435 0 0 255
0.330334335565567 0.20188826322555542 0.23370718955993652 0 0 255
0.29145345091819763 0.1432865858078003 0.38907963037490845 0 0 255
0.0847964882850647 -0.023238230496644974 0.4693446457386017 0 0 255
-0.11015147715806961 -0.19447477161884308 0.41073668003082275 0 0 255
-0.2251794934272766 -0.3424384593963623 0.3585829734802246 0 0 255
-0.2964803874492645 -0.37474173307418823 0.3713453710079193 0 0 255
-0.2885555326938629 -0.3998042047023773 0.3359001576900482 0 0 255
-0.2385280728340149 -0.38986891508102417 0.36915674805641174 0 0 255
-0.17273400723934174 -0.33921170234680176 0.44601088762283325 0 0 255
0.18748556077480316 -0.04421311616897583 0.38154369592666626 0 0 255
0.3463243842124939 0.24399501085281372 0.048946164548397064 0 0 255
0.3597419261932373 0.24161499738693237 -0.014660371467471123 0 0 255
0.37555748224258423 0.2743256688117981 0.020189695060253143 0 0 255
0.37032434344291687 0.2896062433719635 0.013168858364224434 0 0 255
0.34024542570114136 0.2791554927825928 0.03276202827692032 0 0 255
0.3548532724380493 0.27375900745391846 0.07905784249305725 0 0 255
0.361621230840683 0.2732624113559723 0.12041287869215012 0 0 255
0.3868953287601471 0.24203740060329437 0.1834472268819809 0 0 255
0.392526775598526 0.22586651146411896 0.15126976370811462 0 0 255
0.32891350984573364 0.24063189327716827 0.06355409324169159 0 0 255
0.35322004556655884 0.2575403153896332 0.08252118527889252 0 0 255
0.33808404207229614 0.23094698786735535 0.0841618999838829 0 0 255
0.2459610402584076 0.20589809119701385 0.2324172854423523 0 0 255
0.3453570306301117 0.20779310166835785 0.18697084486484528 0 0 255
0.43438050150871277 0.24459543824195862 0.1026841476559639 0 0 255
0.41630125045776367 0.2715826630592346 0.0419539175927639 0 0 255
0.4252616763114929 0.2718900144100189 0.03437598794698715 0 0 255
0.3983929455280304 0.3202429711818695 0.018765393644571304 0 0 255
0.4015212059020996 0.35969316959381104 -0.020283374935388565 0 0 255
0.44120728969573975 0.3353630602359772 -0.03148561716079712 0 0 255
0.4177592694759369 0.3360706567764282 -0.07925453037023544 0 0 255
0.42521530389785767 0.3262979984283447 -0.08234603703022003 0 0 255
0.406861811876297 0.36664506793022156 -0.08672239631414413 0 0 255
0.38977083563804626 0.36502620577812195 -0.16741351783275604 0 0 255
0.419401079416275 0.3644329011440277 -0.10387726873159409 0 0 255
0.415977418422699 0.38025137782096863 -0.12315556406974792 0 0 255
0.4233933687210083 0.33501628041267395 -0.09464093297719955 0 0 255
0.3777192533016205 0.34201836585998535 -0.09142895042896271 0 0 255
0.4422469735145569 0.3197381794452667 -0.08862366527318954 0 0 255
0.46899330615997314 0.24558010697364807 -0.07752256840467453 0 0 255
0.4138592481613159 0.2224762886762619 0.07371774315834045 0 0 255
0.36703094840049744 0.3036409318447113 0.13150396943092346 0 0 255
0.41499727964401245 0.234533429145813 0.0906655415892601 0 0 255
0.45697927474975586 0.21989810466766357 0.07956177741289139 0 0 255
0.4210872948169708 0.20549729466438293 0.10170664638280869 0 0 255
0.3722793161869049 0.259832501411438 0.15144214034080505 0 0 255
0.3693515956401825 0.2509615123271942 0.10035644471645355 0 0 255
0.3847920894622803 0.2912798523902893 0.073558509349823 0 0 255
0.4193803369998932 0.3181025981903076 0.061933331191539764 0 0 255
0.4220442771911621 0.2706054151058197 0.0922381803393364 0 0 255
0.2772434651851654 0.21341532468795776 0.1066148430109024 0 0 255
0.19741171598434448 0.13114266097545624 0.179387167096138 0 0 255
0.12829262018203735 -0.010364629328250885 0.3228541910648346 0 0 255
-0.008146868087351322 -0.11102956533432007 0.4422578811645508 0 0 255
0.06645601242780685 -0.13552789390087128 0.49839848279953003 0 0 255
0.18139803409576416 -0.1032252311706543 0.4348675012588501 0 0 255
0.3439953327178955 0.030520062893629074 0.33310046792030334 0 0 255
0.3622431457042694 0.1503385454416275 0.24303710460662842 0 0 255
0.34893354773521423 0.14102613925933838 0.19151145219802856 0 0 255
0.2542385458946228 0.04595488682389259 0.2931152880191803 0 0 255
0.1652994006872177 0.05213003233075142 0.3229694366455078 0 0 255
0.13850820064544678 -0.01559385284781456 0.35532334446907043 0 0 255
0.12746036052703857 -0.02335822395980358 0.3614580035209656 0 0 255
0.10651599615812302 -0.05696136876940727 0.3609764277935028 0 0 255
0.06612993031740189 -0.09013035893440247 0.399332195520401 0 0 255
0.05264636501669884 -0.11439384520053864 0.41925016045570374 0 0 255
0.05616871267557144 -0.13636337220668793 0.4241110384464264 0 0 255
0.08221548795700073 -0.12092595547437668 0.41827693581581116 0 0 255
0.1260097324848175 -0.09863578528165817 0.40533220767974854 0 0 255
0.13527756929397583 -0.08707290887832642 0.4079407751560211 0 0 255
0.14136628806591034 -0.06147616356611252 0.413630872964859 0 0 255
0.1444607526063919 -0.0675358921289444 0.419859379529953 0 0 255
0.14085544645786285 -0.05671760439872742 0.435263454914093 0 0 255
0.16450947523117065 -0.07833255082368851 0.4516890347003937 0 0 255
0.18646767735481262 -0.10120594501495361 0.43621766567230225 0 0 255
0.08007585257291794 -0.14702685177326202 0.436107337474823 0 0 255
0.02925046533346176 -0.09652964770793915 0.459770530462265 0 0 255
0.13169671595096588 -0.11878053098917007 0.4404743015766144 0 0 255
0.15842053294181824 -0.11127705127000809 0.42595842480659485 0 0 255
0.20038269460201263 -0.04331342130899429 0.39482173323631287 0 0 255
0.18202267587184906 0.0010843707714229822 0.3696054518222809 0 0 255
0.199997678399086 -0.016888750717043877 0.33958300948143005 0 0 255
0.18630321323871613 -0.12663748860359192 0.26426374912261963 0 0 255
0.09164796024560928 -0.01231404859572649 -0.05087251588702202 0 0 255
0.0691847875714302 0.11189298331737518 -0.41100460290908813 0 0 255
0.09456595778465271 0.12019280344247818 -0.37556830048561096 0 0 255
0.08591929823160172 0.2338646650314331 -0.28209298849105835 0 0 255
0.33657437562942505 0.2697157859802246 -0.186945378780365 0 0 255
0.4313620328903198 0.27509835362434387 -0.048793841153383255 0 0 255
0.4528689682483673 0.252719908952713 0.0281770471483469 0 0 255
0.4587309658527374 0.2704335153102875 0.10572374612092972 0 0 255
0.4619273841381073 0.2497909963130951 0.13038122653961182 0 0 255
0.4652674198150635 0.24965883791446686 0.14792580902576447 0 0 255
0.4829883873462677 0.2666710615158081 0.16801950335502625 0 0 255
0.4641559422016144 0.2533544600009918 0.1665342003107071 0 0 255
0.4715404808521271 0.24798622727394104 0.191517636179924 0 0 255
0.4562075734138489 0.22059796750545502 0.19062265753746033 0 0 255
0.430518239736557 0.21906714141368866 0.21675530076026917 0 0 255
0.4252203404903412 0.21614275872707367 0.21214072406291962 0 0 255
0.4374443292617798 0.22870184481143951 0.19583448767662048 0 0 255
0.4336295425891876 0.2314659208059311 0.17584574222564697 0 0 255
0.44545409083366394 0.23524995148181915 0.15657345950603485 0 0 255
0.42446279525756836 0.23837824165821075 0.16162461042404175 0 0 255
0.44281092286109924 0.24630774557590485 0.14150694012641907 0 0 255
0.45539575815200806 0.2559262812137604 0.122341088950634 0 0 255
0.44383034110069275 0.2594405710697174 0.09892053157091141 0 0 255
0.4453524947166443 0.27210569381713867 0.04272571951150894 0 0 255
0.4391595721244812 0.25563883781433105 0.07931982725858688 0 0 255
0.4097459316253662 0.2413940280675888 0.0834617018699646 0 0 255
0.43453723192214966 0.22609148919582367 0.08592105656862259 0 0 255
0.4451218247413635 0.21890462934970856 0.0796549990773201 0 0 255
0.44864436984062195 0.2665521502494812 0.07428794354200363 0 0 255
0.458190381526947 0.281354159116745 0.02074497751891613 0 0 255
0.46315866708755493 0.29261162877082825 -0.005491575226187706 0 0 255
0.4569517970085144 0.30984416604042053 -0.02073194831609726 0 0 255
0.44412004947662354 0.29642459750175476 -0.026977185159921646 0 0 255
0.43620869517326355 0.29542839527130127 -0.031347114592790604 0 0 255
0.4378683269023895 0.29639357328414917 -0.03020521253347397 0 0 255
0.4290587604045868 0.29123732447624207 -0.015092388726770878 0 0 255
0.4416617751121521 0.280626118183136 -0.022444991394877434 0 0 255
0.4407642185688019 0.295791357755661 0.0026603657752275467 0 0 255
0.4323958158493042 0.2727826237678528 -0.02199571207165718 0 0 255
0.42437106370925903 0.2669101059436798 -0.01579347625374794 0 0 255
0.41876718401908875 0.25337544083595276 -0.08836659789085388 0 0 255
0.3932425081729889 0.27055618166923523 -0.23851384222507477 0 0 255
0.406472772359848 0.30428946018218994 -0.31205418705940247 0 0 255
0.3864499032497406 0.3307301700115204 -0.45202508568763733 0 0 255
0.36838269233703613 0.37425854802131653 -0.4506462514400482 0 0 255
0.35518738627433777 0.39972245693206787 -0.4566907584667206 0 0 255
0.3674250543117523 0.3842002749443054 -0.41310572624206543 0 0 255
0.38074514269828796 0.3820761740207672 -0.42633476853370667 0 0 255
0.3880637586116791 0.4042711555957794 -0.4124532639980316 0 0 255
0.37977316975593567 0.3962503969669342 -0.37248000502586365 0 0 255
0.38124415278434753 0.38051632046699524 -0.3767443895339966 0 0 255
0.385332316160202 0.3819971978664398 -0.337568074464798 0 0 255
0.37970882654190063 0.39194461703300476 -0.3231929838657379 0 0 255
0.3935803771018982 0.37853267788887024 -0.3106478452682495 0 0 255
0.39174792170524597 0.39121153950691223 -0.2946147918701172 0 0 255
0.3883378505706787 0.4108726978302002 -0.3150192201137543 0 0 255
0.38766708970069885 0.4135754108428955 -0.2956360876560211 0 0 255
0.38089239597320557 0.41232049465179443 -0.30944642424583435 0 0 255
0.3882221579551697 0.4033922553062439 -0.323812335729599 0 0 255
0.3805229663848877 0.4059869647026062 -0.3410634398460388 0 0 255
0.3746168911457062 0.40749257802963257 -0.34233272075653076 0 0 255
0.3723018765449524 0.4081727862358093 -0.3479529619216919 0 0 255
0.3672509491443634 0.4291846454143524 -0.35025903582572937 0 0 255
0.3800332844257355 0.42106667160987854 -0.35385581851005554 0 0 255
0.3910694718360901 0.4053287208080292 -0.3710517883300781 0 0 255
0.3869205117225647 0.40442150831222534 -0.3490307033061981 0 0 255
0.3970574140548706 0.402555376291275 -0.32778629660606384 0 0 255
0.40772753953933716 0.38942286372184753 -0.2968539893627167 0 0 255
0.4163883328437805 0.38499170541763306 -0.28033798933029175 0 0 255
0.4253815710544586 0.3742707669734955 -0.25655168294906616 0 0 255
0.41644036769866943 0.37801823019981384 -0.26573270559310913 0 0 255
0.42219921946525574 0.3928107023239136 -0.23843695223331451 0 0 255
0.4071800708770752 0.3726617991924286 -0.22158972918987274 0 0 255
0.4021514356136322 0.37539446353912354 -0.21805764734745026 0 0 255
0.39092007279396057 0.38019174337387085 -0.2280413955450058 0 0 255
0.3856343924999237 0.3908468186855316 -0.2302982211112976 0 0 255
0.395209401845932 0.3727038502693176 -0.21984386444091797 0 0 255
0.38693541288375854 0.3706737160682678 -0.2240229994058609 0 0 255
0.3715550899505615 0.3803436756134033 -0.21803325414657593 0 0 255
0.37795212864875793 0.371378093957901 -0.22241950035095215 0 0 255
0.3736717998981476 0.37256476283073425 -0.21331797540187836 0 0 255
0.3697276711463928 0.39895299077033997 -0.21720021963119507 0 0 255
0.3981606960296631 0.4119572341442108 -0.21404889225959778 0 0 255
0.3880191147327423 0.3838581442832947 -0.16475984454154968 0 0 255
0.37163034081459045 0.36938217282295227 -0.1332048922777176 0 0 255
0.35841771960258484 0.331928551197052 -0.314034640789032 0 0 255
0.08952002972364426 0.23034203052520752 -0.3847578465938568 0 0 255
-0.12522052228450775 0.18472698330879211 -0.45916542410850525 0 0 255
-0.2891843020915985 -0.009672810323536396 -0.3931068181991577 0 0 255
-0.42451992630958557 -0.11863745748996735 -0.2262306958436966 0 0 255
-0.43434014916419983 -0.1543130725622177 -0.14928890764713287 0 0 255
-0.4798053503036499 -0.21567143499851227 -0.14079001545906067 0 0 255
-0.4534033238887787 -0.21612732112407684 -0.1307826191186905 0 0 255
-0.43332186341285706 -0.2263241410255432 -0.15017865598201752 0 0 255
-0.42043837904930115 -0.2324621081352234 -0.1697937399148941 0 0 255
-0.4391613006591797 -0.23500806093215942 -0.14424532651901245 0 0 255
-0.4339240789413452 -0.24249927699565887 -0.12014126777648926 0 0 255
-0.43669524788856506 -0.2702041268348694 -0.06469490379095078 0 0 255
-0.4495956599712372 -0.2800920605659485 0.0039410158060491085 0 0 255
-0.4485451877117157 -0.3072298467159271 0.04557814821600914 0 0 255
-0.44168880581855774 -0.3202964663505554 0.08204200863838196 0 0 255
-0.4570515751838684 -0.3365292549133301 0.10807033628225327 0 0 255
-0.4441874623298645 -0.344681978225708 0.09975689649581909 0 0 255
-0.4359562397003174 -0.34902456402778625 0.0908144935965538 0 0 255
-0.44738203287124634 -0.341022789478302 0.08336979150772095 0 0 255
-0.4517832398414612 -0.3333037793636322 0.07783955335617065 0 0 255
-0.4653817415237427 -0.3365604877471924 0.057940926402807236 0 0 255
-0.4611579179763794 -0.3383973240852356 0.0378323532640934 0 0 255
-0.47178712487220764 -0.32832878828048706 0.018009746447205544 0 0 255
-0.4625813364982605 -0.3121735453605652 -0.018526706844568253 0 0 255
-0.44769445061683655 -0.26531413197517395 -0.07889346033334732 0 0 255
-0.451730340719223 -0.24554389715194702 -0.12442854791879654 0 0 255
-0.4632454812526703 -0.2210196703672409 -0.12159416824579239 0 0 255
-0.46230757236480713 -0.1974581629037857 -0.12159808725118637 0 0 255
-0.48386067152023315 -0.19107869267463684 -0.08898010849952698 0 0 255
-0.48049116134643555 -0.2540489733219147 -0.053201016038656235 0 0 255
-0.4496365189552307 -0.3088516294956207 -0.021085692569613457 0 0 255
-0.4584154188632965 -0.3321446180343628 0.003985182847827673 0 0 255
-0.43888068199157715 -0.34258410334587097 0.018277360126376152 0 0 255
-0.40528273582458496 -0.35893958806991577 0.033252038061618805 0 0 255
-0.4050866365432739 -0.3555333614349365 0.06728983670473099 0 0 255
-0.4114956557750702 -0.35209760069847107 0.0953945741057396 0 0 255
-0.4180208444595337 -0.3581698536872864 0.12082981318235397 0 0 255
-0.3858661651611328 -0.3874775171279907 0.15409961342811584 0 0 255
-0.38530996441841125 -0.3703112006187439 0.1930808275938034 0 0 255
-0.4080672562122345 -0.35974255204200745 0.20195594429969788 0 0 255
-0.41468629240989685 -0.3413762152194977 0.13525600731372833 0 0 255
-0.42261990904808044 -0.33339330554008484 0.034242331981658936 0 0 255
-0.4201548397541046 -0.29219263792037964 -0.0876777395606041 0 0 255
-0.39588502049446106 -0.19948559999465942 -0.20731940865516663 0 0 255
-0.34480205178260803 -0.06252000480890274 -0.30191928148269653 0 0 255
-0.24755357205867767 0.07215709984302521 -0.3517034947872162 0 0 255
-0.2005472183227539 0.1386484056711197 -0.3802347183227539 0 0 255
-0.15627099573612213 0.17324811220169067 -0.39418208599090576 0 0 255
-0.1560395359992981 0.1880788803100586 -0.40603119134902954 0 0 255
-0.23336255550384521 0.14392805099487305 -0.3816116154193878 0 0 255
-0.3051775395870209 0.0036599626764655113 -0.36995014548301697 0 0 255
-0.3634865880012512 -0.14564713835716248 -0.30418696999549866 0 0 255
-0.4096930921077728 -0.22890505194664001 -0.20082354545593262 0 0 255
-0.43345165252685547 -0.27604225277900696 -0.14548230171203613 0 0 255
-0.44499555230140686 -0.3115788698196411 -0.12950153648853302 0 0 255
-0.4567883014678955 -0.31770166754722595 -0.14650076627731323 0 0 255
-0.4654316306114197 -0.31471487879753113 -0.1372314989566803 0 0 255
-0.48218071460723877 -0.31407594680786133 -0.13057470321655273 0 0 255
-0.47361037135124207 -0.3210696280002594 -0.14250250160694122 0 0 255
-0.46415895223617554 -0.34275925159454346 -0.15242215991020203 0 0 255
-0.4786052107810974 -0.3225018382072449 -0.12156376242637634 0 0 255
-0.49403858184814453 -0.3029029071331024 -0.1115645170211792 0 0 255
-0.4998539090156555 -0.3103387951850891 -0.09261485934257507 0 0 255
-0.49796903133392334 -0.34693431854248047 -0.04596333205699921 0 0 255
-0.45418351888656616 -0.35377126932144165 -0.014582041651010513 0 0 255
-0.4144192337989807 -0.3755074441432953 -0.022937221452593803 0 0 255
-0.4247916042804718 -0.35297083854675293 -0.05034952238202095 0 0 255
-0.44184696674346924 -0.2890930473804474 -0.11096996814012527 0 0 255
-0.4447590708732605 -0.27394744753837585 -0.18153375387191772 0 0 255
-0.4634229242801666 -0.2764397859573364 -0.1692485213279724 0 0 255
-0.4583474397659302 -0.32639050483703613 -0.10999558866024017 0 0 255
-0.4892246127128601 -0.3534407317638397 -0.06859204173088074 0 0 255
-0.48686131834983826 -0.34688106179237366 -0.0502580925822258 0 0 255
-0.47629988193511963 -0.3572026193141937 -0.023346303030848503 0 0 255
-0.47306132316589355 -0.36502763628959656 -0.00023209907521959394 0 0 255
-0.46568429470062256 -0.37910208106040955 0.023547343909740448 0 0 255
-0.46017587184906006 -0.39924684166908264 0.059634387493133545 0 0 255
-0.474849134683609 -0.3868272304534912 0.06197592243552208 0 0 255
-0.4756722152233124 -0.36173155903816223 0.03185536712408066 0 0 255
-0.45838499069213867 -0.3454821705818176 -0.05531305819749832 0 0 255
-0.450519859790802 -0.28846919536590576 -0.11943012475967407 0 0 255
-0.24171169102191925 -0.1034156084060669 -0.18403293192386627 0 0 255
-0.2266583889722824 0.009282154962420464 -0.2429254651069641 0 0 255
-0.17833474278450012 0.007653636857867241 -0.3016233742237091 0 0 255
-0.11201899498701096 0.02959744818508625 -0.4032473564147949 0 0 255
-0.10184058547019958 0.1222701147198677 -0.4039309024810791 0 0 255
-0.021139662712812424 0.18702082335948944 -0.4002271890640259 0 0 255
0.0209270641207695 0.21148860454559326 -0.38515394926071167 0 0 255
0.05203654617071152 0.22720839083194733 -0.3739161193370819 0 0 255
0.06512612104415894 0.23138156533241272 -0.35799700021743774 0 0 255
0.08337332308292389 0.2250344157218933 -0.34412404894828796 0 0 255
0.04402909055352211 0.20900167524814606 -0.33390530943870544 0 0 255
0.024831604212522507 0.1931537687778473 -0.34514448046684265 0 0 255
0.013548461720347404 0.20767858624458313 -0.35807234048843384 0 0 255
0.029843084514141083 0.2257646918296814 -0.33996570110321045 0 0 255
0.04743018001317978 0.2210901975631714 -0.33282768726348877 0 0 255
0.05567971616983414 0.22249580919742584 -0.33029916882514954 0 0 255
0.07612582296133041 0.21637465059757233 -0.3360236585140228 0 0 255
0.07958436012268066 0.22935180366039276 -0.32759422063827515 0 0 255
0.11856920272111893 0.19950881600379944 -0.287905216217041 0 0 255
0.09043297916650772 0.19700421392917633 -0.26687610149383545 0 0 255
0.1517162173986435 0.21766811609268188 -0.21852919459342957 0 0 255
0.1320277899503708 0.2360975444316864 -0.20592257380485535 0 0 255
0.14297860860824585 0.27027302980422974 -0.17974528670310974 0 0 255
0.13366413116455078 0.3050229847431183 -0.15756773948669434 0 0 255
0.04815419390797615 0.2819092571735382 -0.1478310227394104 0 0 255
-0.06358177214860916 0.29157522320747375 -0.11793122440576553 0 0 255
-0.1080360859632492 0.25836634635925293 -0.1493515819311142 0 0 255
-0.10666663199663162 0.22328314185142517 -0.14360417425632477 0 0 255
-0.13170363008975983 0.22206571698188782 -0.13678894937038422 0 0 255
-0.131760835647583 0.19893883168697357 -0.16552698612213135 0 0 255
-0.09843293577432632 0.2172601968050003 -0.15155059099197388 0 0 255
-0.10595113784074783 0.20378011465072632 -0.18456238508224487 0 0 255
-0.07768165320158005 0.18748551607131958 -0.2412531077861786 0 0 255
-0.13475669920444489 0.22145244479179382 -0.25009751319885254 0 0 255
-0.11206204444169998 0.23901313543319702 -0.24908292293548584 0 0 255
-0.0920560359954834 0.23571524024009705 -0.29733651876449585 0 0 255
-0.03834483027458191 0.2464742660522461 -0.3138631582260132 0 0 255
-0.08344245702028275 0.2438896894454956 -0.38554394245147705 0 0 255
-0.09236475080251694 0.24042366445064545 -0.39694318175315857 0 0 255
-0.11109337955713272 0.23147934675216675 -0.3889532685279846 0 0 255
-0.07810412347316742 0.23921272158622742 -0.4003046751022339 0 0 255
-0.03629367798566818 0.22705236077308655 -0.3863289952278137 0 0 255
-0.0297236330807209 0.2433951497077942 -0.37359654903411865 0 0 255
-0.057614102959632874 0.23152916133403778 -0.3689180612564087 0 0 255
-0.07501992583274841 0.22242921590805054 -0.35185307264328003 0 0 255
-0.07841238379478455 0.21927174925804138 -0.32748663425445557 0 0 255
-0.06695448607206345 0.2348472774028778 -0.30370238423347473 0 0 255
-0.057364024221897125 0.23904241621494293 -0.292835533618927 0 0 255
-0.0318155400454998 0.25629159808158875 -0.27657726407051086 0 0 255
-0.016978709027171135 0.26293256878852844 -0.2565094828605652 0 0 255
0.009423390030860901 0.2590387761592865 -0.24074439704418182 0 0 255
0.02733125537633896 0.24354036152362823 -0.23376797139644623 0 0 255
0.027097098529338837 0.23331965506076813 -0.23510800302028656 0 0 255
0.038277916610240936 0.23533448576927185 -0.2244223952293396 0 0 255
0.027471188455820084 0.2423533797264099 -0.21376675367355347 0 0 255
0.03481899946928024 0.2536528706550598 -0.2183007448911667 0 0 255
0.04840045049786568 0.24717651307582855 -0.2076423466205597 0 0 255
0.05277227982878685 0.24560324847698212 -0.2008637636899948 0 0 255
0.06241016089916229 0.24841678142547607 -0.19147223234176636 0 0 255
0.05821308493614197 0.2479671835899353 -0.17813175916671753 0 0 255
0.055033210664987564 0.24850314855575562 -0.1702599972486496 0 0 255
0.051176413893699646 0.2439107447862625 -0.16768993437290192 0 0 255
0.052448857575654984 0.23011913895606995 -0.17502470314502716 0 0 255
0.05048753321170807 0.22573325037956238 -0.19191278517246246 0 0 255
0.06343529373407364 0.21597005426883698 -0.20155209302902222 0 0 255
0.026547225192189217 0.2304103821516037 -0.18213500082492828 0 0 255
0.05497569218277931 0.236663356423378 -0.16277460753917694 0 0 255
0.08352795243263245 0.22270305454730988 -0.19526781141757965 0 0 255
0.08773915469646454 0.22273632884025574 -0.23297445476055145 0 0 255
0.0836910605430603 0.20975440740585327 -0.2400410920381546 0 0 255
0.05525241792201996 0.21501047909259796 -0.2508438527584076 0 0 255
0.06945853680372238 0.23840956389904022 -0.22820866107940674 0 0 255
0.05607081204652786 0.25014910101890564 -0.20753780007362366 0 0 255
0.04363756626844406 0.23886948823928833 -0.1948830485343933 0 0 255
0.05072672665119171 0.23101776838302612 -0.1914278119802475 0 0 255
0.012119143269956112 0.23569278419017792 -0.1958765834569931 0 0 255
0.0025734715163707733 0.22338593006134033 -0.21096967160701752 0 0 255
-0.01045935694128275 0.21115358173847198 -0.23642222583293915 0 0 255
-0.0023326193913817406 0.214019775390625 -0.24331949651241302 0 0 255
0.032536134123802185 0.23943136632442474 -0.23866267502307892 0 0 255
0.04907499626278877 0.237859308719635 -0.23119965195655823 0 0 255
0.07138823717832565 0.24299925565719604 -0.1923663318157196 0 0 255
0.10755369812250137 0.2601386308670044 -0.17136992514133453 0 0 255
0.12190612405538559 0.26329559087753296 -0.13949760794639587 0 0 255
0.10780949890613556 0.26318398118019104 -0.1398957073688507 0 0 255
0.15154580771923065 0.27614566683769226 -0.16533291339874268 0 0 255
0.11541386693716049 0.30222728848457336 -0.15251389145851135 0 0 255
0.08939904719591141 0.2914482653141022 -0.09821046888828278 0 0 255
0.0837431252002716 0.2841354310512543 -0.027888575568795204 0 0 255
0.04281403869390488 0.2882503867149353 0.013054892420768738 0 0 255
0.0073975929990410805 0.3074966073036194 0.027355143800377846 0 0 255
-0.03164689615368843 0.3043840527534485 0.012298841960728168 0 0 255
-0.023402756080031395 0.25218573212623596 -0.08859797567129135 0 0 255
-0.042591556906700134 0.23284006118774414 -0.16829554736614227 0 0 255
-0.09477145969867706 0.22893862426280975 -0.20928393304347992 0 0 255
-0.11370738595724106 0.20070534944534302 -0.23721130192279816 0 0 255
-0.11328743398189545 0.17650234699249268 -0.28269919753074646 0 0 255
-0.11285349726676941 0.17153367400169373 -0.3131067752838135 0 0 255
-0.03433975949883461 0.22590935230255127 -0.3149228096008301 0 0 255
0.012433481402695179 0.28505948185920715 -0.27903997898101807 0 0 255
0.09303554147481918 0.2786981761455536 -0.22060757875442505 0 0 255
0.1520794928073883 0.24849385023117065 -0.14566653966903687 0 0 255
0.1424713432788849 0.24965907633304596 -0.0792175680398941 0 0 255
0.21386896073818207 0.28737547993659973 -0.010240541771054268 0 0 255
0.23498325049877167 0.29992470145225525 0.015217572450637817 0 0 255
0.261076420545578 0.2809644341468811 0.020805666223168373 0 0 255
0.2534395158290863 0.2100004106760025 0.030791472643613815 0 0 255
0.18646091222763062 0.15996208786964417 0.05953817814588547 0 0 255
0.08242576569318771 0.13326770067214966 0.004849348682910204 0 0 255
0.045788735151290894 0.175892636179924 -0.019521638751029968 0 0 255
0.014228723011910915 0.18562792241573334 -0.023116569966077805 0 0 255
0.11902546137571335 0.18275919556617737 -0.004699322395026684 0 0 255
0.14212945103645325 0.18375630676746368 0.04965227097272873 0 0 255
0.16173727810382843 0.1753770112991333 0.03599090501666069 0 0 255
0.2408667504787445 0.19808241724967957 0.004379499703645706 0 0 255
0.2127632200717926 0.2176981121301651 0.04229418560862541 0 0 255
0.2236453890800476 0.26935458183288574 0.11328989267349243 0 0 255
0.22319822013378143 0.22491726279258728 0.21641206741333008 0 0 255
0.16060961782932281 0.13570326566696167 0.2663927972316742 0 0 255
0.17487017810344696 0.12723465263843536 0.3116331398487091 0 0 255
0.020456379279494286 0.17274509370326996 0.2733781337738037 0 0 255
0.24974316358566284 0.20572935044765472 0.14428839087486267 0 0 255
0.2044929414987564 0.16866044700145721 0.19672420620918274 0 0 255
0.20216652750968933 0.17060282826423645 0.18162205815315247 0 0 255
0.2059222310781479 0.20811951160430908 0.023120006546378136 0 0 255
0.31887438893318176 0.2742493152618408 0.00692993588745594 0 0 255
0.2741015553474426 0.28407230973243713 -0.006120591890066862 0 0 255
0.2950984835624695 0.285370796918869 0.012940019369125366 0 0 255
0.3476223647594452 0.2978803515434265 0.00279011158272624 0 0 255
0.4416404068470001 0.36175498366355896 -0.0614623948931694 0 0 255
0.45841389894485474 0.40612849593162537 -0.07063677906990051 0 0 255
0.47130221128463745 0.44092729687690735 -0.029872983694076538 0 0 255
0.4797593653202057 0.3761134445667267 0.03986068069934845 0 0 255
0.42782047390937805 0.3535655438899994 0.18066547811031342 0 0 255
0.39439499378204346 0.3463767468929291 0.20678113400936127 0 0 255
0.4231290817260742 0.29216840863227844 0.2254261076450348 0 0 255
0.4217643141746521 0.29344263672828674 0.2420782446861267 0 0 255
0.4298346936702728 0.2890736162662506 0.2666586935520172 0 0 255
0.44584059715270996 0.2836361527442932 0.25175559520721436 0 0 255
0.4532138705253601 0.2911807596683502 0.24723085761070251 0 0 255
0.43487340211868286 0.2913760840892792 0.2618408501148224 0 0 255
0.4315451681613922 0.2716740369796753 0.27125394344329834 0 0 255
0.4499807357788086 0.28624916076660156 0.2648187577724457 0 0 255
0.4562617540359497 0.29711130261421204 0.2797730267047882 0 0 255
0.45435619354248047 0.3100953698158264 0.27659350633621216 0 0 255
0.44520875811576843 0.31061848998069763 0.2611474096775055 0 0 255
0.4599778354167938 0.2975974380970001 0.21104590594768524 0 0 255
0.4633486866950989 0.2887609899044037 0.21554242074489594 0 0 255
0.44284388422966003 0.27906593680381775 0.23805798590183258 0 0 255
0.45684388279914856 0.2635047137737274 0.23765787482261658 0 0 255
0.4573058784008026 0.2713247537612915 0.24418698251247406 0 0 255
0.4462582468986511 0.2626595199108124 0.23544852435588837 0 0 255
0.4279615581035614 0.2684943974018097 0.24172692000865936 0 0 255
0.43932393193244934 0.3063484728336334 0.1787327378988266 0 0 255
0.48043736815452576 0.3045095205307007 0.1495750993490219 0 0 255
0.471560537815094 0.3197641968727112 0.17402148246765137 0 0 255
0.46061432361602783 0.28128159046173096 0.24441665410995483 0 0 255
0.465149849653244 0.2660793662071228 0.2560400068759918 0 0 255
0.48028188943862915 0.23128725588321686 0.27681100368499756 0 0 255
0.4855026602745056 0.21111929416656494 0.2929336130619049 0 0 255
0.4605960547924042 0.21915270388126373 0.29209816455841064 0 0 255
0.47278276085853577 0.24612024426460266 0.2783482074737549 0 0 255
0.46923449635505676 0.23601466417312622 0.2770638167858124 0 0 255
0.4467098116874695 0.21166105568408966 0.30320990085601807 0 0 255
0.4225561320781708 0.21256780624389648 0.3384263217449188 0 0 255
0.44549572467803955 0.23707975447177887 0.2864968776702881 0 0 255
0.4232873320579529 0.23356489837169647 0.2988490164279938 0 0 255
0.3994287848472595 0.2095676064491272 0.346065878868103 0 0 255
0.3917311429977417 0.20287008583545685 0.33095401525497437 0 0 255
0.42856231331825256 0.24008671939373016 0.30829596519470215 0 0 255
0.4632968604564667 0.2732508182525635 0.25071218609809875 0 0 255
0.44382017850875854 0.2883669435977936 0.23277853429317474 0 0 255
0.44378355145454407 0.3085823357105255 0.22018684446811676 0 0 255
0.45814594626426697 0.29241743683815 0.22270621359348297 0 0 255
0.46762654185295105 0.28330567479133606 0.24517227709293365 0 0 255
0.4539010524749756 0.26064369082450867 0.2796616554260254 0 0 255
0.44261670112609863 0.26461854577064514 0.273572713136673 0 0 255
0.4256408214569092 0.28251636028289795 0.28443071246147156 0 0 255
0.4139767587184906 0.27569717168807983 0.27898553013801575 0 0 255
0.4418083131313324 0.2570119798183441 0.2744942307472229 0 0 255
0.42876511812210083 0.23963771760463715 0.29503610730171204 0 0 255
0.4128432273864746 0.20115095376968384 0.34025534987449646 0 0 255
0.4104965627193451 0.19698888063430786 0.33126595616340637 0 0 255
0.4064698815345764 0.18734586238861084 0.3113435208797455 0 0 255
0.3795520067214966 0.17912839353084564 0.3060644268989563 0 0 255
0.3591655194759369 0.16043685376644135 0.32587334513664246 0 0 255
0.3449459373950958 0.12932592630386353 0.3477056324481964 0 0 255
0.3138836622238159 0.08757402747869492 0.32266125082969666 0 0 255
0.31571513414382935 0.1083032637834549 0.2986225187778473 0 0 255
0.33332550525665283 0.1332254558801651 0.2933189272880554 0 0 255
0.3441804051399231 0.13713496923446655 0.25595399737358093 0 0 255
0.34313637018203735 0.17097344994544983 0.233917698264122 0 0 255
0.34530559182167053 0.17460495233535767 0.24429643154144287 0 0 255
0.3615625202655792 0.18774542212486267 0.2464706152677536 0 0 255
0.357055127620697 0.17836283147335052 0.2617003917694092 0 0 255
0.34277310967445374 0.1870187371969223 0.25276538729667664 0 0 255
0.3409533202648163 0.16351449489593506 0.2719244956970215 0 0 255
0.31671619415283203 0.13629598915576935 0.33657118678092957 0 0 255
0.27047085762023926 0.09786143898963928 0.39258307218551636 0 0 255
0.22937074303627014 0.07109452784061432 0.4550011456012726 0 0 255
0.1923205405473709 -0.00032454836764372885 0.46939969062805176 0 0 255
0.130137637257576 -0.07912016659975052 0.5169828534126282 0 0 255
0.060260094702243805 -0.12407416105270386 0.5472923517227173 0 0 255
0.015188422985374928 -0.1909945011138916 0.5357521176338196 0 0 255
-0.03554179146885872 -0.20234638452529907 0.5320706963539124 0 0 255
-0.060497742146253586 -0.2333202213048935 0.5601563453674316 0 0 255
-0.14299823343753815 -0.27664855122566223 0.5600846409797668 0 0 255
-0.18478623032569885 -0.20301109552383423 0.40314221382141113 0 0 255
-0.28739315271377563 -0.1843365579843521 0.15544763207435608 0 0 255
-0.30870571732521057 -0.09329809993505478 0.016729066148400307 0 0 255
-0.17103208601474762 -0.07394225895404816 -0.007650589104741812 0 0 255
-0.12747080624103546 -0.08295929431915283 0.08960510790348053 0 0 255
-0.1186968982219696 -0.052504368126392365 0.15360888838768005 0 0 255
-0.026348643004894257 -0.06586720049381256 0.2241750806570053 0 0 255
-0.021617835387587547 -0.10110969841480255 0.2664581835269928 0 0 255
-0.02529791183769703 -0.13171735405921936 0.29839956760406494 0 0 255
-0.060342684388160706 -0.16365297138690948 0.3079378306865692 0 0 255
-0.07307378202676773 -0.17877355217933655 0.3049793541431427 0 0 255
-0.09267764538526535 -0.18329527974128723 0.30780190229415894 0 0 255
-0.11079666018486023 -0.1750587373971939 0.3125387728214264 0 0 255
-0.10034428536891937 -0.21136325597763062 0.3175775408744812 0 0 255
-0.09638769924640656 -0.2159772366285324 0.2775557339191437 0 0 255
-0.024685204029083252 -0.18507778644561768 0.2771891951560974 0 0 255
0.05468898266553879 -0.1580139845609665 0.3277473449707031 0 0 255
0.080772265791893 -0.1326896697282791 0.3439086079597473 0 0 255
0.093845434486866 -0.06986586004495621 0.33075737953186035 0 0 255
0.1250387579202652 0.004495619330555201 0.3332982063293457 0 0 255
0.2279984951019287 0.05931306257843971 0.2918432056903839 0 0 255
0.2804226577281952 0.12782886624336243 0.2414497286081314 0 0 255
0.31951412558555603 0.1649964302778244 0.22081482410430908 0 0 255
0.3509395718574524 0.18782012164592743 0.17902658879756927 0 0 255
0.4411848187446594 0.19745367765426636 0.09825647622346878 0 0 255
0.4268658757209778 0.18662941455841064 0.10611867159605026 0 0 255
0.3858460783958435 0.21316245198249817 0.09929043054580688 0 0 255
0.36703187227249146 0.17039744555950165 0.04799402877688408 0 0 255
0.310665100812912 0.165059432387352 0.03129613772034645 0 0 255
0.3214190602302551 0.1863933503627777 0.015075942501425743 0 0 255
0.3387798070907593 0.1910666972398758 0.01978752389550209 0 0 255
0.3450947701931 0.2088049054145813 0.016110921278595924 0 0 255
0.33768680691719055 0.20601020753383636 0.03200271353125572 0 0 255
0.29504212737083435 0.16481563448905945 0.09879016131162643 0 0 255
0.2977919280529022 0.14584040641784668 0.09916982799768448 0 0 255
0.3226725459098816 0.16200079023838043 0.1614566147327423 0 0 255
0.3788972496986389 0.1624794900417328 0.18684764206409454 0 0 255
0.2948438823223114 0.1734822392463684 0.19731301069259644 0 0 255
0.38522422313690186 0.2694352865219116 0.15186114609241486 0 0 255
0.43706485629081726 0.28020256757736206 0.14052091538906097 0 0 255
0.2656041979789734 0.1916302889585495 0.17971357703208923 0 0 255
0.3264177143573761 0.268677681684494 0.098783478140831 0 0 255
0.3896471858024597 0.18181197345256805 -0.15662702918052673 0 0 255
0.32790902256965637 0.3201179802417755 -0.02285781130194664 0 0 255
0.3826996088027954 0.38177379965782166 -0.11811575293540955 0 0 255
0.4255741834640503 0.374301016330719 -0.04425092041492462 0 0 255
0.4405333995819092 0.358536958694458 -0.018390092998743057 0 0 255
0.4545852541923523 0.29718685150146484 -0.0003787559689953923 0 0 255
0.42554280161857605 0.29372847080230713 0.03966522961854935 0 0 255
0.4225887060165405 0.3063337206840515 0.04772616922855377 0 0 255
0.414392352104187 0.3082904815673828 0.06760641187429428 0 0 255
0.4131993353366852 0.2959707975387573 0.09585800766944885 0 0 255
0.40388864278793335 0.24555298686027527 0.15012232959270477 0 0 255
0.36249876022338867 0.2091723531484604 0.2100963443517685 0 0 255
0.28245851397514343 0.14506274461746216 0.24881331622600555 0 0 255
0.1185314804315567 0.06244504824280739 0.2721295654773712 0 0 255
-0.09170398861169815 -0.08430368453264236 0.29737207293510437 0 0 255
-0.22515057027339935 -0.2126578390598297 0.2904493808746338 0 0 255
-0.2894463837146759 -0.22166095674037933 0.32192790508270264 0 0 255
0.022890286520123482 -0.027570733800530434 0.4542280435562134 0 0 255
0.31672126054763794 0.11062538623809814 0.40742605924606323 0 0 255
0.3975207805633545 0.21742577850818634 0.336714506149292 0 0 255
0.38560324907302856 0.1812620311975479 0.3856390118598938 0 0 255
0.3890533745288849 0.13990162312984467 0.4154941141605377 0 0 255
0.3936375081539154 0.13804951310157776 0.40170279145240784 0 0 255
0.414468914270401 0.19593504071235657 0.34923312067985535 0 0 255
0.39276084303855896 0.19509238004684448 0.3748580813407898 0 0 255
0.3329206109046936 0.15106263756752014 0.5177165269851685 0 0 255
-0.10532522201538086 -0.36121994256973267 0.4306248724460602 0 0 255
-0.3523486852645874 -0.34829553961753845 0.3480525016784668 0 0 255
-0.3604092001914978 -0.3459784686565399 0.25654706358909607 0 0 255
-0.2707929313182831 -0.291339248418808 0.18587236106395721 0 0 255
-0.1745820790529251 -0.19888857007026672 0.1479417234659195 0 0 255
-0.18367420136928558 -0.22447724640369415 0.11066640168428421 0 0 255
-0.19827038049697876 -0.17578347027301788 0.08773782849311829 0 0 255
-0.2060624212026596 -0.059602040797472 0.05285870283842087 0 0 255
-0.14482921361923218 0.06645059585571289 0.014814374968409538 0 0 255
-0.10854770988225937 0.09791003167629242 -0.04679743945598602 0 0 255
-0.13223226368427277 0.06480562686920166 -0.04726362228393555 0 0 255
-0.154776468873024 0.04421044886112213 -0.03293435275554657 0 0 255
-0.21488915383815765 -0.034286051988601685 -0.017713818699121475 0 0 255
-0.2477424442768097 -0.06786631047725677 0.016220061108469963 0 0 255
-0.26065313816070557 -0.08218695223331451 0.007722720969468355 0 0 255
-0.2591378688812256 -0.06735721230506897 0.024461915716528893 0 0 255
-0.25810471177101135 -0.07301364094018936 0.01881791278719902 0 0 255
-0.25224271416664124 -0.07077255845069885 0.0066632782109081745 0 0 255
-0.21909518539905548 -0.025479568168520927 0.01939292438328266 0 0 255
-0.19872063398361206 -0.008480883203446865 0.038964517414569855 0 0 255
-0.15858937799930573 0.009750908240675926 0.042737796902656555 0 0 255
-0.09269051998853683 0.04965255409479141 0.07558801025152206 0 0 255
-0.04733100160956383 0.041683025658130646 0.14293040335178375 0 0 255
-0.019118431955575943 0.034711264073848724 0.23592141270637512 0 0 255
-0.03168904036283493 0.005766524001955986 0.2858180105686188 0 0 255
0.00025004553026519716 0.06166249141097069 0.35259026288986206 0 0 255
-0.014487938024103642 0.015805445611476898 0.36686742305755615 0 0 255
-0.042561572045087814 -0.02818746119737625 0.3755415976047516 0 0 255
-0.08499088883399963 -0.06999413669109344 0.40994659066200256 0 0 255
-0.15152612328529358 -0.15875984728336334 0.43621447682380676 0 0 255
-0.20496013760566711 -0.21711592376232147 0.412759006023407 0 0 255
-0.19494250416755676 -0.1962459683418274 0.42458194494247437 0 0 255
-0.1450534164905548 -0.12719616293907166 0.3928203582763672 0 0 255
-0.13372784852981567 -0.1149267703294754 0.3971901535987854 0 0 255
-0.0677502304315567 -0.10916268080472946 0.3824242651462555 0 0 255
0.05699073523283005 0.03140735998749733 0.3226688802242279 0 0 255
0.24923285841941833 0.17897242307662964 0.26459625363349915 0 0 255
0.2998445928096771 0.20468097925186157 0.2746084928512573 0 0 255
0.2857798635959625 0.19369491934776306 0.35792431235313416 0 0 255
0.21732115745544434 0.03864390403032303 0.2968163788318634 0 0 255
0.2991040050983429 0.09987834841012955 0.2347552627325058 0 0 255
0.36015135049819946 0.22347210347652435 0.16219007968902588 0 0 255
0.3957839608192444 0.24750718474388123 0.10995470732450485 0 0 255
0.381252646446228 0.2680698335170746 0.08431525528430939 0 0 255
0.39393800497055054 0.3406331539154053 0.03475792706012726 0 0 255
0.4498293399810791 0.33171242475509644 0.00497550331056118 0 0 255
0.3465178906917572 0.33523479104042053 -0.030851731076836586 0 0 255
0.2819890081882477 0.34778594970703125 -0.04661828652024269 0 0 255
0.23476280272006989 0.27628961205482483 -0.07272747159004211 0 0 255
0.1429583579301834 0.16369858384132385 -0.13248656690120697 0 0 255
0.10224785655736923 0.10871518403291702 -0.1541997641324997 0 0 255
0.11647573113441467 0.1658981591463089 -0.16390737891197205 0 0 255
0.15090718865394592 0.21557044982910156 -0.18483026325702667 0 0 255
0.21653321385383606 0.26011237502098083 -0.1758260875940323 0 0 255
0.26987698674201965 0.2788534462451935 -0.16125811636447906 0 0 255
0.29649972915649414 0.29641595482826233 -0.1114315390586853 0 0 255
0.27807939052581787 0.24985669553279877 -0.0548955574631691 0 0 255
0.20931826531887054 0.15918688476085663 0.05397622287273407 0 0 255
0.051161184906959534 -0.03460795804858208 0.1485946923494339 0 0 255
-0.042598508298397064 -0.07936671376228333 0.13190120458602905 0 0 255
0.1312214583158493 0.04419896379113197 0.07440358400344849 0 0 255
0.35018157958984375 0.2736552357673645 0.011500908061861992 0 0 255
0.3981722593307495 0.363655149936676 0.012875949963927269 0 0 255
0.41592228412628174 0.32616719603538513 0.05335209146142006 0 0 255
0.4247870445251465 0.28198257088661194 0.10070952773094177 0 0 255
0.40085306763648987 0.22740812599658966 0.1448814421892166 0 0 255
0.3812369108200073 0.1479412317276001 0.1669263392686844 0 0 255
0.3714178502559662 0.10765167325735092 0.15478099882602692 0 0 255
0.31339341402053833 0.04582295939326286 0.13992975652217865 0 0 255
-0.050480302423238754 -0.15042324364185333 0.10652066767215729 0 0 255
-0.34699368476867676 -0.2859485447406769 -0.02072465978562832 0 0 255
-0.3658923804759979 -0.2862592339515686 -0.11275544762611389 0 0 255
-0.4409409165382385 -0.265808641910553 -0.20351840555667877 0 0 255
-0.40703314542770386 -0.3049827218055725 -0.23763304948806763 0 0 255
-0.40405601263046265 -0.3087470233440399 -0.24897250533103943 0 0 255
-0.4201345443725586 -0.34854549169540405 -0.1873950958251953 0 0 255
-0.4337911009788513 -0.34594154357910156 -0.1723984032869339 0 0 255
-0.4221210479736328 -0.33133289217948914 -0.17747777700424194 0 0 255
-0.4266579747200012 -0.28922826051712036 -0.1853891760110855 0 0 255
-0.4506668448448181 -0.30716508626937866 -0.26237866282463074 0 0 255
-0.4220593571662903 -0.3094707727432251 -0.25687119364738464 0 0 255
-0.3503192663192749 -0.27761128544807434 -0.3685888946056366 0 0 255
-0.2670155167579651 -0.15267936885356903 -0.3812989592552185 0 0 255
-0.23032474517822266 -0.07219740003347397 -0.4028949737548828 0 0 255
-0.24428586661815643 -0.15486229956150055 -0.41010621190071106 0 0 255
-0.2825005054473877 -0.2298726886510849 -0.3254171907901764 0 0 255
-0.3945113718509674 -0.3095744848251343 -0.19359572231769562 0 0 255
-0.43683964014053345 -0.3648017644882202 -0.10158824920654297 0 0 255
-0.4232770800590515 -0.3453716039657593 -0.14461903274059296 0 0 255
-0.3751784563064575 -0.27472642064094543 -0.19968467950820923 0 0 255
-0.35928210616111755 -0.24119770526885986 -0.19751638174057007 0 0 255
-0.3922121524810791 -0.25258544087409973 -0.17883317172527313 0 0 255
-0.4246780276298523 -0.22111591696739197 -0.17383746802806854 0 0 255
-0.4747214913368225 -0.2298513501882553 -0.14508670568466187 0 0 255
-0.4866483807563782 -0.2252032458782196 -0.1523914933204651 0 0 255
-0.47523233294487 -0.22513778507709503 -0.16360588371753693 0 0 255
-0.4978038966655731 -0.27769574522972107 -0.1548023670911789 0 0 255
-0.4673581123352051 -0.27869901061058044 -0.10904745757579803 0 0 255
-0.45484352111816406 -0.3311491906642914 -0.07712014019489288 0 0 255
-0.46262839436531067 -0.39361539483070374 -0.016016218811273575 0 0 255
-0.48029640316963196 -0.4300246834754944 0.02452951855957508 0 0 255
-0.49673861265182495 -0.44146600365638733 0.07619337737560272 0 0 255
-0.4892403483390808 -0.4340163767337799 0.12201819568872452 0 0 255
-0.45014631748199463 -0.471603661775589 0.14292237162590027 0 0 255
-0.4666001796722412 -0.44099465012550354 0.20454192161560059 0 0 255
-0.43629202246665955 -0.455978661775589 0.19937312602996826 0 0 255
-0.4187343716621399 -0.45319247245788574 0.23256725072860718 0 0 255
-0.42714548110961914 -0.4463188052177429 0.21246494352817535 0 0 255
-0.4269307851791382 -0.44208642840385437 0.18483872711658478 0 0 255
-0.432824045419693 -0.4307618737220764 0.18227823078632355 0 0 255
-0.4420005977153778 -0.45041999220848083 0.15444299578666687 0 0 255
-0.4461723566055298 -0.43422338366508484 0.16351079940795898 0 0 255
-0.46596601605415344 -0.43631941080093384 0.17100517451763153 0 0 255
-0.4676612913608551 -0.42917394638061523 0.1974455714225769 0 0 255
-0.47246053814888 -0.42921844124794006 0.2047324925661087 0 0 255
