ply
format ascii 1.0
element vertex 693
property float x
property float y
property float z
property uchar red
property uchar green
property uchar blue
end_header
0.10645195096731186 0.9820274114608765 0.15585297346115112 68 3 158
0.11638551205396652 0.9826301336288452 0.14454230666160583 64 3 156
0.11125818639993668 0.9818974137306213 0.15329396724700928 61 3 155
0.12120798230171204 0.9782489538192749 0.16833800077438354 64 3 156
0.15159468352794647 0.970912754535675 0.18533065915107727 66 3 157
0.1425885558128357 0.9725198745727539 0.18404792249202728 71 2 159
0.16545775532722473 0.9627546072006226 0.2138398438692093 73 2 159
0.17485477030277252 0.9704781174659729 0.16612659394741058 82 1 163
0.17021586000919342 0.9762030839920044 0.1343657523393631 95 0 166
0.17346151173114777 0.9675844311714172 0.18355251848697662 108 0 168
0.19298695027828217 0.9655654430389404 0.1744689792394638 118 1 168
0.1740545779466629 0.9641597867012024 0.20025230944156647 94 0 165
0.1886928528547287 0.9632847309112549 0.19099117815494537 89 1 164
0.20487551391124725 0.9561229348182678 0.20941580832004547 84 1 163
0.21122489869594574 0.9333925843238831 0.2901075780391693 100 0 167
0.22863897681236267 0.9126642346382141 0.33877453207969666 101 0 167
0.25595444440841675 0.8925890326499939 0.37117671966552734 101 0 167
0.24943847954273224 0.8973434567451477 0.36408138275146484 103 0 167
0.23757140338420868 0.89495849609375 0.37763625383377075 106 0 167
0.22019003331661224 0.9038441777229309 0.36685431003570557 112 0 168
0.22395862638950348 0.8988861441612244 0.37662473320961 106 0 167
0.2680736780166626 0.8893207907676697 0.370466023683548 106 0 167
0.2882985770702362 0.878412127494812 0.38115084171295166 112 0 168
0.29091888666152954 0.8810878396034241 0.37289443612098694 120 1 168
0.2869451642036438 0.8608039617538452 0.42033207416534424 130 4 167
0.28141337633132935 0.8369271755218506 0.46942466497421265 121 1 168
0.29573458433151245 0.8476788997650146 0.4404331147670746 117 0 168
0.2546263635158539 0.8654381632804871 0.43148839473724365 117 0 168
0.25630542635917664 0.8665913343429565 0.4281670153141022 121 1 168
0.2810646891593933 0.8695616722106934 0.40603575110435486 132 5 166
0.2706944942474365 0.8954265713691711 0.3534625470638275 154 21 158
0.2625436782836914 0.9036002159118652 0.33849287033081055 173 38 146
0.2607305347919464 0.9060937762260437 0.3331872224807739 194 61 128
0.2396721988916397 0.9092825651168823 0.34023892879486084 197 64 125
0.2646862864494324 0.8951458930969238 0.35868510603904724 204 72 118
0.25870320200920105 0.8765517473220825 0.4058690369129181 217 89 105
0.29758715629577637 0.8711814880371094 0.39049291610717773 227 104 94
0.2680545151233673 0.8821344971656799 0.3872794508934021 233 114 87
0.2846960425376892 0.8890067338943481 0.3586295545101166 242 132 75
0.27160578966140747 0.887888491153717 0.3713279068470001 243 135 72
0.2831064760684967 0.8626264929771423 0.41919711232185364 238 124 80
0.28070303797721863 0.8643726110458374 0.4172119200229645 237 121 82
0.2741428017616272 0.878180205821991 0.3919762670993805 237 121 82
0.22835245728492737 0.9194831848144531 0.3200090825557709 246 142 68
0.20754015445709229 0.9209851622581482 0.3297172784805298 239 126 78
0.20567569136619568 0.944319486618042 0.25682324171066284 238 124 80
0.1602972447872162 0.9540928602218628 0.2530049979686737 237 123 81
0.1578919142484665 0.9582905173301697 0.2382211536169052 233 114 87
0.153488889336586 0.9639611840248108 0.21730174124240875 237 123 81
0.15453234314918518 0.9653328061103821 0.21036231517791748 234 115 86
0.164794921875 0.9559318423271179 0.24297498166561127 235 118 84
0.15737725794315338 0.948365330696106 0.27538248896598816 233 114 87
0.15758521854877472 0.9603313207626343 0.23006659746170044 235 118 84
0.11900119483470917 0.9804608821868896 0.1566370725631714 230 109 90
0.04672888293862343 0.989698052406311 0.1353297233581543 222 96 100
0.031803105026483536 0.9930593371391296 0.11323288083076477 225 101 96
0.024988887831568718 0.998112142086029 0.05610518157482147 224 100 97
-0.02331356331706047 0.9994348287582397 0.024220364168286324 218 90 104
-0.034363675862550735 0.9994060397148132 -0.0025990926660597324 220 93 102
-0.04488835483789444 0.9989895224571228 0.002235944615676999 224 100 97
-0.06113089993596077 0.9973692297935486 -0.03895580768585205 226 102 96
-0.0983857735991478 0.9949811697006226 -0.018240535631775856 227 103 95
-0.04781906679272652 0.9900271892547607 0.13251212239265442 227 103 95
-0.016846785321831703 0.8245332837104797 0.5655627250671387 227 104 94
-0.5673261880874634 0.732297420501709 0.3766714036464691 228 106 93
0.5410553812980652 -0.38878151774406433 0.7457265257835388 163 29 153
0.2141982465982437 -0.44012999534606934 0.8720118999481201 149 17 161
0.29134389758110046 0.09843014180660248 0.9515409469604492 127 3 167
0.19961705803871155 0.3964567482471466 0.896088719367981 120 1 168
0.16821753978729248 0.4720592200756073 0.8653686046600342 109 0 168
0.09077847748994827 0.5711068511009216 0.8158408403396606 104 0 167
0.15140192210674286 0.7044866681098938 0.6933801174163818 97 0 166
0.09397333115339279 0.7613274455070496 0.6415212750434875 81 1 162
0.19356264173984528 0.7061319947242737 0.681110143661499 69 3 158
-0.3481038808822632 -0.3272899389266968 0.8784673810005188 73 2 159
-0.0022963513620197773 -0.7403582334518433 0.6722086071968079 78 2 161
0.18104121088981628 -0.9713344573974609 0.15405650436878204 87 1 164
0.567964494228363 -0.7572291493415833 0.3225218653678894 95 0 166
0.4458034634590149 -0.3264635503292084 0.8334751725196838 97 0 166
0.3399726152420044 -0.44723713397979736 0.8272832632064819 97 0 166
0.32254573702812195 -0.18082505464553833 0.9291213750839233 97 0 166
0.3066471219062805 -0.09507782757282257 0.9470626711845398 97 0 166
0.1484888195991516 0.09762479364871979 0.9840835332870483 95 0 166
0.5796450972557068 0.3390725255012512 0.7409732937812805 97 0 166
0.4842919409275055 0.787430465221405 0.3813326954841614 124 2 167
0.13456441462039948 0.7973477244377136 0.5883272290229797 127 3 167
0.21067923307418823 0.30411940813064575 0.929045557975769 123 2 168
0.11294402182102203 -0.21905910968780518 0.9691526293754578 121 1 168
0.26164939999580383 -0.33749714493751526 0.9042319059371948 121 1 168
0.3515244722366333 -0.28694814443588257 0.8911179304122925 121 1 168
0.3404531180858612 -0.22595266997814178 0.9127086400985718 123 2 168
0.5672027468681335 0.24170877039432526 0.7873105406761169 123 2 168
-0.027744989842176437 0.4752569794654846 0.8794094324111938 163 29 153
-0.26617956161499023 0.46307361125946045 0.8454059362411499 158 25 156
-0.4276486337184906 0.7699902653694153 -0.473531037569046 157 24 157
-0.41786181926727295 0.613726019859314 -0.6698746085166931 155 23 158
-0.4156087636947632 0.565231442451477 -0.7125887870788574 165 31 151
-0.45179030299186707 0.511424720287323 -0.7309789657592773 167 33 151
-0.49242445826530457 0.3982846736907959 -0.7738781571388245 168 34 150
-0.537240207195282 0.3430993854999542 -0.7704905867576599 160 27 155
-0.433512806892395 0.36316463351249695 -0.8247290849685669 143 13 163
-0.2954263687133789 0.444358766078949 -0.8457356095314026 142 12 164
-0.47691524028778076 0.446789413690567 -0.7569220662117004 133 6 166
-0.4457981586456299 0.5214468240737915 -0.7275694012641907 124 2 167
-0.4274682402610779 0.5379053354263306 -0.7265871167182922 117 0 168
-0.3505045771598816 0.4989960491657257 -0.7925588488578796 109 0 168
-0.38394248485565186 0.5117282271385193 -0.7685846090316772 108 0 168
-0.45034122467041016 0.5178287029266357 -0.7273555994033813 115 0 168
-0.4821455180644989 0.45200371742248535 -0.750485360622406 118 1 168
-0.46824923157691956 0.43817487359046936 -0.7672975659370422 118 1 168
-0.49211108684539795 0.5404202938079834 -0.6824753284454346 118 1 168
-0.40922853350639343 0.5965886116027832 -0.6903724074363708 118 1 168
-0.3951270580291748 0.6042348146438599 -0.6919355988502502 118 1 168
-0.4149957001209259 0.5801119804382324 -0.7008912563323975 120 1 168
-0.4833764433860779 0.4369553029537201 -0.7585626244544983 124 2 167
-0.4474232494831085 0.44381171464920044 -0.7764299511909485 127 3 167
-0.49111735820770264 0.479280024766922 -0.727388858795166 129 4 167
-0.40163490176200867 0.47216612100601196 -0.7846965193748474 127 3 167
-0.43852147459983826 0.4732661843299866 -0.7640144228935242 126 3 167
-0.35327887535095215 0.6216748356819153 -0.6990810632705688 121 1 168
-0.3496372699737549 0.6625794172286987 -0.6623762845993042 121 1 168
-0.4515118896961212 0.5763881206512451 -0.6811121106147766 123 2 168
-0.23948043584823608 0.7271028161048889 -0.6434054374694824 121 1 168
-0.30162879824638367 0.7868297100067139 -0.5384413003921509 121 1 168
-0.23283402621746063 0.8369890451431274 -0.4952147603034973 127 3 167
-0.27766263484954834 0.8550217747688293 -0.43799686431884766 100 0 167
-0.18950504064559937 0.8899474740028381 -0.41482678055763245 118 1 168
-0.27323734760284424 0.8930702209472656 -0.35744521021842957 142 12 164
-0.2374461591243744 0.9036163091659546 -0.3565065562725067 151 19 160
-0.26372483372688293 0.9149990677833557 -0.3053291440010071 163 29 153
-0.27546483278274536 0.8927193880081177 -0.35661065578460693 183 48 138
-0.3001013994216919 0.8745896816253662 -0.38083067536354065 186 52 135
-0.2858819365501404 0.8525793552398682 -0.4374699294567108 188 54 133
-0.24929633736610413 0.8696903586387634 -0.42601650953292847 197 64 125
-0.2003079503774643 0.9173958897590637 -0.34389185905456543 188 54 133
-0.1645592302083969 0.9648393988609314 -0.20495155453681946 185 51 136
-0.2008405476808548 0.9469770193099976 -0.2507937550544739 176 42 143
-0.19390304386615753 0.9413363337516785 -0.27620193362236023 173 38 146
-0.10710825771093369 0.9667673707008362 -0.232139453291893 169 35 149
-0.28641727566719055 0.9221810698509216 -0.25989848375320435 162 28 154
-0.30505797266960144 0.9139249324798584 -0.2677328884601593 173 38 146
-0.1324160248041153 0.9874982833862305 -0.08551682531833649 187 53 134
-0.005116990301758051 0.9965928792953491 0.08231928944587708 200 68 122
0.04935615137219429 0.9664421677589417 0.25209811329841614 199 66 123
0.13792301714420319 0.933378279209137 0.33133405447006226 204 72 118
0.13309219479560852 0.9314515590667725 0.3386508822441101 206 74 117
0.11578580737113953 0.9297478199005127 0.34951767325401306 214 85 109
0.13519011437892914 0.9397101998329163 0.31411516666412354 216 88 106
0.11607252061367035 0.9286309480667114 0.35238009691238403 204 72 118
0.10611426085233688 0.9415255784988403 0.31979578733444214 206 74 117
0.11160987615585327 0.9468567371368408 0.3016711473464966 212 82 110
0.10914789140224457 0.9566935300827026 0.26985976099967957 215 87 107
0.020319398492574692 0.969560444355011 0.2440073937177658 216 88 106
0.08331669867038727 0.9816142320632935 0.1717320680618286 202 70 120
-0.009455166757106781 0.9914843440055847 0.12988239526748657 198 65 124
0.12408699095249176 0.9829087257385254 0.13598844408988953 209 78 114
0.1191413626074791 0.9768205881118774 0.1778397113084793 221 95 101
0.10411939024925232 0.959862470626831 0.2604290246963501 232 113 88
0.09933899343013763 0.94757080078125 0.30371248722076416 232 112 89
0.03230101615190506 0.9418267607688904 0.3345429599285126 240 128 77
0.005034905858337879 0.9999838471412659 0.0026347485836595297 248 149 64
0.013617201708257198 0.99989253282547 0.005430647172033787 47 4 149
0.06228896230459213 0.9236037135124207 -0.378254234790802 49 4 150
0.0746915265917778 0.9676665663719177 0.24092020094394684 49 4 150
0.19664762914180756 0.9092946648597717 0.3667599558830261 45 4 148
0.25374534726142883 0.8519549369812012 0.4580240845680237 45 4 148
0.3065326511859894 0.8597888946533203 0.4084126651287079 43 5 148
0.2340671867132187 0.8624170422554016 0.44883105158805847 33 5 143
0.33064907789230347 0.8384512662887573 0.43320971727371216 29 6 141
0.2275831699371338 0.9098162651062012 0.34704500436782837 27 6 140
0.1455707997083664 0.9836356043815613 0.10616065561771393 27 6 140
0.05439641699194908 0.9971125721931458 -0.05298599973320961 27 6 140
-0.0023062448017299175 0.9857465624809265 -0.16822126507759094 27 6 140
-0.04126797616481781 0.9814321994781494 -0.1873171031475067 27 6 140
-0.09213176369667053 0.9568763375282288 -0.27549833059310913 27 6 140
-0.13696758449077606 0.9126048684120178 -0.38521721959114075 31 5 142
-0.21858792006969452 0.8882172703742981 -0.40409085154533386 35 5 144
-0.21720938384532928 0.8873229622840881 -0.40678998827934265 41 5 147
-0.18951602280139923 0.8706670999526978 -0.4538968801498413 45 4 148
-0.21946854889392853 0.8773457407951355 -0.4267294108867645 51 4 151
-0.20866943895816803 0.8707566857337952 -0.44524142146110535 58 4 154
-0.22092877328395844 0.8991115689277649 -0.37787413597106934 51 4 151
-0.18064181506633759 0.9087020754814148 -0.3763364851474762 64 3 156
-0.2287760078907013 0.8859902024269104 -0.4033396244049072 66 3 157
-0.2087872177362442 0.8912853598594666 -0.4025149941444397 69 3 158
-0.2152334600687027 0.8784276843070984 -0.42666077613830566 71 2 159
-0.26906779408454895 0.8267583847045898 -0.49403756856918335 74 2 160
-0.2573670446872711 0.7380721569061279 -0.6237079501152039 59 3 154
-0.3804505169391632 0.696353018283844 -0.6085637807846069 71 2 159
-0.3502644896507263 0.7491328716278076 -0.5622408390045166 87 1 164
-0.38484424352645874 0.7078291177749634 -0.592345118522644 78 2 161
-0.41913771629333496 0.7203190922737122 -0.5526878833770752 87 1 164
-0.3742886483669281 0.8040239214897156 -0.4620102643966675 82 1 163
-0.36863523721694946 0.8353525400161743 -0.40779194235801697 84 1 163
-0.351110577583313 0.8317617774009705 -0.42999255657196045 82 1 163
-0.3728998601436615 0.8152539730072021 -0.4430650770664215 84 1 163
-0.3208630681037903 0.8165369629859924 -0.47991079092025757 86 1 163
-0.33833047747612 0.7573665380477905 -0.5585055947303772 73 2 159
-0.4761548936367035 0.6618768572807312 -0.5789607167243958 74 2 160
-0.5616773962974548 0.6189857125282288 -0.548976480960846 81 1 162
-0.4496002495288849 0.5242522954940796 -0.7232006788253784 106 0 167
-0.2897984981536865 0.5585095286369324 -0.7772284150123596 103 0 167
-0.3980194330215454 0.5545374155044556 -0.7308000922203064 94 0 165
-0.39805516600608826 0.5983309149742126 -0.6953791379928589 90 0 165
-0.3729347288608551 0.688470721244812 -0.6220352053642273 103 0 167
-0.37303677201271057 0.674373984336853 -0.6372310519218445 114 0 168
-0.40294668078422546 0.6707916855812073 -0.6226335763931274 114 0 168
-0.3287825882434845 0.7873673439025879 -0.5214926600456238 118 1 168
-0.3214899003505707 0.8400622606277466 -0.4369664192199707 109 0 168
-0.32855507731437683 0.8169153332710266 -0.4740261733531952 101 0 167
-0.3129411041736603 0.8246870040893555 -0.47112563252449036 94 0 165
-0.30356818437576294 0.8800589442253113 -0.3651609420776367 90 0 165
-0.3330250084400177 0.8646664023399353 -0.3760933578014374 97 0 166
-0.34537506103515625 0.8386576771736145 -0.42115235328674316 92 0 165
-0.2551082968711853 0.8358172178268433 -0.48613715171813965 82 1 163
-0.27068811655044556 0.8200083374977112 -0.5042957663536072 89 1 164
-0.2580419182777405 0.8269895315170288 -0.49950239062309265 109 0 168
-0.2594396471977234 0.8537034392356873 -0.45153236389160156 94 0 165
-0.21628354489803314 0.908467173576355 -0.35764360427856445 79 2 162
-0.1694890856742859 0.9340253472328186 -0.31443631649017334 71 2 159
-0.15979786217212677 0.9268425703048706 -0.339746356010437 73 2 159
-0.18907053768634796 0.9299373626708984 -0.31538674235343933 69 3 158
-0.16125643253326416 0.9541829824447632 -0.2520538568496704 58 4 154
-0.12237845361232758 0.9738298058509827 -0.19151797890663147 52 4 152
-0.13359981775283813 0.9663313627243042 -0.2198972851037979 49 4 150
-0.16212454438209534 0.9596297740936279 -0.2298397570848465 51 4 151
-0.18931247293949127 0.9475552439689636 -0.2574875056743622 51 4 151
-0.16702939569950104 0.9553377032279968 -0.24378477036952972 54 4 152
-0.1571868509054184 0.9594332575798035 -0.23405177891254425 49 4 150
-0.1429831087589264 0.9762704968452454 -0.16263999044895172 54 4 152
-0.10839217156171799 0.9839425086975098 -0.1418037861585617 59 3 154
-0.13316820561885834 0.9827624559402466 -0.12823469936847687 58 4 154
-0.10440020263195038 0.9853449463844299 -0.13489258289337158 59 3 154
-0.11262597143650055 0.9803807139396667 -0.16176824271678925 56 4 153
-0.10417357832193375 0.9854182600975037 -0.13453161716461182 54 4 152
-0.09650538861751556 0.9931397438049316 -0.06603185832500458 63 3 156
-0.07775025069713593 0.9947649836540222 -0.06631457060575485 71 2 159
-0.11125531047582626 0.9861231446266174 -0.12322111427783966 54 4 152
-0.12107770144939423 0.9869781732559204 -0.10589711368083954 51 4 151
-0.13375301659107208 0.9772449135780334 -0.16462868452072144 49 4 150
-0.12816689908504486 0.9800265431404114 -0.15205667912960052 49 4 150
-0.11296149343252182 0.9889421463012695 -0.09608934074640274 56 4 153
-0.09278605878353119 0.9940126538276672 -0.057702384889125824 58 4 154
-0.11050441861152649 0.9887110590934753 -0.10118845105171204 66 3 157
-0.11305640637874603 0.981866180896759 -0.15217439830303192 69 3 158
-0.1177373006939888 0.9772548079490662 -0.17638294398784637 73 2 159
-0.1291702687740326 0.9722504615783691 -0.19504885375499725 90 0 165
-0.14167554676532745 0.9759700894355774 -0.165560781955719 92 0 165
-0.10578873753547668 0.9658684134483337 -0.23644664883613586 90 0 165
-0.017387833446264267 0.8598589897155762 -0.5102354288101196 94 0 165
-0.06402845680713654 0.42475199699401855 -0.9030426740646362 47 4 149
-0.08329080045223236 0.35320156812667847 -0.9318321943283081 49 4 150
-0.23573923110961914 0.5482921004295349 -0.8023731708526611 51 4 151
-0.17562071979045868 0.6490957140922546 -0.7401568293571472 56 4 153
-0.16964182257652283 0.6929284930229187 -0.7007651925086975 63 3 156
-0.23230630159378052 0.6486760973930359 -0.7247435450553894 66 3 157
-0.25285205245018005 0.6880558729171753 -0.6801801323890686 76 2 161
-0.2553136646747589 0.7378424406051636 -0.6248227953910828 81 1 162
-0.21544577181339264 0.7218844294548035 -0.657621443271637 74 2 160
-0.22061018645763397 0.7102470993995667 -0.668491005897522 79 2 162
-0.22957919538021088 0.6799136400222778 -0.6964271664619446 74 2 160
-0.23648570477962494 0.66872638463974 -0.7048968076705933 68 3 158
-0.24062366783618927 0.6714710593223572 -0.7008758783340454 64 3 156
-0.2583879828453064 0.6420997381210327 -0.7217642664909363 56 4 153
-0.2647494077682495 0.6424627304077148 -0.7191309928894043 52 4 152
-0.23575137555599213 0.6224938035011292 -0.746272623538971 52 4 152
-0.24690914154052734 0.6123242378234863 -0.7510624527931213 52 4 152
-0.23190268874168396 0.6566123366355896 -0.7176917791366577 54 4 152
-0.23398570716381073 0.6378569006919861 -0.7337501049041748 51 4 151
-0.23129256069660187 0.6225342750549316 -0.7476328611373901 52 4 152
-0.26348748803138733 0.5972100496292114 -0.7575715184211731 54 4 152
-0.26396644115448 0.5384867191314697 -0.8002210855484009 51 4 151
-0.2355235368013382 0.5157507061958313 -0.8237292170524597 45 4 148
-0.23414577543735504 0.45973533391952515 -0.85663241147995 39 5 146
-0.2763126790523529 0.4227903187274933 -0.8630757331848145 33 5 143
-0.2978588342666626 0.41293588280677795 -0.8606765866279602 31 5 142
-0.3062601089477539 0.39486852288246155 -0.8661891222000122 24 6 139
-0.31623736023902893 0.4159451425075531 -0.8526332974433899 21 6 138
-0.2915842831134796 0.39909499883651733 -0.8693110346794128 24 6 139
-0.2802159786224365 0.41828879714012146 -0.8640101552009583 21 6 138
-0.2750701904296875 0.395906925201416 -0.8761244416236877 24 6 139
-0.28361597657203674 0.36873602867126465 -0.8852094411849976 27 6 140
-0.3226131498813629 0.3383518159389496 -0.8839902281761169 24 6 139
-0.35752224922180176 0.30154290795326233 -0.8838832974433899 27 6 140
-0.38411033153533936 0.29205194115638733 -0.8758795261383057 33 5 143
-0.3840995132923126 0.25794610381126404 -0.8865276575088501 35 5 144
-0.37174928188323975 0.2881253659725189 -0.8824887275695801 35 5 144
-0.3626314699649811 0.2764699459075928 -0.8899790644645691 45 4 148
-0.35763388872146606 0.26056182384490967 -0.8967750668525696 47 4 149
-0.3701963424682617 0.2512192726135254 -0.8943397402763367 63 3 156
-0.3773362338542938 0.22410506010055542 -0.8985512852668762 64 3 156
-0.3883994519710541 0.22546696662902832 -0.8934822082519531 84 1 163
-0.3807416558265686 0.16970236599445343 -0.9089757800102234 92 0 165
-0.3615760803222656 0.13256984949111938 -0.9228694438934326 94 0 165
-0.3819843828678131 0.15008145570755005 -0.91190105676651 63 3 156
-0.3807334899902344 0.14521756768226624 -0.9132107496261597 52 4 152
-0.39313921332359314 0.12723129987716675 -0.9106337428092957 43 5 148
-0.4138844609260559 0.11745519936084747 -0.9027203321456909 39 5 146
-0.43221020698547363 0.08216187357902527 -0.8980221152305603 66 3 157
-0.44028785824775696 0.044881246984004974 -0.8967341780662537 81 1 162
-0.45522642135620117 0.05564609169960022 -0.8886350989341736 76 2 161
-0.46612414717674255 0.034268058836460114 -0.8840554356575012 66 3 157
-0.4512655436992645 0.0232661385089159 -0.892086386680603 79 2 162
-0.44485336542129517 0.07337500900030136 -0.8925926089286804 63 3 156
-0.4239744544029236 0.1195891946554184 -0.8977438807487488 54 4 152
-0.41635221242904663 0.10166303813457489 -0.9035018086433411 58 4 154
-0.45374077558517456 0.08878143876791 -0.8867001533508301 43 5 148
-0.46109962463378906 0.052975594997406006 -0.8857656121253967 76 2 161
-0.4876570403575897 0.043109919875860214 -0.8719702959060669 78 2 161
-0.4764154851436615 -0.012628867290914059 -0.8791295886039734 66 3 157
-0.4702056050300598 0.03830471634864807 -0.8817253112792969 78 2 161
-0.4556111693382263 0.10497308522462845 -0.8839677572250366 76 2 161
-0.4851943254470825 0.16285671293735504 -0.8591066002845764 73 2 159
-0.4678075313568115 0.13333748281002045 -0.8737146258354187 69 3 158
-0.49012115597724915 0.13436901569366455 -0.8612352609634399 68 3 158
-0.5042380094528198 0.13126438856124878 -0.8535301685333252 63 3 156
-0.4658244252204895 0.09227889776229858 -0.8800524473190308 58 4 154
-0.5110217332839966 0.1257617473602295 -0.8503179550170898 61 3 155
-0.4815863072872162 0.1162024587392807 -0.8686607480049133 74 2 160
-0.4497785270214081 0.1681099385023117 -0.8771763443946838 78 2 161
-0.45735931396484375 0.23516693711280823 -0.8576239943504333 49 4 150
-0.4360892176628113 0.24769607186317444 -0.8651432394981384 76 2 161
-0.4222186803817749 0.2557882070541382 -0.8696572780609131 76 2 161
-0.37986183166503906 0.24176207184791565 -0.8928920030593872 58 4 154
-0.38617172837257385 0.2728112041950226 -0.8811614513397217 71 2 159
-0.362812340259552 0.27425551414489746 -0.8905903697013855 78 2 161
-0.38313958048820496 0.2769065797328949 -0.8812075853347778 63 3 156
-0.3386145234107971 0.2945272624492645 -0.8936408162117004 59 3 154
-0.31612563133239746 0.2990156412124634 -0.9003633856773376 54 4 152
-0.31945571303367615 0.26947861909866333 -0.9084763526916504 49 4 150
-0.29899632930755615 0.2660270035266876 -0.9164228439331055 45 4 148
-0.2730097770690918 0.2916356325149536 -0.9167411923408508 37 5 145
-0.3111562132835388 0.25588059425354004 -0.915263295173645 37 5 145
-0.3149236738681793 0.2205737680196762 -0.9231306910514832 45 4 148
-0.3220272958278656 0.17765678465366364 -0.9299120903015137 47 4 149
-0.34159600734710693 0.11347996443510056 -0.9329708218574524 51 4 151
-0.3647715747356415 0.09032860398292542 -0.9267051219940186 43 5 148
-0.3847139775753021 0.0596776157617569 -0.9211046695709229 37 5 145
-0.3926641345024109 0.07494980841875076 -0.9166228175163269 39 5 146
-0.4018157124519348 0.11383888125419617 -0.9086169600486755 43 5 148
-0.3680667281150818 0.18937812745571136 -0.9103092551231384 47 4 149
-0.39110997319221497 0.23355503380298615 -0.8902162313461304 35 5 144
-0.3884001076221466 0.22060100734233856 -0.8946958184242249 37 5 145
-0.3744009733200073 0.20693765580654144 -0.9038809537887573 37 5 145
-0.35570698976516724 0.21452517807483673 -0.9096435904502869 47 4 149
-0.3691016733646393 0.21643899381160736 -0.9038352370262146 41 5 147
-0.37010693550109863 0.19334861636161804 -0.908645749092102 39 5 146
-0.35902294516563416 0.15514028072357178 -0.9203445315361023 41 5 147
-0.3813566565513611 0.15422852337360382 -0.9114717245101929 47 4 149
-0.3850465416908264 0.15139757096767426 -0.9103943705558777 39 5 146
-0.3845754861831665 0.1795167177915573 -0.9054697155952454 39 5 146
-0.37416407465934753 0.19148625433444977 -0.9073777198791504 39 5 146
-0.376220703125 0.1919870227575302 -0.906420886516571 39 5 146
-0.35794246196746826 0.26334986090660095 -0.8958370685577393 41 5 147
-0.3621422350406647 0.3163300156593323 -0.8768057227134705 41 5 147
-0.3545071482658386 0.3353930413722992 -0.8728322386741638 41 5 147
-0.32646363973617554 0.3775207996368408 -0.8665445446968079 43 5 148
-0.31981033086776733 0.4129461944103241 -0.8527583479881287 41 5 147
-0.2984028160572052 0.4560645818710327 -0.8384276628494263 43 5 148
-0.29234376549720764 0.47958827018737793 -0.8273633122444153 43 5 148
-0.27870145440101624 0.4413985013961792 -0.8529319167137146 37 5 145
-0.26895686984062195 0.4397524893283844 -0.8569014072418213 37 5 145
-0.26480579376220703 0.46191853284835815 -0.8464686274528503 37 5 145
-0.24744214117527008 0.4764409363269806 -0.8436684012413025 37 5 145
-0.22993484139442444 0.5065430998802185 -0.8309897780418396 41 5 147
-0.24458011984825134 0.502687931060791 -0.8291473984718323 43 5 148
-0.25442948937416077 0.5123324990272522 -0.8202323317527771 41 5 147
-0.2678869664669037 0.500855028629303 -0.823031485080719 39 5 146
-0.27274179458618164 0.46000006794929504 -0.8449921607971191 41 5 147
-0.2592344582080841 0.4439254403114319 -0.8577457070350647 35 5 144
-0.2937384843826294 0.4444088935852051 -0.8462969064712524 35 5 144
-0.28834769129753113 0.4430893063545227 -0.8488388657569885 35 5 144
-0.3195946216583252 0.4247209429740906 -0.8470368981361389 37 5 145
-0.3126407861709595 0.4208604097366333 -0.8515470623970032 41 5 147
-0.3320738673210144 0.3992065191268921 -0.8546116948127747 43 5 148
-0.33525869250297546 0.3879097104072571 -0.8585613965988159 43 5 148
-0.3306516408920288 0.3505944311618805 -0.8762151598930359 45 4 148
-0.34462177753448486 0.34169527888298035 -0.874345600605011 45 4 148
-0.35399767756462097 0.35233360528945923 -0.8663409352302551 43 5 148
-0.3439268171787262 0.37781602144241333 -0.8596332669258118 45 4 148
-0.35612791776657104 0.371989905834198 -0.8572026491165161 39 5 146
-0.3684975504875183 0.32962456345558167 -0.8692280054092407 39 5 146
-0.3857606053352356 0.32026636600494385 -0.8652272820472717 39 5 146
-0.3826994001865387 0.31607264280319214 -0.8681239485740662 39 5 146
-0.3960619270801544 0.3048601448535919 -0.8661381602287292 39 5 146
-0.36625781655311584 0.26666155457496643 -0.8914857506752014 41 5 147
-0.3657699227333069 0.2664003074169159 -0.8917641639709473 43 5 148
-0.3669406771659851 0.2697407007217407 -0.8902778029441833 45 4 148
-0.35726848244667053 0.26195386052131653 -0.8965151309967041 47 4 149
-0.344929963350296 0.2552042603492737 -0.9032685160636902 47 4 149
-0.35402995347976685 0.21563124656677246 -0.9100362062454224 45 4 148
-0.3669692277908325 0.27132469415664673 -0.8897845149040222 43 5 148
-0.38885626196861267 0.2566303312778473 -0.8848342299461365 43 5 148
-0.40338602662086487 0.22306163609027863 -0.8874250054359436 43 5 148
-0.40003812313079834 0.2508164644241333 -0.881510317325592 37 5 145
-0.3772274851799011 0.24967840313911438 -0.8918296694755554 35 5 144
-0.36101022362709045 0.23983143270015717 -0.9011950492858887 35 5 144
-0.3868635594844818 0.22378115355968475 -0.8945717215538025 33 5 143
-0.3654725253582001 0.25391003489494324 -0.8955219388008118 37 5 145
-0.3549366295337677 0.2744366526603699 -0.8937027454376221 37 5 145
-0.3677386939525604 0.3434045910835266 -0.8641999363899231 37 5 145
-0.3770340085029602 0.418189138174057 -0.8264158964157104 37 5 145
-0.3525482714176178 0.4392071068286896 -0.8263212442398071 37 5 145
-0.3531452715396881 0.46515747904777527 -0.811737060546875 35 5 144
-0.3662121891975403 0.45624861121177673 -0.8110030293464661 35 5 144
-0.36140888929367065 0.4684690237045288 -0.8061764240264893 37 5 145
-0.352420836687088 0.4566494822502136 -0.8168664574623108 35 5 144
-0.35249578952789307 0.42417100071907043 -0.834161639213562 33 5 143
-0.35726940631866455 0.41383588314056396 -0.8373162150382996 29 6 141
-0.3311847448348999 0.381320983171463 -0.8630823493003845 31 5 142
-0.3382844924926758 0.39349365234375 -0.8548253178596497 33 5 143
-0.3174462914466858 0.3992416560649872 -0.8601360321044922 33 5 143
-0.31589338183403015 0.40025588870048523 -0.860236406326294 33 5 143
-0.3006560504436493 0.43133345246315 -0.85062175989151 29 6 141
-0.3427969515323639 0.4682512879371643 -0.8143900036811829 24 6 139
-0.333060085773468 0.4784935712814331 -0.8124744892120361 31 5 142
-0.35545071959495544 0.4884233772754669 -0.7969300150871277 29 6 141
-0.3488164246082306 0.5082635283470154 -0.7873977422714233 31 5 142
-0.343330979347229 0.5075170397758484 -0.7902849316596985 35 5 144
-0.3295840919017792 0.4982497990131378 -0.8019485473632812 33 5 143
-0.33873090147972107 0.4882061183452606 -0.8043110370635986 31 5 142
-0.33640098571777344 0.5248972773551941 -0.7818678617477417 31 5 142
-0.31308847665786743 0.5347205996513367 -0.7848882079124451 27 6 140
-0.344394326210022 0.5229001641273499 -0.779723048210144 29 6 141
-0.35762810707092285 0.49818506836891174 -0.7898820638656616 29 6 141
-0.36686164140701294 0.4750865399837494 -0.799815833568573 29 6 141
-0.3638803958892822 0.45042577385902405 -0.8152960538864136 33 5 143
-0.38799718022346497 0.45736172795295715 -0.8001739382743835 29 6 141
-0.3743066191673279 0.41569259762763977 -0.8289114236831665 31 5 142
-0.4101264774799347 0.3604486882686615 -0.8377785682678223 35 5 144
-0.4029334485530853 0.3959091305732727 -0.8251670002937317 31 5 142
-0.37019869685173035 0.4189390242099762 -0.8291218280792236 31 5 142
-0.3665851354598999 0.40519261360168457 -0.837516725063324 27 6 140
-0.3433001935482025 0.42831704020500183 -0.8358765244483948 31 5 142
-0.35204681754112244 0.468661367893219 -0.8101972937583923 29 6 141
-0.3763427138328552 0.47043928503990173 -0.7981560826301575 27 6 140
-0.38441863656044006 0.44888582825660706 -0.8066745400428772 27 6 140
-0.3872013986110687 0.3753278851509094 -0.8421425223350525 27 6 140
-0.4247395992279053 0.2974224090576172 -0.8550649881362915 27 6 140
-0.43458878993988037 0.24949905276298523 -0.8653801679611206 24 6 139
-0.42985978722572327 0.17262031137943268 -0.8862408399581909 27 6 140
-0.42882320284843445 0.17542016506195068 -0.8861932158470154 31 5 142
-0.3913566470146179 0.19694669544696808 -0.8989170789718628 24 6 139
-0.3961487114429474 0.23893047869205475 -0.8865542411804199 35 5 144
-0.36206743121147156 0.2429715394973755 -0.8999289274215698 27 6 140
-0.38944104313850403 0.23144622147083282 -0.8914978504180908 24 6 139
-0.3762432932853699 0.20951658487319946 -0.9025208353996277 27 6 140
-0.3827531039714813 0.20366719365119934 -0.9011213779449463 29 6 141
-0.37777599692344666 0.20707862079143524 -0.9024432301521301 31 5 142
-0.36590856313705444 0.21851734817028046 -0.9046331644058228 29 6 141
-0.3780333995819092 0.244881272315979 -0.892818033695221 29 6 141
-0.371983140707016 0.2386043518781662 -0.8970487117767334 24 6 139
-0.3905653953552246 0.23861071467399597 -0.8891139030456543 27 6 140
-0.3946816921234131 0.2353600412607193 -0.8881621360778809 27 6 140
-0.3726574182510376 0.24084171652793884 -0.8961706161499023 29 6 141
-0.38595637679100037 0.25746655464172363 -0.8858603835105896 29 6 141
-0.36560148000717163 0.2822209596633911 -0.8869537115097046 27 6 140
-0.35652071237564087 0.2916232943534851 -0.8876084089279175 27 6 140
-0.3940165340900421 0.25314435362815857 -0.8835546374320984 27 6 140
-0.3910079002380371 0.22165806591510773 -0.893297553062439 27 6 140
-0.39026519656181335 0.2264394909143448 -0.892422616481781 24 6 139
-0.37395405769348145 0.1992410272359848 -0.9057931900024414 27 6 140
-0.3791120946407318 0.2038557082414627 -0.9026167392730713 27 6 140
-0.38158872723579407 0.21086782217025757 -0.8999582529067993 27 6 140
-0.3694975972175598 0.19091318547725677 -0.9094083905220032 27 6 140
-0.3769671320915222 0.1765502393245697 -0.9092446565628052 31 5 142
-0.37826621532440186 0.17945778369903564 -0.9081352353096008 29 6 141
-0.39475876092910767 0.20514757931232452 -0.8955891132354736 27 6 140
-0.38288944959640503 0.2146255224943161 -0.8985162973403931 29 6 141
-0.3812907934188843 0.2108568549156189 -0.9000870585441589 27 6 140
-0.38755670189857483 0.22013938426971436 -0.8951750993728638 31 5 142
-0.37768828868865967 0.258441686630249 -0.8891341686248779 27 6 140
-0.3761877715587616 0.27655118703842163 -0.884308934211731 24 6 139
-0.3783426284790039 0.2818524241447449 -0.881712019443512 27 6 140
-0.3664143681526184 0.29804396629333496 -0.8814252018928528 27 6 140
-0.3655305802822113 0.30447229743003845 -0.8795930743217468 27 6 140
-0.33611059188842773 0.30629923939704895 -0.8906235694885254 27 6 140
-0.32125523686408997 0.3068881332874298 -0.8958876729011536 27 6 140
-0.34199661016464233 0.28797647356987 -0.8944875001907349 27 6 140
-0.3239807188510895 0.26433151960372925 -0.9083861708641052 24 6 139
-0.3244583010673523 0.2560018301010132 -0.910598635673523 24 6 139
-0.3205742835998535 0.2677623927593231 -0.908589780330658 24 6 139
-0.3209398090839386 0.2772490680217743 -0.9056106805801392 27 6 140
-0.31886327266693115 0.28600358963012695 -0.9036194682121277 24 6 139
-0.31755000352859497 0.281209260225296 -0.9055845737457275 27 6 140
-0.322629451751709 0.28817006945610046 -0.9015920758247375 21 6 138
-0.3350999653339386 0.3068832457065582 -0.8908033967018127 24 6 139
-0.3552418649196625 0.273445725440979 -0.89388507604599 24 6 139
-0.36000925302505493 0.2878023386001587 -0.8874475359916687 24 6 139
-0.35917532444000244 0.27003681659698486 -0.8933494687080383 35 5 144
-0.3701039254665375 0.26055845618247986 -0.8917019367218018 51 4 151
-0.3675958216190338 0.24411265552043915 -0.897375226020813 49 4 150
-0.3526524305343628 0.2607056796550751 -0.898703932762146 51 4 151
-0.39307063817977905 0.24475562572479248 -0.8863352537155151 33 5 143
-0.379801869392395 0.23773464560508728 -0.8939982056617737 29 6 141
-0.3471814692020416 0.2589719593524933 -0.9013315439224243 35 5 144
-0.35354378819465637 0.27431419491767883 -0.8942921757698059 35 5 144
-0.34767410159111023 0.2804185748100281 -0.8946999907493591 37 5 145
-0.33934295177459717 0.2855584919452667 -0.8962715864181519 39 5 146
-0.34362882375717163 0.26469698548316956 -0.9010298252105713 41 5 147
-0.34835270047187805 0.23754921555519104 -0.9067638516426086 43 5 148
-0.36973002552986145 0.21429692208766937 -0.9040888547897339 45 4 148
-0.3639945387840271 0.216299369931221 -0.9059373736381531 47 4 149
-0.38123786449432373 0.2166587859392166 -0.8987305760383606 47 4 149
-0.3819868266582489 0.19984865188598633 -0.9023007154464722 49 4 150
-0.3586355149745941 0.15592944622039795 -0.9203621745109558 52 4 152
-0.386300653219223 0.12864719331264496 -0.9133573770523071 54 4 152
-0.38434135913848877 0.11756595969200134 -0.9156745672225952 52 4 152
-0.3939165771007538 0.07053074985742569 -0.9164361357688904 49 4 150
-0.4140746593475342 0.032797425985336304 -0.9096518754959106 43 5 148
-0.424774706363678 -0.014965665526688099 -0.9051754474639893 39 5 146
-0.4263131320476532 -0.054791081696748734 -0.9029147624969482 39 5 146
-0.44049200415611267 -0.13420572876930237 -0.8876685500144958 41 5 147
-0.4335998594760895 -0.18175917863845825 -0.8825841546058655 41 5 147
-0.4645967185497284 -0.20728613436222076 -0.8609194755554199 43 5 148
-0.44105640053749084 -0.26656535267829895 -0.8569785356521606 45 4 148
-0.4284519851207733 -0.3032893240451813 -0.8511430621147156 49 4 150
-0.42575255036354065 -0.32300588488578796 -0.8452230095863342 52 4 152
-0.4355619549751282 -0.35259735584259033 -0.8282275199890137 56 4 153
-0.44825074076652527 -0.3831025958061218 -0.8076531887054443 58 4 154
-0.4640493392944336 -0.4266457259654999 -0.7762935757637024 58 4 154
-0.44556769728660583 -0.46789517998695374 -0.7632453441619873 54 4 152
-0.43823131918907166 -0.5078451633453369 -0.7416512966156006 54 4 152
-0.4193360507488251 -0.5408592224121094 -0.7291287183761597 56 4 153
-0.4129878580570221 -0.5409433841705322 -0.7326809167861938 61 3 155
-0.4244648814201355 -0.5628780722618103 -0.7092234492301941 66 3 157
-0.4296737611293793 -0.5984880328178406 -0.6761601567268372 73 2 159
-0.4200320541858673 -0.6132434010505676 -0.6689585447311401 78 2 161
-0.392583966255188 -0.6318211555480957 -0.6683411598205566 92 0 165
-0.4198984205722809 -0.6490781903266907 -0.6343364715576172 106 0 167
-0.43447259068489075 -0.6354467868804932 -0.638310968875885 109 0 168
-0.4140265882015228 -0.6151182055473328 -0.6709781289100647 109 0 168
-0.45054587721824646 -0.5878378748893738 -0.6719040870666504 101 0 167
-0.4172172546386719 -0.576645016670227 -0.7024317383766174 92 0 165
-0.4431922435760498 -0.583221435546875 -0.6807594895362854 95 0 166
-0.43601110577583313 -0.5931548476219177 -0.6768025755882263 90 0 165
-0.46381908655166626 -0.5920305848121643 -0.659068763256073 87 1 164
-0.45890238881111145 -0.5880511999130249 -0.6660363674163818 84 1 163
-0.44883525371551514 -0.602892279624939 -0.6595967411994934 81 1 162
-0.4709891974925995 -0.6070628762245178 -0.6400342583656311 79 2 162
-0.47652602195739746 -0.6030241847038269 -0.6397536396980286 84 1 163
-0.4725942313671112 -0.6199554204940796 -0.6263465285301208 84 1 163
-0.5002011656761169 -0.6369349956512451 -0.5866112112998962 82 1 163
-0.4741309881210327 -0.6297631859779358 -0.6153032779693604 82 1 163
-0.4751608073711395 -0.5756585597991943 -0.6654618382453918 81 1 162
-0.4549263119697571 -0.5318086743354797 -0.7142980098724365 81 1 162
-0.505312979221344 -0.5173940658569336 -0.690624475479126 86 1 163
-0.5004364252090454 -0.5274368524551392 -0.6865666508674622 84 1 163
-0.4565276801586151 -0.5488921999931335 -0.700214147567749 82 1 163
-0.4658671021461487 -0.5241836905479431 -0.7128810286521912 79 2 162
-0.4559795558452606 -0.5068143606185913 -0.73158860206604 79 2 162
-0.48269739747047424 -0.5615912079811096 -0.6720256805419922 78 2 161
-0.42864271998405457 -0.616136372089386 -0.6607884168624878 84 1 163
-0.40297427773475647 -0.656304121017456 -0.6378688216209412 89 1 164
-0.38390859961509705 -0.6632288098335266 -0.642449676990509 84 1 163
-0.35905328392982483 -0.7099515795707703 -0.6058460474014282 74 2 160
-0.33841603994369507 -0.7475411891937256 -0.5715389251708984 63 3 156
-0.3619280755519867 -0.7592601180076599 -0.5408623814582825 54 4 152
-0.3659764230251312 -0.7572866082191467 -0.5409051179885864 47 4 149
-0.3588021695613861 -0.7160175442695618 -0.5988154411315918 39 5 146
-0.412628173828125 -0.6734991073608398 -0.6132999658584595 33 5 143
-0.38661089539527893 -0.6720756888389587 -0.6315428018569946 31 5 142
-0.41594064235687256 -0.6231088638305664 -0.6623660326004028 29 6 141
-0.4212406575679779 -0.6052296757698059 -0.6754652857780457 29 6 141
-0.41653522849082947 -0.5783946514129639 -0.7013971209526062 29 6 141
-0.4105023443698883 -0.5593008995056152 -0.7201877236366272 29 6 141
-0.3658331632614136 -0.591600239276886 -0.7184533476829529 29 6 141
-0.4086095690727234 -0.6099863052368164 -0.6789366602897644 29 6 141
-0.35486793518066406 -0.6750509738922119 -0.6468190550804138 29 6 141
-0.37088796496391296 -0.7241215109825134 -0.5814551115036011 29 6 141
-0.32289284467697144 -0.7573338747024536 -0.5676140785217285 29 6 141
-0.302387535572052 -0.737872838973999 -0.6034114956855774 29 6 141
-0.31210818886756897 -0.6814814805984497 -0.6619452238082886 29 6 141
-0.3598299026489258 -0.6473349332809448 -0.671922504901886 31 5 142
-0.3589940667152405 -0.6235520243644714 -0.694482684135437 35 5 144
-0.3507532775402069 -0.5976733565330505 -0.7209429740905762 29 6 141
-0.35229313373565674 -0.5750108957290649 -0.7384117245674133 27 6 140
-0.3663617670536041 -0.552996814250946 -0.748313844203949 27 6 140
-0.3892616033554077 -0.5567467212677002 -0.7338313460350037 27 6 140
-0.38775599002838135 -0.5372638702392578 -0.7489945292472839 27 6 140
-0.42666807770729065 -0.5432364344596863 -0.7230826020240784 29 6 141
-0.4229729473590851 -0.580298662185669 -0.6959506869316101 41 5 147
-0.44417479634284973 -0.6091604232788086 -0.6569873690605164 39 5 146
-0.4026525914669037 -0.6560879945755005 -0.6382941603660583 33 5 143
-0.38202133774757385 -0.6559290885925293 -0.651012122631073 31 5 142
-0.4049006700515747 -0.6701305508613586 -0.6220775842666626 29 6 141
-0.37178558111190796 -0.739241898059845 -0.5615130662918091 29 6 141
-0.3354365825653076 -0.7743738889694214 -0.5364955067634583 24 6 139
-0.30772411823272705 -0.808197021484375 -0.5021188855171204 24 6 139
-0.2543751299381256 -0.8364818096160889 -0.48537760972976685 21 6 138
-0.2683205306529999 -0.8422258496284485 -0.4676106870174408 21 6 138
-0.28677958250045776 -0.8484683036804199 -0.44481346011161804 24 6 139
-0.3107001781463623 -0.8446916937828064 -0.43584567308425903 24 6 139
-0.287015438079834 -0.8566784858703613 -0.42863041162490845 29 6 141
-0.28837066888809204 -0.8425220847129822 -0.4549713134765625 33 5 143
-0.3063810169696808 -0.8326855897903442 -0.4612649083137512 37 5 145
-0.30945146083831787 -0.8455631732940674 -0.43504342436790466 33 5 143
-0.29121464490890503 -0.8798213005065918 -0.37564414739608765 31 5 142
-0.26755356788635254 -0.9028816819190979 -0.3364812433719635 31 5 142
-0.3085096776485443 -0.8897698521614075 -0.33635008335113525 31 5 142
-0.29161161184310913 -0.9062470197677612 -0.30607032775878906 29 6 141
-0.2785581350326538 -0.911052942276001 -0.3039538562297821 29 6 141
-0.29616373777389526 -0.9101375341415405 -0.2897183895111084 31 5 142
-0.28744247555732727 -0.9104499220848083 -0.2974184453487396 41 5 147
-0.2823534309864044 -0.9113672375679016 -0.29947659373283386 43 5 148
-0.3041711449623108 -0.9128842353820801 -0.27225422859191895 49 4 150
-0.2973859906196594 -0.9148014187812805 -0.27331286668777466 51 4 151
-0.2672387361526489 -0.9280932545661926 -0.2592805325984955 51 4 151
-0.27948302030563354 -0.9333382844924927 -0.2253197282552719 51 4 151
-0.27031809091567993 -0.9364421963691711 -0.22361597418785095 49 4 150
-0.26128000020980835 -0.9427624940872192 -0.20719943940639496 49 4 150
-0.24988773465156555 -0.9495250582695007 -0.1896270364522934 47 4 149
-0.24103830754756927 -0.9558003544807434 -0.1683635264635086 47 4 149
-0.22532901167869568 -0.9634000658988953 -0.14521390199661255 51 4 151
-0.19375692307949066 -0.9771147966384888 -0.08777739107608795 52 4 152
-0.1614556461572647 -0.9865648150444031 -0.024937257170677185 58 4 154
-0.13259930908679962 -0.991115927696228 0.010328399017453194 61 3 155
-0.13616278767585754 -0.9896652102470398 0.04497188702225685 63 3 156
-0.14462701976299286 -0.9888304471969604 0.036018483340740204 64 3 156
-0.12178061157464981 -0.9913635849952698 0.04865974187850952 64 3 156
-0.14265884459018707 -0.9884955286979675 0.05025095492601395 64 3 156
-0.12316727638244629 -0.9896563291549683 0.07355352491140366 66 3 157
-0.1332259625196457 -0.9854850769042969 0.10521415621042252 76 2 161
-0.1267184317111969 -0.9858046770095825 0.11014367640018463 79 2 162
-0.10378381609916687 -0.9812979102134705 0.16212153434753418 81 1 162
-0.057040002197027206 -0.9772442579269409 0.20430368185043335 87 1 164
-0.05879654362797737 -0.9675939083099365 0.2455708533525467 90 0 165
-0.03825837001204491 -0.961057186126709 0.273688405752182 89 1 164
-0.04498717561364174 -0.9623426198959351 0.268091082572937 86 1 163
-0.006132363807410002 -0.9497690796852112 0.3128916025161743 84 1 163
-0.011963226832449436 -0.9382966160774231 0.3456244170665741 81 1 162
-0.004883257206529379 -0.9324197769165039 0.36134397983551025 73 2 159
-0.005271193105727434 -0.9438307285308838 0.3303873538970947 68 3 158
-0.013403822667896748 -0.9421482086181641 0.33492863178253174 66 3 157
0.007590003311634064 -0.9442960023880005 0.3290097415447235 64 3 156
0.014148927293717861 -0.9316167831420898 0.36316677927970886 64 3 156
0.0634353905916214 -0.917754590511322 0.39204925298690796 64 3 156
0.02716672047972679 -0.9263308048248291 0.37573012709617615 54 4 152
0.038343384861946106 -0.9297158122062683 0.36627626419067383 51 4 151
0.006671858951449394 -0.9360365867614746 0.35183945298194885 45 4 148
-0.0004100457008462399 -0.9381657242774963 0.34618619084358215 39 5 146
-0.010997356846928596 -0.960944414138794 0.2765229046344757 37 5 145
-0.0646347776055336 -0.971363365650177 0.2286386489868164 37 5 145
-0.0842016264796257 -0.9706447720527649 0.2252972573041916 35 5 144
-0.02424507588148117 -0.9651415348052979 0.260603129863739 35 5 144
-0.03194589167833328 -0.9588049054145813 0.2822633683681488 35 5 144
0.026534708216786385 -0.9665060639381409 0.25526854395866394 37 5 145
0.001539910794235766 -0.9377557039260864 0.34729206562042236 39 5 146
0.01927175186574459 -0.9364187121391296 0.35035502910614014 41 5 147
0.0078300591558218 -0.9453648328781128 0.3259202837944031 47 4 149
0.02562766708433628 -0.9519827961921692 0.3050769567489624 41 5 147
0.06408526003360748 -0.9299046397209167 0.3621746599674225 39 5 146
0.10902631282806396 -0.9107980728149414 0.39819616079330444 43 5 148
0.13911767303943634 -0.8808884620666504 0.4524177014827728 39 5 146
0.15664248168468475 -0.8413440585136414 0.5173038244247437 39 5 146
0.11225858330726624 -0.853062629699707 0.5095900297164917 45 4 148
0.12869034707546234 -0.8821547031402588 0.45303618907928467 43 5 148
0.08704634010791779 -0.8856838941574097 0.45605581998825073 43 5 148
0.06884853541851044 -0.8856450319290161 0.4592307209968567 37 5 145
0.078511081635952 -0.8719367384910583 0.48328301310539246 37 5 145
0.07910604774951935 -0.8783472776412964 0.4714321196079254 41 5 147
0.03084159828722477 -0.9064919352531433 0.4210951328277588 43 5 148
0.042984262108802795 -0.9159342050552368 0.3990199565887451 43 5 148
-0.016642305999994278 -0.8981451392173767 0.43938392400741577 43 5 148
0.1281355768442154 -0.9000959992408752 0.416423499584198 45 4 148
0.13882306218147278 -0.8751752376556396 0.4634615182876587 41 5 147
0.11378287523984909 -0.8751392364501953 0.4703027904033661 41 5 147
-0.024364033713936806 -0.9009060263633728 0.4333299398422241 43 5 148
0.026312220841646194 -0.9327788352966309 0.3594876229763031 37 5 145
0.005913765635341406 -0.9444016218185425 0.32874104380607605 41 5 147
0.059068713337183 -0.957889974117279 0.2809939384460449 43 5 148
0.09322191029787064 -0.9099186062812805 0.40417540073394775 43 5 148
0.07187921553850174 -0.8698842525482178 0.48799046874046326 41 5 147
0.08252152800559998 -0.9037291407585144 0.4200761020183563 41 5 147
0.04544658586382866 -0.8738614320755005 0.4840463101863861 43 5 148
0.05175765976309776 -0.8981187343597412 0.4366963803768158 47 4 149
0.10127057880163193 -0.8751646876335144 0.4731077551841736 43 5 148
0.07554656267166138 -0.8415242433547974 0.5349108576774597 45 4 148
0.12052291631698608 -0.8316893577575684 0.5420028567314148 41 5 147
0.1708979308605194 -0.7891678810119629 0.5899219512939453 41 5 147
0.19757752120494843 -0.7771171927452087 0.5975382328033447 41 5 147
0.264842689037323 -0.7648631930351257 0.5872331857681274 41 5 147
0.3096143901348114 -0.664302408695221 0.6803243160247803 45 4 148
0.26625481247901917 -0.6386494040489197 0.7219662666320801 41 5 147
0.20240573585033417 -0.6894499063491821 0.6954787373542786 39 5 146
0.20342764258384705 -0.7245553135871887 0.6585110425949097 39 5 146
0.20372609794139862 -0.7690007090568542 0.6059154272079468 39 5 146
0.2593660056591034 -0.7299107313156128 0.6324235200881958 37 5 145
0.3873816728591919 -0.6072180271148682 0.6937013864517212 37 5 145
0.5225626826286316 -0.5304036140441895 0.6675329208374023 37 5 145
0.3709604740142822 -0.6566177606582642 0.6566897630691528 35 5 144
0.25034722685813904 -0.6240283250808716 0.7402128577232361 35 5 144
0.2010144740343094 -0.624495804309845 0.7547173500061035 35 5 144
