ply
format ascii 1.0
element vertex 687
property float x
property float y
property float z
property uchar red
property uchar green
property uchar blue
end_header
0.10354156047105789 -0.2284446805715561 -0.0880332663655281 0 0 255
0.07545213401317596 -0.1966949850320816 -0.04077658802270889 0 0 255
0.1019836962223053 -0.20145268738269806 -0.11810820549726486 0 0 255
0.02250296249985695 -0.19488658010959625 -0.09884683787822723 0 0 255
0.05249493941664696 -0.10274534672498703 -0.10605671256780624 0 0 255
0.017337530851364136 -0.1372140645980835 -0.1204485148191452 0 0 255
0.07605040073394775 0.00802675448358059 -0.02673090435564518 0 0 255
0.02449939213693142 -0.007367893122136593 -0.02048581652343273 0 0 255
0.026690039783716202 -0.047302402555942535 -0.12471498548984528 0 0 255
0.004370386712253094 -0.03060849942266941 -0.042550720274448395 0 0 255
0.03668992593884468 0.05428294464945793 -0.06579411774873734 0 0 255
-0.08059251308441162 -0.07893994450569153 -0.09205066412687302 0 0 255
-0.04666777700185776 -0.0876283198595047 -0.050843171775341034 0 0 255
-0.035402506589889526 -0.07642737776041031 0.003739711595699191 0 0 255
-0.04864624887704849 -0.06200938671827316 0.043139535933732986 0 0 255
-0.039094194769859314 -0.06981430947780609 0.07466712594032288 0 0 255
-0.013372342102229595 -0.08203507959842682 0.09010609984397888 0 0 255
-0.01518127229064703 -0.11848315596580505 0.08749011904001236 0 0 255
-0.026686614379286766 -0.15944789350032806 0.09952457994222641 0 0 255
-0.005461154971271753 -0.15162257850170135 0.11148029565811157 0 0 255
0.006120092701166868 -0.11769421398639679 0.13997782766819 0 0 255
-0.06532822549343109 -0.10339400172233582 0.19205299019813538 0 0 255
-0.08771717548370361 -0.03970275819301605 0.2914039194583893 0 0 255
-0.09229831397533417 -0.021891959011554718 0.2775481045246124 0 0 255
-0.14761270582675934 -0.19323106110095978 0.2337883859872818 0 0 255
-0.04297690838575363 -0.1650083363056183 0.21894040703773499 0 0 255
-0.0746358186006546 -0.1078377366065979 0.23199462890625 0 0 255
-0.08433310687541962 -0.14293228089809418 0.21381981670856476 0 0 255
-0.03346091881394386 -0.12836818397045135 0.1827150136232376 0 0 255
-0.03496671840548515 -0.1937006115913391 0.1493024230003357 0 0 255
-0.098626047372818 -0.20966117084026337 0.1842760294675827 0 0 255
-0.06693625450134277 -0.13397477567195892 0.17459750175476074 0 0 255
-0.027140779420733452 -0.12479232251644135 0.10779987275600433 0 0 255
-0.01642792671918869 -0.13345679640769958 -0.0010083878878504038 0 0 255
0.002530817873775959 -0.12388020008802414 -0.04264330491423607 0 0 255
0.0026268602814525366 -0.10038880258798599 -0.016118492931127548 0 0 255
0.002933428855612874 -0.08801749348640442 0.002663892228156328 0 0 255
-0.0021107206121087074 -0.05199596658349037 0.005898070055991411 0 0 255
0.02211863175034523 -0.04748718440532684 -0.02588973380625248 0 0 255
0.026993833482265472 -0.13270004093647003 -0.044494982808828354 0 0 255
0.06339476257562637 -0.12738612294197083 -0.06921737641096115 0 0 255
0.0834929496049881 -0.09190525859594345 -0.062400247901678085 0 0 255
0.02304001711308956 -0.2546105682849884 -0.09857507795095444 0 0 255
0.03620913252234459 -0.24812687933444977 -0.024646643549203873 0 0 255
0.05723988637328148 -0.2087460458278656 0.05541663616895676 0 0 255
0.005964231211692095 -0.24289505183696747 0.12818238139152527 0 0 255
-0.026396475732326508 -0.3026580214500427 0.18039102852344513 0 0 255
0.016377152875065804 -0.3024628758430481 0.21274524927139282 0 0 255
0.03831039369106293 -0.20632582902908325 0.18043163418769836 0 0 255
-0.04367472231388092 -0.2659781575202942 0.20150551199913025 0 0 255
-0.01762039214372635 -0.17219845950603485 0.19160541892051697 0 0 255
-0.08378095179796219 -0.10156819969415665 0.1747780442237854 0 0 255
-0.05685197561979294 -0.08458719402551651 0.12760691344738007 0 0 255
-0.04584483429789543 -0.08166616410017014 0.11927814781665802 0 0 255
-0.0277953390032053 -0.07841560244560242 0.10733019560575485 0 0 255
-0.02365926280617714 -0.05977175012230873 0.10117585957050323 0 0 255
-0.041253335773944855 -0.06271351873874664 0.07881885021924973 0 0 255
-0.02114531584084034 -0.06773340702056885 0.08111580461263657 0 0 255
-0.021166928112506866 -0.06124259531497955 0.09894789755344391 0 0 255
-0.0353509783744812 -0.054990652948617935 0.11169257760047913 0 0 255
-0.05239206552505493 -0.05084606632590294 0.1154993325471878 0 0 255
-0.056890953332185745 -0.05563416704535484 0.13042716681957245 0 0 255
-0.06859447062015533 -0.07504864782094955 0.1563471406698227 0 0 255
-0.08169683068990707 -0.07893101125955582 0.19613316655158997 0 0 255
-0.08568256348371506 -0.07672373950481415 0.2187449336051941 0 0 255
-0.09409111738204956 -0.08902088552713394 0.22936561703681946 0 0 255
-0.1063934937119484 -0.0941852405667305 0.23803235590457916 0 0 255
-0.09202440083026886 -0.06686560809612274 0.2430202066898346 0 0 255
-0.09303126484155655 -0.07097546011209488 0.2251928150653839 0 0 255
-0.08942881226539612 -0.06688570976257324 0.20998764038085938 0 0 255
-0.08547187596559525 -0.05586450919508934 0.19320741295814514 0 0 255
-0.07590380311012268 -0.04074552282691002 0.1873312145471573 0 0 255
-0.07784166932106018 -0.03606255725026131 0.1816883087158203 0 0 255
-0.07872321456670761 -0.0403858944773674 0.1586436778306961 0 0 255
-0.08249961584806442 -0.012892646715044975 0.15186667442321777 0 0 255
-0.08186537772417068 0.0031301057897508144 0.13242462277412415 0 0 255
-0.09068521857261658 0.030263729393482208 0.12208227068185806 0 0 255
-0.0904676765203476 0.06610178202390671 0.08703948557376862 0 0 255
-0.08829042315483093 0.09716951102018356 0.061111439019441605 0 0 255
-0.0803014412522316 0.11825329810380936 0.06168028712272644 0 0 255
-0.06907650828361511 0.11029613763093948 0.02916303649544716 0 0 255
-0.07037408649921417 0.10737869143486023 0.027837904170155525 0 0 255
-0.06143355742096901 0.10064689815044403 0.021566415205597878 0 0 255
-0.06363290548324585 0.10355525463819504 0.015842672437429428 0 0 255
-0.06494322419166565 0.09092232584953308 0.012321118265390396 0 0 255
-0.0609440952539444 0.08286989480257034 -0.0008226164500229061 0 0 255
-0.0627402812242508 0.07650259882211685 0.0073001328855752945 0 0 255
-0.060781944543123245 0.0768032819032669 0.017729172483086586 0 0 255
-0.06287746876478195 0.08365508913993835 0.018558666110038757 0 0 255
-0.07706639915704727 0.08982976526021957 0.03990471735596657 0 0 255
-0.07664047181606293 0.07968693226575851 0.0745396763086319 0 0 255
-0.08379799127578735 0.042320530861616135 0.11496999114751816 0 0 255
-0.11332347989082336 0.003114914521574974 0.18751905858516693 0 0 255
-0.17304584383964539 0.05143553763628006 0.2869408130645752 0 0 255
-0.20770372450351715 0.13262541592121124 0.378837913274765 0 0 255
-0.2523985803127289 0.041627589613199234 0.41764596104621887 0 0 255
-0.20217762887477875 0.02562420256435871 0.402415931224823 0 0 255
-0.25158798694610596 0.060808319598436356 0.4257787764072418 0 0 255
-0.18882817029953003 0.0905047059059143 0.4659903347492218 0 0 255
-0.16101570427417755 0.1376945525407791 0.40147078037261963 0 0 255
-0.2328307181596756 0.04655364528298378 0.3477381765842438 0 0 255
-0.19544093310832977 0.11207250505685806 0.3161065876483917 0 0 255
-0.18586133420467377 0.10293782502412796 0.28486761450767517 0 0 255
-0.19128701090812683 0.12293249368667603 0.2966533899307251 0 0 255
-0.2039807289838791 0.10362005978822708 0.2772293984889984 0 0 255
-0.21674489974975586 0.13130980730056763 0.18552495539188385 0 0 255
-0.24539420008659363 0.18144503235816956 -0.05197187513113022 0 0 255
-0.19805119931697845 0.28198984265327454 -0.14845529198646545 0 0 255
-0.08617185056209564 0.2940767705440521 -0.14338864386081696 0 0 255
-0.06348001211881638 0.2827620804309845 -0.10458645969629288 0 0 255
-0.05967825651168823 0.2563921809196472 -0.09009673446416855 0 0 255
-0.04076651111245155 0.24062131345272064 -0.07689663022756577 0 0 255
-0.023114655166864395 0.22622013092041016 -0.05867201089859009 0 0 255
-0.019443674013018608 0.20034794509410858 -0.03969034552574158 0 0 255
-0.024874623864889145 0.1860232800245285 -0.025274669751524925 0 0 255
-0.01649753749370575 0.18252262473106384 -0.021379083395004272 0 0 255
-0.012239109724760056 0.1816711723804474 -0.033170294016599655 0 0 255
-0.0186782144010067 0.18880365788936615 -0.023288540542125702 0 0 255
-0.01892334409058094 0.1894288957118988 -0.00753216166049242 0 0 255
-0.014409057796001434 0.18811830878257751 -0.012111233547329903 0 0 255
-0.015933945775032043 0.19280898571014404 -0.030535543337464333 0 0 255
-0.02397102117538452 0.2177666872739792 -0.04381326213479042 0 0 255
-0.022011123597621918 0.2586774230003357 -0.052369773387908936 0 0 255
-0.03032948076725006 0.2601616084575653 -0.06585369259119034 0 0 255
-0.024243028834462166 0.28367939591407776 -0.07027328759431839 0 0 255
-0.008220870047807693 0.2817930281162262 -0.14093025028705597 0 0 255
-0.049167435616254807 0.28626349568367004 -0.14119753241539001 0 0 255
-0.0006195871392264962 0.3016265034675598 -0.1755714863538742 0 0 255
-0.011192974634468555 0.29367220401763916 -0.17259462177753448 0 0 255
-0.04254230111837387 0.2864284813404083 -0.09763066470623016 0 0 255
-0.02582775428891182 0.2903488576412201 -0.06384127587080002 0 0 255
-0.06190561130642891 0.2414909452199936 -0.06352899968624115 0 0 255
-0.07663293927907944 0.1983272135257721 -0.01197568979114294 0 0 255
-0.04518404230475426 0.19144055247306824 0.0009423380251973867 0 0 255
-0.057518746703863144 0.1810072362422943 -0.014139449223876 0 0 255
-0.03498551622033119 0.1937360316514969 -0.01879115030169487 0 0 255
-0.0690070167183876 0.16305729746818542 -0.003540575969964266 0 0 255
-0.07341036945581436 0.19650068879127502 0.05971062555909157 0 0 255
-0.07234784215688705 0.18315695226192474 0.04906154051423073 0 0 255
-0.11063879728317261 0.1590612530708313 0.07287643849849701 0 0 255
-0.1111927330493927 0.19054345786571503 0.10231272131204605 0 0 255
-0.08968592435121536 0.18678022921085358 0.12666592001914978 0 0 255
-0.104425348341465 0.15909625589847565 0.15074878931045532 0 0 255
-0.10588289797306061 0.19322466850280762 0.09295061975717545 0 0 255
-0.13305099308490753 0.15235395729541779 0.035068921744823456 0 0 255
-0.10078799724578857 0.22065740823745728 0.059995684772729874 0 0 255
-0.09531746804714203 0.23438359797000885 0.10898201912641525 0 0 255
-0.1401025503873825 0.171086847782135 0.20711670815944672 0 0 255
-0.06767018884420395 0.27010801434516907 0.20053477585315704 0 0 255
-0.05218076333403587 0.20320254564285278 0.16438569128513336 0 0 255
-0.07421378791332245 0.13639801740646362 0.11506486684083939 0 0 255
-0.041523609310388565 0.14567621052265167 0.09800029546022415 0 0 255
-0.042355820536613464 0.08963093161582947 0.0511859692633152 0 0 255
-0.030513295903801918 0.0607023686170578 0.016006916761398315 0 0 255
-0.0009264863329008222 0.04128190875053406 -0.04224773496389389 0 0 255
0.01006229966878891 0.03736352175474167 -0.09363353252410889 0 0 255
0.02532357908785343 0.06230635941028595 -0.13839282095432281 0 0 255
0.04477684199810028 0.056731417775154114 -0.1891920417547226 0 0 255
0.027773313224315643 0.08116640895605087 -0.17588767409324646 0 0 255
0.007552519906312227 0.08904199302196503 -0.15474164485931396 0 0 255
-0.037753358483314514 0.20893360674381256 -0.02250872179865837 0 0 255
-0.06846830248832703 0.24556413292884827 -0.03327261656522751 0 0 255
-0.12643034756183624 0.2221238911151886 0.09240315854549408 0 0 255
-0.15792953968048096 0.2750336229801178 0.18092693388462067 0 0 255
-0.1643635332584381 0.31107333302497864 0.20029473304748535 0 0 255
-0.20914585888385773 0.24110767245292664 0.3166152536869049 0 0 255
-0.15840978920459747 0.21031515300273895 0.29307684302330017 0 0 255
-0.14231827855110168 0.28266462683677673 0.350398987531662 0 0 255
-0.12093554437160492 0.2813951373100281 0.3574768602848053 0 0 255
-0.11692684888839722 0.25806644558906555 0.3391931653022766 0 0 255
-0.1254233866930008 0.22871527075767517 0.3378351628780365 0 0 255
-0.1341778188943863 0.2149025946855545 0.3351692855358124 0 0 255
-0.129030242562294 0.20882844924926758 0.31509795784950256 0 0 255
-0.14747224748134613 0.20571307837963104 0.30085644125938416 0 0 255
-0.13190202414989471 0.21250270307064056 0.29060739278793335 0 0 255
-0.1372920721769333 0.20714212954044342 0.2814309597015381 0 0 255
-0.13451232016086578 0.2097824662923813 0.2735888659954071 0 0 255
-0.12276715040206909 0.22230616211891174 0.27234208583831787 0 0 255
-0.1349940150976181 0.21853263676166534 0.28109312057495117 0 0 255
-0.13454917073249817 0.2106945663690567 0.25547435879707336 0 0 255
-0.13958579301834106 0.21385934948921204 0.23537498712539673 0 0 255
-0.12024910748004913 0.2248677760362625 0.196152463555336 0 0 255
-0.1054113507270813 0.22365063428878784 0.17097803950309753 0 0 255
-0.09008248895406723 0.23093454539775848 0.14565856754779816 0 0 255
-0.08306233584880829 0.23630492389202118 0.13548018038272858 0 0 255
-0.07689202576875687 0.2364867627620697 0.1321091204881668 0 0 255
-0.07461519539356232 0.22877338528633118 0.1377204954624176 0 0 255
-0.08451998233795166 0.22860421240329742 0.14643803238868713 0 0 255
-0.08472907543182373 0.24723446369171143 0.14042289555072784 0 0 255
-0.08570720255374908 0.257502943277359 0.13748608529567719 0 0 255
-0.09474185854196548 0.25752484798431396 0.14357821643352509 0 0 255
-0.09003502875566483 0.2558650076389313 0.15033501386642456 0 0 255
-0.09385186433792114 0.261141836643219 0.17119266092777252 0 0 255
-0.09428030997514725 0.24413667619228363 0.17299884557724 0 0 255
-0.09441820532083511 0.23592668771743774 0.17832686007022858 0 0 255
-0.09236124157905579 0.23527874052524567 0.17916230857372284 0 0 255
-0.08067073673009872 0.242381751537323 0.18484534323215485 0 0 255
-0.08647800981998444 0.2309642881155014 0.19719067215919495 0 0 255
-0.0982130616903305 0.2312537580728531 0.21120144426822662 0 0 255
-0.09598486870527267 0.2233342081308365 0.22639815509319305 0 0 255
-0.11981148272752762 0.21440914273262024 0.23765452206134796 0 0 255
-0.11848460137844086 0.2327265739440918 0.25479674339294434 0 0 255
-0.12960867583751678 0.22907087206840515 0.2528292238712311 0 0 255
-0.12238936126232147 0.22425949573516846 0.2503125071525574 0 0 255
-0.11711384356021881 0.21612651646137238 0.254781574010849 0 0 255
-0.11250483989715576 0.2425624132156372 0.27757829427719116 0 0 255
-0.08798711746931076 0.2625071406364441 0.24293500185012817 0 0 255
-0.10019636154174805 0.2282542735338211 0.19247549772262573 0 0 255
-0.10395675152540207 0.23628170788288116 0.16707956790924072 0 0 255
-0.07571882009506226 0.2408665269613266 0.13634273409843445 0 0 255
-0.06621219217777252 0.22137828171253204 0.12165822088718414 0 0 255
-0.07340376824140549 0.19695210456848145 0.10647010058164597 0 0 255
-0.061534155160188675 0.2171306610107422 0.10521211475133896 0 0 255
-0.07273866981267929 0.2095101773738861 0.10362456738948822 0 0 255
-0.05560858175158501 0.2169729471206665 0.11614403873682022 0 0 255
-0.06479386240243912 0.19018206000328064 0.12256212532520294 0 0 255
-0.06877552717924118 0.17648737132549286 0.11632876098155975 0 0 255
-0.07157476246356964 0.18574512004852295 0.1173972487449646 0 0 255
-0.0655834898352623 0.18740735948085785 0.11338655650615692 0 0 255
-0.05807030200958252 0.2024405598640442 0.12055938690900803 0 0 255
-0.07238241285085678 0.2027675211429596 0.1244380846619606 0 0 255
-0.07488714158535004 0.21471408009529114 0.11927229166030884 0 0 255
-0.06748601049184799 0.2126987874507904 0.12012995779514313 0 0 255
-0.09913741797208786 0.20233887434005737 0.126158207654953 0 0 255
-0.06479264050722122 0.22272273898124695 0.14645788073539734 0 0 255
-0.09321283549070358 0.2124667465686798 0.16603069007396698 0 0 255
-0.08912311494350433 0.26836931705474854 0.22292649745941162 0 0 255
-0.09993162006139755 0.2618062496185303 0.27358272671699524 0 0 255
-0.14366237819194794 0.24204684793949127 0.30463698506355286 0 0 255
-0.18134601414203644 0.29061391949653625 0.34941843152046204 0 0 255
-0.13966472446918488 0.35534659028053284 0.3672581911087036 0 0 255
-0.14906053245067596 0.23271290957927704 0.40129777789115906 0 0 255
-0.15850675106048584 0.2108226865530014 0.4047279357910156 0 0 255
-0.237917959690094 0.2303280085325241 0.3904285728931427 0 0 255
-0.20638884603977203 0.25703659653663635 0.35053637623786926 0 0 255
-0.22753754258155823 0.2954068183898926 0.34603652358055115 0 0 255
-0.24753186106681824 0.31967693567276 0.21185587346553802 0 0 255
-0.140269473195076 0.12746776640415192 0.049868226051330566 0 0 255
-0.0065093934535980225 0.10550297796726227 0.12688487768173218 0 0 255
-0.012170840054750443 0.09044238924980164 0.0827711895108223 0 0 255
-0.08448987454175949 0.1452021300792694 0.09232427924871445 0 0 255
-0.025696493685245514 0.1962808519601822 0.07784923911094666 0 0 255
-0.039265457540750504 0.1478080302476883 0.07333142310380936 0 0 255
-0.050161924213171005 0.1844346970319748 0.09791915118694305 0 0 255
-0.023785574361681938 0.1642322689294815 0.08357581496238708 0 0 255
-0.02858622558414936 0.08671727776527405 0.09169424325227737 0 0 255
-0.05671842023730278 0.06288158893585205 0.050084471702575684 0 0 255
-0.056553035974502563 0.11619380116462708 0.05127343907952309 0 0 255
-0.018520625308156013 0.18365539610385895 0.0557442270219326 0 0 255
-0.02239658683538437 0.26447194814682007 0.09320206940174103 0 0 255
-0.042358145117759705 0.2811090350151062 0.10656959563493729 0 0 255
-0.09069442749023438 0.2507076561450958 0.13359175622463226 0 0 255
-0.03780650720000267 0.2673587501049042 0.15470050275325775 0 0 255
-0.032500602304935455 0.20470383763313293 0.10616955906152725 0 0 255
-0.05064110457897186 0.14469751715660095 0.08059816807508469 0 0 255
-0.07676250487565994 0.16643215715885162 0.07866911590099335 0 0 255
-0.056402258574962616 0.21584370732307434 0.0699133425951004 0 0 255
-0.035268399864435196 0.20323047041893005 0.10089688748121262 0 0 255
-0.05637706443667412 0.167889803647995 0.1526665985584259 0 0 255
-0.10767179727554321 0.16574333608150482 0.23182247579097748 0 0 255
-0.10347223281860352 0.20093773305416107 0.24490350484848022 0 0 255
-0.09377405792474747 0.2141408622264862 0.29595646262168884 0 0 255
-0.09950467199087143 0.17031769454479218 0.31609195470809937 0 0 255
-0.11734534054994583 0.05970534682273865 0.3987267017364502 0 0 255
-0.0694926381111145 -0.05493063107132912 0.33896154165267944 0 0 255
-0.09734911471605301 -0.09564453363418579 0.1845085620880127 0 0 255
0.00116703100502491 -0.1710054874420166 0.01416013389825821 0 0 255
0.06115702539682388 -0.037519365549087524 -0.018290001899003983 0 0 255
0.036715924739837646 0.05155637115240097 -0.027275526896119118 0 0 255
0.014003775082528591 0.09492956101894379 -0.05212123319506645 0 0 255
0.021631933748722076 0.15337777137756348 -0.033394161611795425 0 0 255
0.025513678789138794 0.16616089642047882 -0.03978818282485008 0 0 255
0.00043174196616746485 0.13445021212100983 -0.04421583563089371 0 0 255
0.010349181480705738 0.10021639615297318 -0.05076964572072029 0 0 255
0.007835522294044495 0.08934548497200012 -0.06035754457116127 0 0 255
0.0017866464331746101 0.17951618134975433 -0.04710941016674042 0 0 255
-0.012521042488515377 0.144672229886055 -0.06734153628349304 0 0 255
-0.0012337735388427973 0.027759213000535965 -0.05803831294178963 0 0 255
0.008377415128052235 -0.028269993141293526 -0.06493540108203888 0 0 255
0.010825669392943382 0.002657469129189849 -0.08179979026317596 0 0 255
0.023930244147777557 -0.06545820832252502 -0.17369231581687927 0 0 255
0.044324152171611786 -0.09304078668355942 -0.18623514473438263 0 0 255
0.06887355446815491 -0.10387776046991348 -0.22218936681747437 0 0 255
0.07756228744983673 -0.08671320229768753 -0.24065952003002167 0 0 255
0.07283858954906464 -0.09770272672176361 -0.2472967505455017 0 0 255
0.060799889266490936 -0.09087666124105453 -0.24743779003620148 0 0 255
0.07810895889997482 -0.06900601834058762 -0.24728773534297943 0 0 255
0.0787133201956749 -0.0511566624045372 -0.26620960235595703 0 0 255
0.07855696231126785 -0.03196984902024269 -0.27225014567375183 0 0 255
0.07391730695962906 -0.042287927120923996 -0.27305033802986145 0 0 255
0.05970491096377373 -0.03899846225976944 -0.24210163950920105 0 0 255
0.05587683245539665 -0.02909155562520027 -0.21187882125377655 0 0 255
0.03188110142946243 -0.02355460450053215 -0.16818642616271973 0 0 255
0.025362223386764526 -0.017694301903247833 -0.13420136272907257 0 0 255
0.03307816758751869 0.0012636039173230529 -0.0983545258641243 0 0 255
0.005537358578294516 -0.018538786098361015 -0.06476413458585739 0 0 255
0.007680679205805063 -0.012138026766479015 -0.05504642054438591 0 0 255
0.010561162605881691 -0.009791300632059574 -0.029924748465418816 0 0 255
-0.013830428943037987 -0.02266237884759903 -0.009675437584519386 0 0 255
-0.01974266953766346 0.0018309953156858683 -0.0007123738178052008 0 0 255
-0.03773888945579529 -0.02308889478445053 -0.024150395765900612 0 0 255
-0.032880380749702454 -0.055133920162916183 -0.022499913349747658 0 0 255
-0.021175261586904526 -0.11683057248592377 -0.04991339519619942 0 0 255
-0.00472694868221879 -0.09296833723783493 -0.023134611546993256 0 0 255
-0.025164848193526268 -0.06366240233182907 -0.008995703421533108 0 0 255
-0.01844845898449421 -0.024183206260204315 -0.03103809244930744 0 0 255
-0.02616940625011921 0.017910273745656013 -0.002869032323360443 0 0 255
-0.007870824076235294 0.07060392946004868 0.007317225448787212 0 0 255
-0.006846248172223568 0.036936983466148376 -0.05770161375403404 0 0 255
-0.011194106191396713 0.01995294913649559 -0.07679826021194458 0 0 255
-0.05886618793010712 0.019583169370889664 -0.03987884894013405 0 0 255
-0.015290149487555027 0.1271986961364746 -0.06986907124519348 0 0 255
-0.017337437719106674 0.12006204575300217 0.04453627020120621 0 0 255
-0.07026469707489014 0.0795934647321701 0.021374450996518135 0 0 255
-0.12117084860801697 0.13850952684879303 0.06609001010656357 0 0 255
-0.23876601457595825 0.3867705464363098 -0.16820058226585388 0 0 255
-0.1798507273197174 0.3673339784145355 -0.31580936908721924 0 0 255
-0.16480380296707153 0.2094121128320694 -0.34664058685302734 0 0 255
-0.06140013039112091 0.2841454744338989 -0.2629704475402832 0 0 255
-0.06589904427528381 0.33499276638031006 -0.14318473637104034 0 0 255
-0.1035095602273941 0.3361463248729706 -0.06281563639640808 0 0 255
-0.11565925180912018 0.3254716694355011 -0.024118367582559586 0 0 255
-0.1152043491601944 0.35724225640296936 -0.013946890830993652 0 0 255
-0.08434417098760605 0.37240126729011536 -0.012600823305547237 0 0 255
-0.06657451391220093 0.30899083614349365 0.045909348875284195 0 0 255
-0.11887878179550171 0.2502237856388092 0.06093394756317139 0 0 255
-0.1293596774339676 0.24977493286132812 0.09673299640417099 0 0 255
-0.1271926760673523 0.24329723417758942 0.08210134506225586 0 0 255
-0.10810286551713943 0.2471710443496704 0.08083367347717285 0 0 255
-0.09356909245252609 0.2219361960887909 0.064665287733078 0 0 255
-0.07853052765130997 0.2143813669681549 0.07166256755590439 0 0 255
-0.08861036598682404 0.2203950732946396 0.07436475157737732 0 0 255
-0.07568461447954178 0.2316138595342636 0.09741419553756714 0 0 255
-0.0785880908370018 0.21772931516170502 0.0796419009566307 0 0 255
-0.09281867742538452 0.2288130819797516 0.11111228168010712 0 0 255
-0.11237077414989471 0.28158634901046753 0.14008593559265137 0 0 255
-0.08688503503799438 0.272222101688385 0.12970559298992157 0 0 255
-0.12532462179660797 0.2198130339384079 0.18871745467185974 0 0 255
-0.13559898734092712 0.238746777176857 0.2254307121038437 0 0 255
-0.15110795199871063 0.24592305719852448 0.21571989357471466 0 0 255
-0.154020756483078 0.24833936989307404 0.21732833981513977 0 0 255
-0.12184358388185501 0.2603789269924164 0.19252823293209076 0 0 255
-0.12865623831748962 0.26973414421081543 0.1457246094942093 0 0 255
-0.13027514517307281 0.2613290846347809 0.08684206753969193 0 0 255
-0.09455814957618713 0.2736588418483734 0.022532477974891663 0 0 255
-0.06764683872461319 0.23926401138305664 -0.0034922605846077204 0 0 255
-0.0499504953622818 0.19254718720912933 -0.0082800118252635 0 0 255
-0.045300211757421494 0.16714595258235931 -0.00955036748200655 0 0 255
-0.051020074635744095 0.14557787775993347 -0.05365168675780296 0 0 255
-0.04833453893661499 0.15934225916862488 -0.037043482065200806 0 0 255
-0.026692865416407585 0.11572305858135223 -0.04829259216785431 0 0 255
-0.040766872465610504 0.09558562934398651 -0.009718213230371475 0 0 255
-0.038159798830747604 0.07854319363832474 0.020951658487319946 0 0 255
-0.05454310402274132 0.044734422117471695 0.04069419950246811 0 0 255
-0.06856594234704971 0.06299557536840439 0.0641479641199112 0 0 255
-0.06718519330024719 0.10202108323574066 0.033350080251693726 0 0 255
-0.056060757488012314 0.11822833120822906 0.008385548368096352 0 0 255
-0.04848282039165497 0.12312648445367813 -0.0011892502661794424 0 0 255
-0.02826721780002117 0.12536929547786713 0.0015634915325790644 0 0 255
-0.028217967599630356 0.11890224367380142 0.015835566446185112 0 0 255
-0.04244745895266533 0.1249951422214508 0.025993017479777336 0 0 255
-0.04254322126507759 0.12408509850502014 0.046212416142225266 0 0 255
-0.05213227495551109 0.10463623702526093 0.05432574823498726 0 0 255
-0.05042731761932373 0.1105523481965065 0.05708315223455429 0 0 255
-0.04684416949748993 0.11003584414720535 0.051931124180555344 0 0 255
-0.054795797914266586 0.11280931532382965 0.0634143203496933 0 0 255
-0.051922108978033066 0.12409015744924545 0.08120779693126678 0 0 255
-0.05962277948856354 0.11173886805772781 0.08781517297029495 0 0 255
-0.06857159733772278 0.11330744624137878 0.09904845803976059 0 0 255
-0.06298704445362091 0.13629817962646484 0.08804088085889816 0 0 255
-0.06562022119760513 0.1444707214832306 0.08615415543317795 0 0 255
-0.05545322969555855 0.13853393495082855 0.09178855270147324 0 0 255
-0.05308682098984718 0.1315259337425232 0.08249050378799438 0 0 255
-0.057097017765045166 0.12964223325252533 0.07969075441360474 0 0 255
-0.042521823197603226 0.15046752989292145 0.07538819313049316 0 0 255
-0.04514710232615471 0.14119595289230347 0.059644635766744614 0 0 255
-0.04107484221458435 0.13483496010303497 0.05151490122079849 0 0 255
-0.03542438521981239 0.1288187950849533 0.057437680661678314 0 0 255
-0.03221043944358826 0.12527604401111603 0.041977427899837494 0 0 255
-0.035263340920209885 0.12334177643060684 0.03430599719285965 0 0 255
-0.021150993183255196 0.09861642867326736 0.05787089839577675 0 0 255
-0.031645528972148895 0.14417731761932373 0.05366844683885574 0 0 255
-0.06124766916036606 0.1745961755514145 0.045329269021749496 0 0 255
-0.06794639676809311 0.20341050624847412 0.06794482469558716 0 0 255
-0.0564575120806694 0.22938747704029083 0.04411626607179642 0 0 255
-0.046374231576919556 0.2266143262386322 0.020777015015482903 0 0 255
-0.024614110589027405 0.19972723722457886 -0.024979857727885246 0 0 255
-0.016635343432426453 0.16901326179504395 -0.028474867343902588 0 0 255
-0.029157046228647232 0.19351604580879211 -0.05481759086251259 0 0 255
-0.03768639639019966 0.20348921418190002 -0.027934551239013672 0 0 255
-0.04699420928955078 0.21714001893997192 -0.0031716185621917248 0 0 255
-0.06538281589746475 0.2603418529033661 -0.008232592605054379 0 0 255
-0.040404658764600754 0.29346200823783875 -0.042283181101083755 0 0 255
-0.027770157903432846 0.29751357436180115 -0.06042301282286644 0 0 255
-0.040358349680900574 0.2964661717414856 -0.08157587051391602 0 0 255
-0.03727477788925171 0.28330105543136597 -0.08650857210159302 0 0 255
-0.024553906172513962 0.2941153943538666 -0.08988736569881439 0 0 255
-0.025523880496621132 0.3276974856853485 -0.07519867271184921 0 0 255
-0.029624560847878456 0.2630666494369507 -0.15929406881332397 0 0 255
-0.005698689725250006 0.22006089985370636 -0.121861532330513 0 0 255
0.013236040249466896 0.19054335355758667 -0.10293082892894745 0 0 255
-0.003048551734536886 0.16140560805797577 -0.05741104483604431 0 0 255
-0.0180268045514822 0.12214609235525131 -0.049659524112939835 0 0 255
-0.03742724657058716 0.12818165123462677 0.025683630257844925 0 0 255
-0.03654319420456886 0.13847526907920837 0.043540358543395996 0 0 255
-0.04257475212216377 0.15707047283649445 0.08395090699195862 0 0 255
-0.08802548795938492 0.16101960837841034 0.10593529045581818 0 0 255
-0.08562521636486053 0.2194792926311493 0.17605406045913696 0 0 255
-0.10444357991218567 0.18281620740890503 0.14766037464141846 0 0 255
-0.1435040980577469 0.304435133934021 0.1697520613670349 0 0 255
-0.08263888955116272 0.2520647644996643 0.012880628928542137 0 0 255
-0.10148520022630692 0.2676171660423279 -0.12178464978933334 0 0 255
0.05009821429848671 0.147273987531662 -0.3210834264755249 0 0 255
0.05285903811454773 0.15157870948314667 -0.28934377431869507 0 0 255
0.056555360555648804 0.15857359766960144 -0.22958283126354218 0 0 255
0.032208774238824844 0.13422055542469025 -0.14896126091480255 0 0 255
0.009634817019104958 0.1003744900226593 -0.10458727926015854 0 0 255
0.006645217537879944 0.03666575253009796 -0.06898581981658936 0 0 255
-0.011769372038543224 0.028388815000653267 -0.011751614511013031 0 0 255
-0.0297098271548748 0.07111693918704987 0.014409428462386131 0 0 255
-0.04304015263915062 0.08805238455533981 0.018558654934167862 0 0 255
-0.05186156928539276 0.07408411055803299 0.022085053846240044 0 0 255
-0.04501141980290413 0.11119181662797928 0.02261897549033165 0 0 255
-0.03853098303079605 0.12341070175170898 -9.297126234741881e-05 0 0 255
-0.04326281696557999 0.16912971436977386 0.014694037847220898 0 0 255
-0.052200134843587875 0.15512920916080475 0.0017471557948738337 0 0 255
-0.03456665202975273 0.11100484430789948 -0.004796898458153009 0 0 255
-0.036290187388658524 0.13759930431842804 -0.014869911596179008 0 0 255
-0.03537159785628319 0.14247307181358337 -0.03515433147549629 0 0 255
-0.030334562063217163 0.17073014378547668 -0.0215473510324955 0 0 255
0.007856861688196659 0.16769692301750183 -0.029015546664595604 0 0 255
-0.005393351893872023 0.12434044480323792 -0.07065312564373016 0 0 255
-0.018245110288262367 0.1515839695930481 -0.050265975296497345 0 0 255
-0.007070370949804783 0.20661914348602295 -0.07392092049121857 0 0 255
-0.00924641266465187 0.1840510219335556 -0.12418601661920547 0 0 255
0.029097730293869972 0.16491542756557465 -0.13581636548042297 0 0 255
0.020356908440589905 0.14729131758213043 -0.1690741330385208 0 0 255
0.042111221700906754 0.14096012711524963 -0.1899956911802292 0 0 255
0.01582028716802597 0.10666495561599731 -0.17071311175823212 0 0 255
0.015095427632331848 0.16334578394889832 -0.13854411244392395 0 0 255
0.027282584458589554 0.16009648144245148 -0.1557084172964096 0 0 255
0.03834995627403259 0.130306214094162 -0.16958075761795044 0 0 255
0.028227904811501503 0.11258779466152191 -0.1696832925081253 0 0 255
0.024623490869998932 0.12204863876104355 -0.17337872087955475 0 0 255
0.027360836043953896 0.08520516753196716 -0.21273168921470642 0 0 255
0.013805516995489597 0.08983656018972397 -0.15410630404949188 0 0 255
0.036869846284389496 0.07486458867788315 -0.1233978420495987 0 0 255
0.011167691089212894 0.039790455251932144 -0.11056914180517197 0 0 255
0.00460277171805501 0.05139967426657677 -0.10112844407558441 0 0 255
-0.00979229062795639 0.07307679206132889 -0.09203933924436569 0 0 255
-0.00465903477743268 0.10004807263612747 -0.0910092294216156 0 0 255
-0.010066634975373745 0.11250478029251099 -0.09208890795707703 0 0 255
-0.024714292958378792 0.12472733110189438 -0.10279040038585663 0 0 255
-0.0025048209354281425 0.13292549550533295 -0.08729977905750275 0 0 255
0.002172993728891015 0.12866413593292236 -0.08882631361484528 0 0 255
-0.009007684886455536 0.08350204676389694 -0.09558408707380295 0 0 255
-0.01185599621385336 0.07877486199140549 -0.05381394177675247 0 0 255
8.024200360523537e-05 0.04799339175224304 -0.050039321184158325 0 0 255
-0.007244827691465616 0.04627665877342224 -0.025880038738250732 0 0 255
-0.006404689513146877 0.05273766815662384 -0.027558615431189537 0 0 255
-0.023955227807164192 0.008009668439626694 -0.057173069566488266 0 0 255
-0.006285618990659714 -0.008652247488498688 -0.05853898823261261 0 0 255
0.0036377643700689077 0.05111563205718994 -0.05567653849720955 0 0 255
-0.011706633493304253 0.05858312174677849 -0.05709840729832649 0 0 255
0.0057488735765218735 0.06447821110486984 -0.04716113209724426 0 0 255
0.004328527022153139 0.07287659496068954 -0.015275691635906696 0 0 255
-0.0005878433585166931 0.06953839212656021 0.015918992459774017 0 0 255
-0.011074665002524853 0.0487348698079586 0.020431149750947952 0 0 255
-0.019966179504990578 0.028060734272003174 0.030995463952422142 0 0 255
4.5850465539842844e-05 0.0015376508235931396 -0.004748175386339426 0 0 255
-0.00969969853758812 -0.02255726233124733 -0.011374369263648987 0 0 255
0.004317900165915489 -0.028261778876185417 -0.0185433067381382 0 0 255
0.016709960997104645 -0.05985429510474205 -0.06279738992452621 0 0 255
0.04160403832793236 -0.09300969541072845 -0.06450802832841873 0 0 255
0.050643548369407654 -0.11937360465526581 -0.08461397886276245 0 0 255
0.05049748718738556 -0.13785535097122192 -0.08259230852127075 0 0 255
0.0776575431227684 -0.18481779098510742 -0.11874376237392426 0 0 255
0.0548844076693058 -0.19093744456768036 -0.14199846982955933 0 0 255
0.04463009908795357 -0.1412692666053772 -0.13284984230995178 0 0 255
0.03613162040710449 -0.15204547345638275 -0.11926066875457764 0 0 255
0.03300569951534271 -0.1457768827676773 -0.09259258955717087 0 0 255
0.058303650468587875 -0.10514502972364426 -0.09340192377567291 0 0 255
0.05697045475244522 -0.10169745236635208 -0.11461878567934036 0 0 255
0.03819606080651283 -0.1257903128862381 -0.12429680675268173 0 0 255
0.07478661835193634 -0.16147814691066742 -0.13060323894023895 0 0 255
0.07731632888317108 -0.16655941307544708 -0.15698334574699402 0 0 255
0.08086535334587097 -0.12764710187911987 -0.1651035100221634 0 0 255
0.07718229293823242 -0.1587020605802536 -0.20155423879623413 0 0 255
0.06902121752500534 -0.18607299029827118 -0.22616709768772125 0 0 255
0.05884955823421478 -0.16305506229400635 -0.23572960495948792 0 0 255
0.10769281536340714 -0.15436872839927673 -0.28504592180252075 0 0 255
0.11482417583465576 -0.1162070780992508 -0.30246588587760925 0 0 255
0.10220886766910553 -0.042935214936733246 -0.18565303087234497 0 0 255
0.09857544302940369 -0.004739983472973108 -0.14066161215305328 0 0 255
0.018783243373036385 -0.002458557253703475 -0.06576913595199585 0 0 255
0.02747822366654873 -0.11455591022968292 -0.1014648824930191 0 0 255
-0.00859609805047512 -0.12386343628168106 -0.04536658525466919 0 0 255
0.03206454962491989 -0.03321923688054085 -0.15392489731311798 0 0 255
0.0597776360809803 -0.11453140527009964 -0.3231240212917328 0 0 255
0.07379589974880219 -0.1674424111843109 -0.3800981640815735 0 0 255
0.11625993251800537 -0.06455881148576736 -0.4072640538215637 0 0 255
0.101507268846035 -0.13186922669410706 -0.41120395064353943 0 0 255
0.10290515422821045 -0.141500324010849 -0.3380146920681 0 0 255
0.06422839313745499 -0.12420032173395157 -0.27512988448143005 0 0 255
0.0671302080154419 -0.09424642473459244 -0.21518002450466156 0 0 255
0.06825364381074905 -0.15890046954154968 -0.21161966025829315 0 0 255
0.0876745954155922 -0.1910608410835266 -0.21543359756469727 0 0 255
0.07745689898729324 -0.20260383188724518 -0.22885718941688538 0 0 255
0.061379071325063705 -0.1911213994026184 -0.20956625044345856 0 0 255
0.06883040815591812 -0.17264127731323242 -0.19028426706790924 0 0 255
0.06865954399108887 -0.21915900707244873 -0.20324788987636566 0 0 255
0.07175302505493164 -0.21952161192893982 -0.20877137780189514 0 0 255
0.07360528409481049 -0.18750162422657013 -0.19075751304626465 0 0 255
0.0642249658703804 -0.18456396460533142 -0.17142049968242645 0 0 255
0.07127465307712555 -0.19207602739334106 -0.19658160209655762 0 0 255
0.06343785673379898 -0.13666224479675293 -0.18771633505821228 0 0 255
0.11020133644342422 -0.14634732902050018 -0.23307181894779205 0 0 255
0.08735483139753342 -0.15056659281253815 -0.26631516218185425 0 0 255
0.11652158200740814 -0.14667239785194397 -0.33257541060447693 0 0 255
0.14334622025489807 -0.1574867069721222 -0.4060503840446472 0 0 255
0.10191009193658829 -0.18508455157279968 -0.48118773102760315 0 0 255
0.15849260985851288 -0.16296346485614777 -0.5207419395446777 0 0 255
0.17322830855846405 -0.15394769608974457 -0.49928557872772217 0 0 255
0.17174190282821655 -0.20481377840042114 -0.4014693796634674 0 0 255
0.12056554853916168 -0.2083764374256134 -0.30773892998695374 0 0 255
0.11015556752681732 -0.18279069662094116 -0.2871926426887512 0 0 255
0.09942729771137238 -0.10016220808029175 -0.22460313141345978 0 0 255
0.08611985296010971 -0.10415072739124298 -0.2559867799282074 0 0 255
0.07073628902435303 -0.074127696454525 -0.24108147621154785 0 0 255
0.06882040202617645 -0.08828850090503693 -0.2541173994541168 0 0 255
0.08136890083551407 -0.10104477405548096 -0.27395355701446533 0 0 255
0.0833134725689888 -0.11146163940429688 -0.2814617455005646 0 0 255
0.08332844078540802 -0.13651128113269806 -0.2952101528644562 0 0 255
0.077327661216259 -0.15312348306179047 -0.29323312640190125 0 0 255
0.09526026993989944 -0.15847164392471313 -0.29738038778305054 0 0 255
0.09375859797000885 -0.16561605036258698 -0.2866964042186737 0 0 255
0.0813196673989296 -0.18155509233474731 -0.25591427087783813 0 0 255
0.07615664601325989 -0.17691351473331451 -0.22315473854541779 0 0 255
0.07082757353782654 -0.11380708962678909 -0.1871616244316101 0 0 255
0.02322603575885296 -0.07355426251888275 -0.16474705934524536 0 0 255
-0.012792713940143585 -0.03851674497127533 -0.13237836956977844 0 0 255
-0.022000402212142944 -0.02435215190052986 -0.11083989590406418 0 0 255
-0.0009182844660244882 0.025932732969522476 -0.08794295787811279 0 0 255
-0.0025003203190863132 0.027291739359498024 -0.08726255595684052 0 0 255
0.0030463344883173704 0.01785125955939293 -0.09062375128269196 0 0 255
0.005388428922742605 0.01089601032435894 -0.10579968988895416 0 0 255
0.008139177225530148 0.008573245257139206 -0.10849865525960922 0 0 255
0.012464208528399467 -0.0007874093134887516 -0.11779391020536423 0 0 255
0.014800073578953743 -0.012128753587603569 -0.1225961223244667 0 0 255
0.0228518545627594 -0.023415958508849144 -0.13170336186885834 0 0 255
0.025553712621331215 -0.042491234838962555 -0.14833205938339233 0 0 255
0.024845881387591362 -0.04036244377493858 -0.1666356772184372 0 0 255
0.03302161023020744 -0.04314691945910454 -0.1802029311656952 0 0 255
0.04023547098040581 -0.047481831163167953 -0.1777569204568863 0 0 255
0.03315185010433197 -0.05392693355679512 -0.16968941688537598 0 0 255
0.030889825895428658 -0.054240304976701736 -0.15774919092655182 0 0 255
0.03237776830792427 -0.0653158500790596 -0.1526767909526825 0 0 255
0.03038874827325344 -0.07637941092252731 -0.17521533370018005 0 0 255
0.05243011936545372 -0.07500850409269333 -0.19210274517536163 0 0 255
0.0512903593480587 -0.09607577323913574 -0.21017232537269592 0 0 255
0.04785431548953056 -0.0884695053100586 -0.20552891492843628 0 0 255
0.059668973088264465 -0.10782883316278458 -0.19359710812568665 0 0 255
0.058131419122219086 -0.1135702133178711 -0.16928809881210327 0 0 255
0.04867076501250267 -0.11331000924110413 -0.15625694394111633 0 0 255
0.057158462703228 -0.1156872883439064 -0.14446648955345154 0 0 255
0.046338554471731186 -0.12450674176216125 -0.15130123496055603 0 0 255
0.06764882802963257 -0.1257074475288391 -0.17061465978622437 0 0 255
0.0662793293595314 -0.14263996481895447 -0.1980464607477188 0 0 255
0.06830344349145889 -0.14627355337142944 -0.19243906438350677 0 0 255
0.07253598421812057 -0.12456732243299484 -0.1702079027891159 0 0 255
0.0657835453748703 -0.0987681895494461 -0.14152134954929352 0 0 255
0.0439075231552124 -0.09418776631355286 -0.14872154593467712 0 0 255
0.046657755970954895 -0.10670897364616394 -0.18653984367847443 0 0 255
0.04810559004545212 -0.11900922656059265 -0.2103637158870697 0 0 255
0.066178098320961 -0.10954267531633377 -0.23858344554901123 0 0 255
0.07489627599716187 -0.1046409085392952 -0.24786345660686493 0 0 255
0.06861955672502518 -0.11533422768115997 -0.2424449771642685 0 0 255
0.07800335437059402 -0.11975715309381485 -0.21405307948589325 0 0 255
0.043693315237760544 -0.1267690360546112 -0.16131523251533508 0 0 255
0.046683475375175476 -0.11050819605588913 -0.09985554218292236 0 0 255
0.0264096949249506 -0.1347501277923584 -0.06981975585222244 0 0 255
0.011959956958889961 -0.12403636425733566 -0.047555748373270035 0 0 255
0.004418178927153349 -0.10104100406169891 -0.03447737917304039 0 0 255
0.004726526793092489 -0.12710414826869965 -0.022213269025087357 0 0 255
-0.012827028520405293 -0.12281832098960876 -0.007515926379710436 0 0 255
-0.006429934874176979 -0.08572898060083389 0.008547770790755749 0 0 255
-0.020044008269906044 -0.0959659069776535 0.005324193276464939 0 0 255
-0.027143293991684914 -0.0573933944106102 0.02729024551808834 0 0 255
-0.028356699272990227 -0.04333943873643875 0.035661764442920685 0 0 255
-0.03604825586080551 -0.02371378429234028 0.0486416257917881 0 0 255
-0.033272635191679 0.0008586379699409008 0.057945385575294495 0 0 255
-0.05504307523369789 -0.008401500061154366 0.04749142751097679 0 0 255
-0.040663354098796844 -0.0025258217938244343 0.032416027039289474 0 0 255
-0.035310231149196625 -0.011029470711946487 0.010596420615911484 0 0 255
-0.020838860422372818 0.005660223308950663 0.014010519720613956 0 0 255
-0.03448028489947319 -0.004331613890826702 -0.004887386690825224 0 0 255
-0.03417358174920082 0.007505024783313274 -0.021833138540387154 0 0 255
-0.033254388719797134 0.005497677717357874 -0.05314740538597107 0 0 255
-0.022276746109128 0.020528512075543404 -0.08518163114786148 0 0 255
-0.005738046485930681 -0.00954421516507864 -0.11352214962244034 0 0 255
-0.01135359425097704 0.01560126431286335 -0.10271444171667099 0 0 255
-0.00853134784847498 0.04101386293768883 -0.08799157291650772 0 0 255
-0.01812959462404251 0.04109755530953407 -0.06554542481899261 0 0 255
-0.019589252769947052 0.004837566986680031 -0.0658535584807396 0 0 255
-0.013827811926603317 -0.025333980098366737 -0.06878041476011276 0 0 255
0.0019598642829805613 -0.02148907445371151 -0.059986330568790436 0 0 255
0.0012255997862666845 -0.028003184124827385 -0.05230465531349182 0 0 255
0.0010271111968904734 -0.031045181676745415 -0.04045854136347771 0 0 255
0.005652589723467827 -0.05066060647368431 -0.05389564484357834 0 0 255
0.039276886731386185 -0.1362379789352417 -0.11132240295410156 0 0 255
0.06256423145532608 -0.23968356847763062 -0.16017001867294312 0 0 255
0.06324351578950882 -0.1895836442708969 -0.16372139751911163 0 0 255
0.08596737682819366 -0.12996158003807068 -0.22371558845043182 0 0 255
0.09735376387834549 -0.11100439727306366 -0.2502514719963074 0 0 255
0.10226784646511078 -0.04996548593044281 -0.24769070744514465 0 0 255
0.10892760008573532 -0.03991064801812172 -0.30584558844566345 0 0 255
0.10791132599115372 -0.061110638082027435 -0.34112349152565 0 0 255
0.09782888740301132 -0.02823540009558201 -0.3582373857498169 0 0 255
0.10767712444067001 0.000792533450294286 -0.3549179434776306 0 0 255
0.11827270686626434 -0.05125141516327858 -0.33629897236824036 0 0 255
0.10957928001880646 -0.07645315676927567 -0.3085532486438751 0 0 255
0.09389153867959976 -0.05511707067489624 -0.2926245331764221 0 0 255
0.09884282946586609 0.014823907986283302 -0.2542561888694763 0 0 255
0.06444639712572098 0.04387710988521576 -0.25184208154678345 0 0 255
0.05813347548246384 0.05534810572862625 -0.2205292135477066 0 0 255
0.07295820862054825 0.026652615517377853 -0.23221132159233093 0 0 255
0.06275735795497894 0.037551477551460266 -0.25860247015953064 0 0 255
0.06609819829463959 0.03844788670539856 -0.3052976429462433 0 0 255
0.10134274512529373 0.009736919775605202 -0.3226284086704254 0 0 255
0.10011465102434158 -0.024832379072904587 -0.3541686236858368 0 0 255
0.11077247560024261 -0.030349668115377426 -0.3325583040714264 0 0 255
0.07753501087427139 0.026873189955949783 -0.2860286831855774 0 0 255
0.10827288776636124 -0.01982208900153637 -0.3423226475715637 0 0 255
0.12967541813850403 -0.09751685708761215 -0.3921533524990082 0 0 255
0.1620090752840042 -0.12379713356494904 -0.43354398012161255 0 0 255
0.12077512592077255 -0.09587553888559341 -0.4719163477420807 0 0 255
0.1447858363389969 -0.07342863827943802 -0.4255526065826416 0 0 255
0.15514254570007324 -0.13179342448711395 -0.44361644983291626 0 0 255
0.137658029794693 -0.08507887274026871 -0.3829282522201538 0 0 255
0.14035700261592865 -0.12361110746860504 -0.4256378710269928 0 0 255
0.12255330383777618 -0.10669837146997452 -0.42692339420318604 0 0 255
0.1073349341750145 -0.07220810651779175 -0.4147111773490906 0 0 255
0.10446121543645859 -0.054225414991378784 -0.40730419754981995 0 0 255
0.1144685223698616 -0.013152887113392353 -0.38815340399742126 0 0 255
0.10084142535924911 -0.06296749413013458 -0.39086294174194336 0 0 255
0.12759022414684296 -0.10191036760807037 -0.38318145275115967 0 0 255
0.14492222666740417 -0.15227052569389343 -0.35613584518432617 0 0 255
0.1375359296798706 -0.12995114922523499 -0.34157001972198486 0 0 255
0.09825851023197174 -0.1706230640411377 -0.36243736743927 0 0 255
0.1251797080039978 -0.1493067890405655 -0.16868436336517334 0 0 255
0.18032753467559814 -0.2616459131240845 -0.1493145227432251 0 0 255
0.020023668184876442 -0.22440579533576965 -0.0019551950972527266 0 0 255
-0.02453618310391903 -0.06676630675792694 0.08870793133974075 0 0 255
-0.026461459696292877 0.028355736285448074 0.07836136221885681 0 0 255
-0.06189364567399025 0.009044439531862736 0.11780481785535812 0 0 255
-0.0640985444188118 0.03408336266875267 0.20803146064281464 0 0 255
-0.11079674959182739 -0.03510237857699394 0.17003726959228516 0 0 255
-0.1073128804564476 0.07799635082483292 0.28051573038101196 0 0 255
-0.1084659993648529 0.044724833220243454 0.30747053027153015 0 0 255
-0.15688949823379517 0.013798603788018227 0.34766602516174316 0 0 255
-0.20089636743068695 -0.05698886141180992 0.3423885405063629 0 0 255
-0.1647384613752365 -0.04900491610169411 0.34074005484580994 0 0 255
-0.0447474904358387 -0.15480288863182068 0.18972504138946533 0 0 255
-0.06615038216114044 -0.3070704936981201 0.0031493273563683033 0 0 255
0.04689064249396324 -0.16003261506557465 -0.021370779722929 0 0 255
0.04093625396490097 -0.19457700848579407 -0.13190843164920807 0 0 255
0.05413414165377617 -0.1840709000825882 -0.14561870694160461 0 0 255
0.057382404804229736 -0.17141766846179962 -0.1745956838130951 0 0 255
0.05782892182469368 -0.14944125711917877 -0.17744651436805725 0 0 255
0.06013548746705055 -0.1332513689994812 -0.18549373745918274 0 0 255
0.058978039771318436 -0.12152624130249023 -0.18868593871593475 0 0 255
0.05994425714015961 -0.12377476692199707 -0.19128656387329102 0 0 255
0.05702618509531021 -0.1308143436908722 -0.19185209274291992 0 0 255
0.054472845047712326 -0.1282099485397339 -0.18708616495132446 0 0 255
0.057794421911239624 -0.12719354033470154 -0.17923209071159363 0 0 255
0.05200803279876709 -0.14369717240333557 -0.18113699555397034 0 0 255
0.052362244576215744 -0.1435900628566742 -0.17792192101478577 0 0 255
0.04850124940276146 -0.15148907899856567 -0.18198798596858978 0 0 255
0.05301949009299278 -0.14013171195983887 -0.16953858733177185 0 0 255
0.04731934145092964 -0.14061729609966278 -0.17044179141521454 0 0 255
0.044292185455560684 -0.13527598977088928 -0.16717170178890228 0 0 255
0.04443082958459854 -0.12704238295555115 -0.15302181243896484 0 0 255
0.04203107953071594 -0.121855229139328 -0.139767125248909 0 0 255
0.039156049489974976 -0.13531507551670074 -0.1415584683418274 0 0 255
0.03737358748912811 -0.1536601185798645 -0.15281353890895844 0 0 255
0.044110462069511414 -0.13437217473983765 -0.1340261548757553 0 0 255
0.05775991454720497 -0.14174680411815643 -0.143976628780365 0 0 255
