ply
format ascii 1.0
element vertex 663
property float x
property float y
property float z
property uchar red
property uchar green
property uchar blue
end_header
-0.28255194425582886 -0.2168235331773758 0.240719273686409 253 184 44
-0.2662508189678192 -0.22144544124603271 0.23961614072322845 253 192 41
-0.282683789730072 -0.20936140418052673 0.21783015131950378 253 196 39
-0.28079333901405334 -0.19399842619895935 0.217350035905838 252 201 38
-0.26874208450317383 -0.20910459756851196 0.21858535706996918 253 198 38
-0.2528349757194519 -0.19232726097106934 0.21083076298236847 253 195 40
-0.2561647891998291 -0.22706983983516693 0.21599721908569336 253 188 42
-0.2570991516113281 -0.22514963150024414 0.21555224061012268 252 173 49
-0.2708085775375366 -0.24552316963672638 0.23354269564151764 252 167 53
-0.24768711626529694 -0.23956754803657532 0.2486400306224823 251 163 55
-0.23317284882068634 -0.2612597346305847 0.2591029703617096 251 163 55
-0.23916861414909363 -0.27949386835098267 0.2520206868648529 250 160 57
-0.24858199059963226 -0.27808764576911926 0.24195195734500885 250 159 58
-0.2582360506057739 -0.3034636378288269 0.25880053639411926 249 153 61
-0.28557145595550537 -0.32475996017456055 0.254021018743515 246 142 68
-0.2838023900985718 -0.338365763425827 0.2666201889514923 242 132 75
-0.25637102127075195 -0.35866543650627136 0.28977149724960327 240 128 77
-0.22864499688148499 -0.399832159280777 0.34551137685775757 242 133 74
-0.19816948473453522 -0.4506504535675049 0.3569808900356293 242 133 74
-0.15796418488025665 -0.461398720741272 0.3533834218978882 242 132 75
-0.13023315370082855 -0.4614187180995941 0.33020350337028503 239 126 78
-0.1578557938337326 -0.4561452567577362 0.27155908942222595 236 120 83
-0.17336973547935486 -0.42319872975349426 0.26567408442497253 233 114 87
-0.15751232206821442 -0.40493953227996826 0.28654736280441284 232 113 88
-0.18868999183177948 -0.4266745448112488 0.27673816680908203 228 106 93
-0.21835501492023468 -0.40938836336135864 0.24317055940628052 219 91 103
-0.2175944745540619 -0.37293165922164917 0.19467875361442566 215 87 107
-0.20917195081710815 -0.332611620426178 0.16835547983646393 213 83 109
-0.2127360999584198 -0.33254194259643555 0.1803189367055893 214 85 109
-0.2214944213628769 -0.30571773648262024 0.14649641513824463 215 86 108
-0.22309459745883942 -0.271915078163147 0.08777810633182526 215 86 108
-0.19119825959205627 -0.21137472987174988 0.07965343445539474 213 83 109
-0.14911429584026337 -0.1702820062637329 0.046190045773983 210 80 112
-0.05732009932398796 -0.1109481081366539 0.011038485914468765 210 80 112
0.01909719407558441 -0.08145245164632797 -0.010237875394523144 206 74 117
0.07460217922925949 -0.06000173091888428 -0.015565281733870506 203 71 119
0.11759945750236511 -0.042246732860803604 -0.014116231352090836 201 69 121
0.1254642903804779 -0.04027971997857094 -0.02430594153702259 202 70 120
0.11573591083288193 -0.03949909657239914 -0.02641895040869713 201 69 121
0.1255796253681183 -0.03579668700695038 -0.020511062815785408 201 69 121
0.12733939290046692 -0.034514814615249634 -0.024806348606944084 199 66 123
0.13221698999404907 -0.032589707523584366 -0.027197793126106262 196 63 126
0.16208888590335846 -0.01745878905057907 -0.02474435791373253 194 61 128
0.1763601303100586 -0.010112788528203964 -0.02690638229250908 198 65 124
0.1733880192041397 -0.00035381538327783346 -0.024798676371574402 192 59 129
0.1776806116104126 -0.005560275167226791 -0.03209518641233444 194 61 128
0.1967698186635971 0.008088442496955395 -0.033604834228754044 194 61 128
0.21309249103069305 0.005690924357622862 -0.028164401650428772 193 60 128
0.21947267651557922 0.01170770637691021 -0.03453369438648224 189 55 132
0.22660136222839355 0.023983679711818695 -0.037923526018857956 188 54 133
0.23223279416561127 0.026514612138271332 -0.04437580704689026 186 52 135
0.2349477857351303 0.033925529569387436 -0.05097609758377075 185 51 136
0.2406468540430069 0.03931470587849617 -0.049662258476018906 186 52 135
0.24749721586704254 0.04861226677894592 -0.05349737033247948 183 48 138
0.25300168991088867 0.05404537916183472 -0.056889720261096954 174 39 145
0.2563915252685547 0.05680995434522629 -0.06647489964962006 168 34 150
0.2639240622520447 0.059862468391656876 -0.058744095265865326 164 30 152
0.2640998363494873 0.05478287115693092 -0.06241733580827713 160 27 155
0.269639790058136 0.06367567181587219 -0.06659261137247086 159 26 155
0.2667143642902374 0.07351837307214737 -0.06879612058401108 155 23 158
0.2643887400627136 0.07425883412361145 -0.06476234644651413 149 17 161
0.2618734836578369 0.0632796436548233 -0.06585665792226791 142 12 164
0.26103806495666504 0.05728060007095337 -0.06677956879138947 143 13 163
0.24969454109668732 0.04933706670999527 -0.06653157621622086 147 16 161
0.242119699716568 0.02984756790101528 -0.05430421605706215 146 15 162
0.21789251267910004 0.012242143973708153 -0.02339111641049385 149 17 161
0.17066675424575806 -0.04966077208518982 0.0033389050513505936 154 21 158
0.16960960626602173 -0.07235148549079895 0.02884538657963276 160 27 155
0.18255358934402466 -0.09408663213253021 0.04101436585187912 159 26 155
0.2160148024559021 -0.07612287998199463 0.04944871366024017 160 27 155
0.22880645096302032 -0.05825851857662201 0.046837273985147476 165 31 151
0.2287493497133255 -0.06503238528966904 0.040690675377845764 165 31 151
0.2435775101184845 -0.05009669065475464 0.011851728893816471 160 27 155
0.23199965059757233 -0.013354649767279625 -0.017866695299744606 159 26 155
0.22552113234996796 0.009829005226492882 -0.004187352489680052 162 28 154
0.23659135401248932 0.01351879071444273 0.007755724713206291 163 29 153
0.2446482926607132 0.043795205652713776 -0.013885286636650562 165 31 151
0.2614675760269165 0.04222127050161362 -0.006229138467460871 168 34 150
0.30201560258865356 0.05994613468647003 -0.019157513976097107 168 34 150
0.2964729070663452 0.06655006855726242 -0.047719426453113556 168 34 150
0.2786911427974701 0.06232938542962074 -0.0456833578646183 170 36 148
0.2898467779159546 0.0599525049328804 -0.045204855501651764 168 34 150
0.30631542205810547 0.0587010383605957 -0.0524846613407135 168 34 150
0.29345959424972534 0.05605574697256088 -0.051719702780246735 169 35 149
0.28502997756004333 0.0669940933585167 -0.050342757254838943 167 33 151
0.27824538946151733 0.06483520567417145 -0.050361137837171555 167 33 151
0.29133501648902893 0.06803383678197861 -0.03886386379599571 167 33 151
0.3120994567871094 0.07327163219451904 -0.03885714337229729 165 31 151
0.31622573733329773 0.07902754843235016 -0.04616054147481918 165 31 151
0.3060683608055115 0.07721135020256042 -0.05661406368017197 167 33 151
0.29934924840927124 0.08776827901601791 -0.05939722806215286 168 34 150
0.29752591252326965 0.08099023252725601 -0.06101173162460327 170 36 148
0.2889416813850403 0.09099458903074265 -0.0669400542974472 175 40 144
0.2879064083099365 0.08917902410030365 -0.06869328022003174 180 45 141
0.2732805609703064 0.07378952205181122 -0.06513656675815582 184 50 137
0.2709587514400482 0.07471750676631927 -0.06063821166753769 184 50 137
0.2770368158817291 0.07859911024570465 -0.06478287279605865 184 50 137
0.2774556875228882 0.08642011135816574 -0.07147103548049927 184 50 137
0.2817299962043762 0.08889806270599365 -0.0718034878373146 187 53 134
0.2802712619304657 0.08975808322429657 -0.0774301141500473 188 54 133
0.2823945879936218 0.0860871896147728 -0.0755658969283104 187 53 134
0.28291818499565125 0.07613430172204971 -0.0706694945693016 185 51 136
0.29058268666267395 0.09063917398452759 -0.06564000993967056 181 46 140
0.3078323006629944 0.10490107536315918 -0.07602810859680176 176 42 143
0.30472466349601746 0.08723647147417068 -0.07155248522758484 139 9 164
0.3227520287036896 0.10439062863588333 -0.07155612856149673 134 7 166
0.27199456095695496 0.14125938713550568 -0.04893256723880768 126 3 167
0.21708714962005615 0.0620269700884819 -0.06233324483036995 41 5 147
0.16343986988067627 0.05347351357340813 -0.06907042115926743 196 63 126
0.08463062345981598 -0.07185386121273041 0.04144119471311569 180 45 141
0.08638209849596024 -0.07257531583309174 0.04561439901590347 165 31 151
0.11042068898677826 -0.06877452880144119 0.051818933337926865 162 28 154
0.11168035864830017 -0.06542674452066422 0.04196193814277649 167 33 151
0.09569719433784485 -0.04687942937016487 -0.002773169195279479 177 43 143
0.09579920768737793 -0.03252773359417915 -0.013732310384511948 177 43 143
0.12423387169837952 -0.018699558451771736 -0.02705652080476284 177 43 143
0.126087948679924 -0.003074618289247155 -0.0610242523252964 184 50 137
0.14478974044322968 0.017670413479208946 -0.06855551153421402 185 51 136
0.16460706293582916 0.03388858586549759 -0.08018522709608078 178 44 142
0.19379086792469025 0.041026607155799866 -0.0808882936835289 185 51 136
0.20084929466247559 0.056148629635572433 -0.08727387338876724 180 45 141
0.20092572271823883 0.06727617233991623 -0.08851772546768188 170 36 148
0.20306693017482758 0.07625660300254822 -0.09829039871692657 162 28 154
0.20122820138931274 0.0797029584646225 -0.10624480992555618 159 26 155
0.198650062084198 0.08743400871753693 -0.09794970601797104 158 25 156
0.20325836539268494 0.08442369103431702 -0.09571146219968796 158 25 156
0.21532803773880005 0.0765824168920517 -0.08548453450202942 157 24 157
0.21352899074554443 0.062346361577510834 -0.07480306923389435 157 24 157
0.2050824910402298 0.05516472086310387 -0.06978783756494522 159 26 155
0.19681379199028015 0.03539784625172615 -0.06072081997990608 162 28 154
0.17068849503993988 0.0199337936937809 -0.046131864190101624 160 27 155
0.15575198829174042 -0.016659041866660118 -0.012416254729032516 159 26 155
0.14571981132030487 -0.05910782888531685 -0.0027294745668768883 159 26 155
0.1513671875 -0.06593069434165955 0.008870269171893597 154 21 158
0.15885509550571442 -0.061035025864839554 -0.005986328702419996 147 16 161
0.17162784934043884 -0.04942116513848305 -0.018716735765337944 143 13 163
0.17067517340183258 -0.040986161679029465 -0.019939901307225227 143 13 163
0.17398777604103088 -0.03521246090531349 -0.024243958294391632 144 14 163
0.1726403832435608 -0.02906707488000393 -0.02759760245680809 142 12 164
0.13627442717552185 -0.05912276357412338 0.008769207634031773 136 7 165
0.15244007110595703 -0.12710879743099213 -0.15428978204727173 133 6 166
0.09385409951210022 0.08693347126245499 -0.025840438902378082 214 85 109
0.04519468545913696 -0.03050469607114792 -0.030147334560751915 212 82 110
0.0647110790014267 0.10631498694419861 -0.16574004292488098 211 81 111
0.07767688482999802 0.09936568140983582 -0.15786392986774445 209 79 113
0.08569782227277756 0.10873137414455414 -0.15996898710727692 212 82 110
0.0855557918548584 0.11538772284984589 -0.16079892218112946 213 83 109
0.10577472299337387 0.12817226350307465 -0.16509221494197845 213 83 109
0.11870026588439941 0.1396351456642151 -0.17074140906333923 213 83 109
0.11086277663707733 0.1472257673740387 -0.17743287980556488 214 85 109
0.10529648512601852 0.145589217543602 -0.1794205754995346 213 83 109
0.10393228381872177 0.13276150822639465 -0.17035475373268127 212 82 110
0.10645972192287445 0.10765299946069717 -0.16406787931919098 211 81 111
0.11217692494392395 0.11276290565729141 -0.16164883971214294 208 77 115
0.11133185029029846 0.11465379595756531 -0.1658576875925064 200 68 122
0.09650381654500961 0.10949051380157471 -0.15928103029727936 200 68 122
0.07623770833015442 0.11214963346719742 -0.17597432434558868 199 66 123
0.04620364308357239 0.11628270894289017 -0.21064573526382446 198 65 124
-0.0019767030607908964 0.14238037168979645 -0.23430441319942474 200 68 122
-0.05966123938560486 0.12124042212963104 -0.22756938636302948 202 70 120
-0.07352419942617416 0.11395066976547241 -0.23233331739902496 203 71 119
-0.0611996091902256 0.0979195162653923 -0.21933871507644653 205 73 117
-0.0363081619143486 0.08941570669412613 -0.20444536209106445 208 77 115
-0.01595607027411461 0.07337364554405212 -0.18812479078769684 211 81 111
-0.009593280963599682 0.041732095181941986 -0.1790570318698883 213 83 109
-0.005539059638977051 0.03624361753463745 -0.16440239548683167 215 87 107
0.028696829453110695 0.05393267795443535 -0.15097618103027344 216 88 106
0.05365614593029022 0.07060839980840683 -0.156572163105011 212 82 110
0.06937552243471146 0.057565417140722275 -0.1598355919122696 209 79 113
0.08350688964128494 0.06684097647666931 -0.1535826474428177 207 75 116
0.09826946258544922 0.059849340468645096 -0.14448852837085724 202 70 120
0.09705096483230591 0.05893454700708389 -0.14799462258815765 201 69 121
0.09855437278747559 0.05393867567181587 -0.1444912999868393 205 73 117
0.07778304815292358 0.031232325360178947 -0.15023165941238403 208 77 115
0.044472917914390564 0.033357907086610794 -0.14928874373435974 209 79 113
-0.005809415597468615 0.014154664240777493 -0.12334062904119492 209 78 114
-0.049996569752693176 -0.011515659280121326 -0.11406758427619934 209 78 114
-0.043236471712589264 0.03983473405241966 -0.1362345665693283 209 78 114
0.012696479447185993 0.07650233060121536 -0.14110484719276428 209 78 114
0.09135397523641586 0.08184834569692612 -0.14277955889701843 210 80 112
0.12914526462554932 0.08643914759159088 -0.14082343876361847 208 77 115
0.15011624991893768 0.09464579820632935 -0.13922683894634247 209 79 113
0.15024080872535706 0.10422369092702866 -0.12085269391536713 208 77 115
0.15059444308280945 0.09656298905611038 -0.11770989745855331 209 78 114
0.13319499790668488 0.09669991582632065 -0.11090364307165146 209 79 113
0.12777775526046753 0.08190333843231201 -0.11195147782564163 204 72 118
0.12079539895057678 0.07705691456794739 -0.1082523986697197 196 63 126
0.12280096858739853 0.06862331926822662 -0.10261743515729904 192 59 129
0.12655320763587952 0.0651494562625885 -0.08810552209615707 191 57 130
0.13794218003749847 0.058313027024269104 -0.08080287277698517 185 51 136
0.15233901143074036 0.07040925323963165 -0.08248116075992584 184 50 137
0.16641190648078918 0.07815634459257126 -0.09074696898460388 181 46 140
0.17086292803287506 0.07984048128128052 -0.08727297931909561 187 53 134
0.1869862824678421 0.09683666378259659 -0.08622072637081146 194 61 128
0.2018161118030548 0.11270996928215027 -0.0913134515285492 194 61 128
0.19890157878398895 0.12485654652118683 -0.09842643141746521 194 61 128
0.19571346044540405 0.1321396380662918 -0.10680408775806427 195 62 127
0.2072630524635315 0.1371668428182602 -0.11434457451105118 191 57 130
0.21347443759441376 0.13684387505054474 -0.11212880164384842 189 55 132
0.22475893795490265 0.12779931724071503 -0.096583291888237 191 57 130
0.22900596261024475 0.11684171110391617 -0.09067124128341675 191 57 130
0.22533594071865082 0.11675705760717392 -0.09016922861337662 192 59 129
0.22433792054653168 0.11599120497703552 -0.09350518137216568 189 55 132
0.21920666098594666 0.11924746632575989 -0.09144039452075958 186 52 135
0.2196984589099884 0.11409340053796768 -0.0821847915649414 187 53 134
0.21425946056842804 0.10530257970094681 -0.08636466413736343 191 57 130
0.20831255614757538 0.10533270239830017 -0.08486718684434891 193 60 128
0.19983546435832977 0.0938204973936081 -0.08451966196298599 193 60 128
0.2022407352924347 0.08381431549787521 -0.07966702431440353 191 57 130
0.2044582962989807 0.07675831019878387 -0.07420695573091507 188 54 133
0.20080015063285828 0.06463314592838287 -0.07575181126594543 185 51 136
0.19319471716880798 0.05096568912267685 -0.06289352476596832 184 50 137
0.18768493831157684 0.03463239595293999 -0.04517628625035286 185 51 136
0.17394307255744934 0.00512979831546545 -0.02941964566707611 188 54 133
0.1587059497833252 -0.015403609722852707 -0.018504319712519646 186 52 135
0.14944469928741455 -0.02870893105864525 -0.005213867872953415 183 48 138
0.15632937848567963 -0.02741137146949768 0.00013714925444219261 178 44 142
0.16519685089588165 -0.02797137014567852 -0.0037435574922710657 177 43 143
0.15715692937374115 -0.008675088174641132 -0.004242826718837023 177 43 143
0.14998704195022583 -0.0031765650492161512 -0.011911497451364994 178 44 142
0.13437393307685852 0.016311530023813248 -0.05002852901816368 180 45 141
0.11194836348295212 0.05173943191766739 -0.055328212678432465 180 45 141
0.13753992319107056 -0.011508838273584843 -0.01981973461806774 181 46 140
0.19121666252613068 -0.009102017618715763 -0.03650946170091629 181 46 140
0.21990972757339478 0.018525149673223495 -0.057990558445453644 183 48 138
0.23493055999279022 0.04045390710234642 -0.07550457119941711 181 46 140
0.19111089408397675 0.045597635209560394 -0.07760300487279892 180 45 141
-0.024540366604924202 -0.022765429690480232 -0.21779201924800873 176 42 143
-0.5396078824996948 0.1639440357685089 -0.30662527680397034 248 150 63
-0.4288378059864044 0.0023628270719200373 -0.12771715223789215 248 150 63
-0.34885913133621216 0.007769487332552671 -0.06382126361131668 249 154 60
-0.3210841119289398 0.028565771877765656 -0.06456649303436279 250 157 58
-0.30960193276405334 0.03719277307391167 -0.0688493624329567 250 157 58
-0.3155004382133484 0.0432233028113842 -0.07063516229391098 250 160 57
-0.3096965551376343 0.04623199626803398 -0.07341735064983368 251 163 55
-0.296823650598526 0.061455074697732925 -0.06637599319219589 251 164 54
-0.2846984565258026 0.06477336585521698 -0.08378902077674866 251 163 55
-0.28217819333076477 0.08163237571716309 -0.10261396318674088 251 164 54
-0.2778792977333069 0.11044508963823318 -0.10423386096954346 251 164 54
-0.2740230858325958 0.1288459450006485 -0.12263604998588562 252 169 52
-0.28407880663871765 0.13708804547786713 -0.1470676213502884 252 167 53
-0.29197221994400024 0.1304207593202591 -0.1412666290998459 252 169 52
-0.2878560423851013 0.11132117360830307 -0.13345393538475037 252 166 53
-0.2870328724384308 0.1392216831445694 -0.14925254881381989 252 173 49
-0.29292547702789307 0.1336880475282669 -0.15560582280158997 252 173 49
-0.2908851206302643 0.1533774435520172 -0.1467633694410324 252 173 49
-0.28555551171302795 0.12913885712623596 -0.1392747014760971 252 170 51
-0.2892025411128998 0.1086348295211792 -0.12616807222366333 252 172 50
-0.28896233439445496 0.12251939624547958 -0.1300751119852066 252 172 50
-0.2898467481136322 0.11125504970550537 -0.1291414201259613 252 172 50
-0.30269983410835266 0.12870249152183533 -0.12746870517730713 252 172 50
-0.2956434488296509 0.13076500594615936 -0.12900672852993011 252 172 50
-0.29933831095695496 0.13840559124946594 -0.14563094079494476 252 172 50
-0.2955858111381531 0.16049982607364655 -0.1754763126373291 252 170 51
-0.29778042435646057 0.19337612390518188 -0.191853865981102 252 169 52
-0.3111390471458435 0.17693303525447845 -0.17250984907150269 252 170 51
-0.3158935010433197 0.17241336405277252 -0.1698276400566101 252 172 50
-0.2939503788948059 0.1707681268453598 -0.16626179218292236 252 172 50
-0.31340694427490234 0.13084015250205994 -0.1472969651222229 252 169 52
-0.3237791955471039 0.09593939781188965 -0.1294640600681305 252 170 51
-0.31176263093948364 0.07927417010068893 -0.09158438444137573 252 172 50
-0.29329434037208557 0.05982392653822899 -0.06293090432882309 252 169 52
-0.2925194799900055 0.030657116323709488 -0.04641321301460266 252 167 53
-0.3024236559867859 0.004605562426149845 -0.093014657497406 252 166 53
-0.3522616922855377 -0.017507724463939667 -0.09082900732755661 252 172 50
-0.3239530622959137 -0.00793370883911848 -0.02830003760755062 252 172 50
-0.3193711042404175 -0.055625349283218384 -0.025714250281453133 252 172 50
-0.3679163157939911 -0.04113243520259857 0.01762206107378006 252 173 49
-0.36655017733573914 -0.07547473907470703 0.03460761159658432 252 173 49
-0.35021284222602844 -0.08730947971343994 0.013352609239518642 252 170 51
-0.3295440971851349 -0.07924849539995193 3.1603205570718274e-05 252 166 53
-0.29278913140296936 -0.03402845934033394 -0.003916068933904171 251 162 56
-0.28614866733551025 0.04061030223965645 -0.10843023657798767 250 156 59
-0.3579747676849365 0.06556228548288345 -0.1687861531972885 248 152 62
-0.3563971221446991 0.007475599646568298 -0.12967219948768616 248 149 64
-0.34280088543891907 0.017414474859833717 -0.08027294278144836 243 134 73
-0.3854665160179138 -0.00709490804001689 -0.04256834089756012 239 126 78
-0.35364800691604614 -0.004000112414360046 0.0032634572125971317 238 124 80
-0.33964797854423523 -0.044190581887960434 0.02725605107843876 236 119 84
-0.34399691224098206 -0.05240080878138542 0.038534101098775864 234 116 85
-0.3374093174934387 -0.06991160660982132 0.04547644034028053 232 112 89
-0.3239280879497528 -0.071966253221035 0.04201056435704231 230 109 90
-0.3350689113140106 -0.07597175240516663 0.011755677871406078 229 107 92
-0.3443482220172882 -0.06567699462175369 -0.0035789005924016237 228 106 93
-0.34212034940719604 -0.08445124328136444 0.010898935608565807 228 106 93
-0.37914302945137024 -0.10617309808731079 -0.005004762671887875 229 107 92
-0.3924295902252197 -0.07162205874919891 -0.025871945545077324 227 104 94
-0.3616958558559418 -0.0447397343814373 -0.0566888153553009 228 106 93
-0.37625783681869507 -0.018249424174427986 -0.05987190827727318 232 112 89
-0.35997867584228516 -0.01624802127480507 -0.0704527199268341 234 115 86
-0.3310432434082031 0.008821552619338036 -0.05772842466831207 238 124 80
-0.32777881622314453 -0.0038097626529634 -0.07238709181547165 242 132 75
-0.3357926607131958 0.009843221865594387 -0.09206274151802063 243 134 73
-0.33445167541503906 0.021054523065686226 -0.08514322340488434 243 134 73
-0.36961305141448975 -0.03234071657061577 -0.08294054865837097 243 134 73
-0.3468926250934601 -0.08485686033964157 -0.028296763077378273 245 139 70
-0.359839528799057 -0.1391703337430954 0.05073367431759834 245 141 69
-0.357801228761673 -0.18128925561904907 0.08743134140968323 246 142 68
-0.3430740237236023 -0.17713923752307892 0.10033798962831497 246 142 68
-0.33714303374290466 -0.1809910237789154 0.10411988943815231 246 143 67
-0.33423149585723877 -0.17453144490718842 0.12105511873960495 246 142 68
-0.3302052617073059 -0.18257875740528107 0.11757081747055054 246 142 68
-0.32227492332458496 -0.1847490817308426 0.12805059552192688 246 142 68
-0.3116954565048218 -0.19661284983158112 0.13915617763996124 245 141 69
-0.303219199180603 -0.2235536277294159 0.15680710971355438 245 141 69
-0.3095272183418274 -0.2536378800868988 0.1748088151216507 245 139 70
-0.3004712462425232 -0.26382410526275635 0.1939341127872467 246 142 68
-0.2957872152328491 -0.27475452423095703 0.20554649829864502 246 143 67
-0.28936097025871277 -0.27154621481895447 0.21240438520908356 246 143 67
-0.288886696100235 -0.26980412006378174 0.2199545055627823 247 146 65
-0.30223652720451355 -0.2715528905391693 0.20871859788894653 248 150 63
-0.30386173725128174 -0.2590266466140747 0.1974453628063202 248 152 62
-0.3140210211277008 -0.2620484530925751 0.19015778601169586 250 156 59
-0.31093281507492065 -0.25579214096069336 0.18563978374004364 250 157 58
-0.31974872946739197 -0.2441747933626175 0.16531765460968018 250 159 58
-0.3297020196914673 -0.22476044297218323 0.16026049852371216 250 159 58
-0.3363725244998932 -0.23081235587596893 0.14835362136363983 250 157 58
-0.33322280645370483 -0.22591720521450043 0.1351240873336792 249 154 60
-0.34368112683296204 -0.23474706709384918 0.13046006858348846 248 152 62
-0.3488391935825348 -0.23735928535461426 0.1321161985397339 246 143 67
-0.3550882339477539 -0.23181754350662231 0.1276537925004959 245 141 69
-0.3498394191265106 -0.23770946264266968 0.12957081198692322 244 137 71
-0.3361150622367859 -0.20359840989112854 0.11830051988363266 240 129 77
-0.3405948877334595 -0.1908007711172104 0.12116777896881104 240 128 77
-0.3495282530784607 -0.17651855945587158 0.11171115189790726 238 124 80
-0.3496232330799103 -0.1697433739900589 0.11131288856267929 237 121 82
-0.3577619791030884 -0.17809844017028809 0.09565462172031403 238 124 80
-0.357725590467453 -0.1639002412557602 0.08644306659698486 237 123 81
-0.3531789183616638 -0.16997337341308594 0.1031012237071991 237 123 81
-0.35311922430992126 -0.19974741339683533 0.11792175471782684 237 123 81
-0.3570358455181122 -0.2123705893754959 0.11576207727193832 237 121 82
-0.36628782749176025 -0.22637297213077545 0.11384617537260056 232 112 89
-0.3658742904663086 -0.2257651388645172 0.11020714044570923 229 107 92
-0.368305504322052 -0.24335810542106628 0.11254234611988068 231 110 90
-0.36870434880256653 -0.25444144010543823 0.11482467502355576 233 114 87
-0.36063089966773987 -0.24583561718463898 0.1290951520204544 234 116 85
-0.3598897159099579 -0.24967871606349945 0.14425425231456757 232 113 88
-0.3552359342575073 -0.2506670355796814 0.15274092555046082 234 115 86
-0.3442494869232178 -0.24932344257831573 0.15577749907970428 230 109 90
-0.33613455295562744 -0.2628709375858307 0.17091278731822968 232 113 88
-0.3349710702896118 -0.27209585905075073 0.1793472021818161 233 114 87
-0.341116726398468 -0.2811870276927948 0.177749365568161 234 116 85
-0.33388447761535645 -0.2770085632801056 0.1760583370923996 237 123 81
-0.3309023082256317 -0.2827785015106201 0.17858020961284637 240 129 77
-0.3306765854358673 -0.2725282609462738 0.1798427700996399 244 137 71
-0.32391995191574097 -0.2739311158657074 0.19342181086540222 248 149 64
-0.31752270460128784 -0.2606595754623413 0.19467326998710632 251 164 54
-0.313833624124527 -0.2566818594932556 0.20457887649536133 253 175 49
-0.3107079565525055 -0.25844666361808777 0.2083691954612732 253 182 45
-0.3075539171695709 -0.2630099058151245 0.21319545805454254 253 187 43
-0.30311286449432373 -0.26495161652565 0.22028440237045288 253 188 42
-0.2924935519695282 -0.2540174722671509 0.21839743852615356 253 184 44
-0.29173433780670166 -0.2536271810531616 0.2208947241306305 253 182 45
-0.2843957245349884 -0.24724633991718292 0.2240694910287857 253 187 43
-0.27522194385528564 -0.24951253831386566 0.22693254053592682 253 192 41
-0.2765614986419678 -0.25055432319641113 0.23067253828048706 253 190 41
-0.26816606521606445 -0.24756503105163574 0.22952479124069214 253 192 41
-0.2583620250225067 -0.23776741325855255 0.238198384642601 253 192 41
-0.248299703001976 -0.23266582190990448 0.24459964036941528 253 188 42
-0.23951789736747742 -0.2349427491426468 0.24990469217300415 253 192 41
-0.2385144829750061 -0.2293359935283661 0.24869917333126068 253 192 41
-0.24421542882919312 -0.2339465171098709 0.24723650515079498 253 192 41
-0.24355018138885498 -0.2266545444726944 0.24724385142326355 253 192 41
-0.23156537115573883 -0.2297409325838089 0.2531580626964569 253 190 41
-0.22062453627586365 -0.21957223117351532 0.25062295794487 253 192 41
-0.21239422261714935 -0.2143367975950241 0.25148364901542664 253 192 41
-0.21505111455917358 -0.21761541068553925 0.25815433263778687 253 192 41
-0.20825901627540588 -0.22149880230426788 0.2654566168785095 253 188 42
-0.2046482414007187 -0.23338598012924194 0.2682110667228699 253 185 43
-0.20788168907165527 -0.2439761906862259 0.26883018016815186 253 182 45
-0.20778149366378784 -0.2504083216190338 0.2698802947998047 253 176 48
-0.2100364714860916 -0.2535369396209717 0.2728930115699768 253 176 48
-0.2152717262506485 -0.2628980278968811 0.27208998799324036 253 178 47
-0.22645451128482819 -0.27696287631988525 0.2707788944244385 253 179 46
-0.23439699411392212 -0.2869868874549866 0.2681618332862854 253 185 43
-0.24096083641052246 -0.2996034324169159 0.27142801880836487 253 185 43
-0.238446906208992 -0.29242298007011414 0.2754943370819092 253 181 45
-0.22529660165309906 -0.2799220681190491 0.27459001541137695 253 179 46
-0.22585922479629517 -0.27750465273857117 0.27032047510147095 253 184 44
-0.2262294888496399 -0.27886614203453064 0.26986953616142273 253 188 42
-0.2184840589761734 -0.2717777490615845 0.2739047110080719 253 196 39
-0.21727067232131958 -0.2744045853614807 0.27198970317840576 252 199 38
-0.21949262917041779 -0.27642470598220825 0.27305498719215393 252 201 38
-0.22291788458824158 -0.2707213759422302 0.27027007937431335 252 203 37
-0.22411604225635529 -0.2770375907421112 0.27449050545692444 251 208 36
-0.21184740960597992 -0.2691586911678314 0.2756257951259613 251 209 36
-0.21246212720870972 -0.28032851219177246 0.2809392809867859 251 209 36
-0.21048259735107422 -0.27798473834991455 0.2814751863479614 251 211 36
-0.20304502546787262 -0.2677217423915863 0.2840155065059662 250 213 36
-0.19315959513187408 -0.25350263714790344 0.2851538062095642 250 213 36
-0.18368811905384064 -0.24748419225215912 0.29362574219703674 250 213 36
-0.17005711793899536 -0.2398327738046646 0.29521363973617554 250 214 36
-0.15956701338291168 -0.23912249505519867 0.30037426948547363 250 216 36
-0.14759114384651184 -0.22070389986038208 0.30502423644065857 250 213 36
-0.13553595542907715 -0.2112841159105301 0.301212877035141 252 203 37
-0.1273190826177597 -0.19976511597633362 0.29462718963623047 252 201 38
-0.11843220889568329 -0.18613587319850922 0.2959386706352234 253 193 40
-0.11803005635738373 -0.19142374396324158 0.2988666892051697 253 184 44
-0.11694207042455673 -0.18953348696231842 0.29905927181243896 253 178 47
-0.1220618262887001 -0.20028235018253326 0.30284252762794495 252 172 50
-0.12292510271072388 -0.20763669908046722 0.3049317002296448 252 166 53
-0.12111137807369232 -0.22045598924160004 0.31289300322532654 250 160 57
-0.1349949836730957 -0.2249247133731842 0.3050243556499481 250 157 58
-0.1319972276687622 -0.22566409409046173 0.3063008487224579 250 159 58
-0.13050924241542816 -0.23564530909061432 0.31570544838905334 251 162 56
-0.12378153949975967 -0.2376784384250641 0.313996285200119 250 160 57
-0.1270730197429657 -0.25056734681129456 0.32041797041893005 248 149 64
-0.13073067367076874 -0.26293396949768066 0.3190228044986725 246 145 66
-0.1351902037858963 -0.268384724855423 0.31594014167785645 246 143 67
-0.1444750428199768 -0.27572789788246155 0.31746187806129456 247 146 65
-0.14728227257728577 -0.2736518681049347 0.3157604932785034 247 147 65
-0.143395334482193 -0.269570916891098 0.3156021535396576 249 154 60
-0.13862353563308716 -0.2692297101020813 0.31000709533691406 250 157 58
-0.14097341895103455 -0.26498883962631226 0.30042752623558044 250 160 57
-0.15170031785964966 -0.27586668729782104 0.3015263080596924 250 160 57
-0.15599988400936127 -0.27831652760505676 0.3013717830181122 251 164 54
-0.15595769882202148 -0.2772950232028961 0.306017130613327 253 176 48
-0.1544780135154724 -0.272774338722229 0.3058823347091675 253 184 44
-0.14425189793109894 -0.2761472761631012 0.3025897145271301 253 184 44
-0.14097486436367035 -0.2759058177471161 0.30734336376190186 253 184 44
-0.14016570150852203 -0.2791875898838043 0.3126920461654663 253 182 45
-0.13649456202983856 -0.2892656922340393 0.3166285753250122 252 170 51
-0.1383298933506012 -0.2868126630783081 0.3208180069923401 252 170 51
-0.13072232902050018 -0.2883546054363251 0.322829008102417 253 176 48
-0.12471377104520798 -0.290179967880249 0.3233448266983032 253 179 46
-0.12271947413682938 -0.2833590805530548 0.3217644989490509 253 176 48
-0.1261601746082306 -0.2769363522529602 0.32509729266166687 253 179 46
-0.1191556304693222 -0.2724551558494568 0.3259819447994232 253 184 44
-0.11791802942752838 -0.2575383484363556 0.3211859464645386 253 192 41
-0.10542108118534088 -0.24226894974708557 0.3187544047832489 253 196 39
-0.10402471572160721 -0.24913090467453003 0.3200250566005707 252 199 38
-0.11128567159175873 -0.24869531393051147 0.3137013912200928 252 204 37
-0.11454344540834427 -0.2520548403263092 0.3196592330932617 252 199 38
-0.11484327912330627 -0.24931299686431885 0.3212403655052185 253 192 41
-0.11087801307439804 -0.24810348451137543 0.32201239466667175 253 192 41
-0.10497218370437622 -0.2501818537712097 0.3221469819545746 253 193 40
-0.10091254860162735 -0.2500806450843811 0.32371941208839417 253 196 39
-0.09349659830331802 -0.23677344620227814 0.32054319977760315 253 198 38
-0.08647406846284866 -0.2327529788017273 0.31827881932258606 253 195 40
-0.08061812818050385 -0.21938730776309967 0.31768980622291565 252 199 38
-0.0688687339425087 -0.2060837298631668 0.314439058303833 251 208 36
-0.05905190482735634 -0.19855396449565887 0.3179476857185364 250 213 36
-0.05009806528687477 -0.1923374980688095 0.31719574332237244 250 213 36
-0.043346695601940155 -0.18207308650016785 0.31074658036231995 250 214 36
-0.039348531514406204 -0.17653445899486542 0.30965548753738403 248 221 36
-0.03270541876554489 -0.1687784641981125 0.3081319332122803 249 217 36
-0.026915527880191803 -0.16938601434230804 0.3044823706150055 247 224 36
-0.019180551171302795 -0.164334237575531 0.30594325065612793 250 216 36
-0.014075842685997486 -0.1672937273979187 0.3054664433002472 250 214 36
-0.01054137572646141 -0.16796912252902985 0.3063322603702545 250 216 36
-0.005688786506652832 -0.15759563446044922 0.3019612729549408 250 216 36
0.005491009447723627 -0.15331746637821198 0.3004123270511627 250 216 36
0.008390176109969616 -0.14522431790828705 0.2977135181427002 250 216 36
0.005867146421223879 -0.1374753713607788 0.29034438729286194 250 216 36
0.006938946899026632 -0.12661093473434448 0.2827851474285126 250 214 36
0.003506534965708852 -0.12897267937660217 0.2855597138404846 251 211 36
0.0007125331903807819 -0.12797601521015167 0.2904861569404602 251 209 36
0.0028910906985402107 -0.12919063866138458 0.29146987199783325 252 204 37
-0.0027461438439786434 -0.13516755402088165 0.29214948415756226 253 198 38
-0.007525828666985035 -0.13805459439754486 0.29224732518196106 253 196 39
-0.01634039729833603 -0.1365407109260559 0.29068225622177124 253 196 39
-0.03187065199017525 -0.1546594798564911 0.2950412929058075 253 193 40
-0.04729925096035004 -0.16581055521965027 0.29765966534614563 253 190 41
-0.06035108119249344 -0.18390771746635437 0.3007923364639282 253 190 41
-0.07078981399536133 -0.2013014554977417 0.3013309836387634 253 192 41
-0.08174968510866165 -0.21676112711429596 0.3075016140937805 253 187 43
-0.07924935221672058 -0.21275191009044647 0.30596011877059937 252 173 49
-0.0809159129858017 -0.2197265475988388 0.312276154756546 252 170 51
-0.0806756466627121 -0.219834566116333 0.31128042936325073 252 169 52
-0.07982200384140015 -0.22527943551540375 0.3080073893070221 252 167 53
-0.0744122788310051 -0.21496422588825226 0.30601292848587036 251 164 54
-0.06559707224369049 -0.21232597529888153 0.309305340051651 251 163 55
-0.06369204819202423 -0.20957018435001373 0.30513694882392883 251 162 56
-0.04984482750296593 -0.2019089311361313 0.3040744662284851 250 159 58
-0.03993426263332367 -0.19525322318077087 0.3026868402957916 248 152 62
-0.03658854588866234 -0.19961532950401306 0.30498895049095154 247 146 65
-0.03799210488796234 -0.19470733404159546 0.3037770092487335 246 145 66
-0.03670215234160423 -0.18577855825424194 0.29877251386642456 246 142 68
-0.0360269695520401 -0.18397535383701324 0.29150521755218506 244 138 71
-0.02688783034682274 -0.18487653136253357 0.2889835834503174 243 134 73
-0.020010774955153465 -0.18231089413166046 0.2858220636844635 240 128 77
-0.014701086096465588 -0.18474075198173523 0.2885192632675171 238 124 80
-0.014288453385233879 -0.19530387222766876 0.2938151955604553 239 126 78
-0.0050678132101893425 -0.20000435411930084 0.29882848262786865 240 128 77
0.011993786320090294 -0.19357281923294067 0.2922678291797638 240 129 77
0.03856775537133217 -0.18474078178405762 0.289010226726532 242 133 74
0.05697561800479889 -0.17537660896778107 0.28602734208106995 244 137 71
0.060382869094610214 -0.149396613240242 0.2760566174983978 245 141 69
0.06516188383102417 -0.1475214660167694 0.2796553075313568 246 143 67
0.07651063799858093 -0.14423570036888123 0.27915236353874207 246 145 66
0.07736475765705109 -0.14509044587612152 0.26656579971313477 247 146 65
0.0941614955663681 -0.12694472074508667 0.25529876351356506 248 150 63
0.12047260999679565 -0.11082672327756882 0.25071391463279724 250 156 59
0.13723795115947723 -0.10230725258588791 0.234675332903862 250 159 58
0.15219713747501373 -0.07437974214553833 0.22785234451293945 250 160 57
0.15498825907707214 -0.09162762016057968 0.2328779548406601 251 164 54
0.14484946429729462 -0.09072476625442505 0.23467470705509186 252 166 53
0.13634489476680756 -0.11133389919996262 0.24865619838237762 252 169 52
0.12629801034927368 -0.11130820959806442 0.2481902837753296 252 169 52
0.12232694774866104 -0.11770296841859818 0.245651975274086 252 173 49
0.12105166167020798 -0.10613348335027695 0.24156184494495392 253 176 48
0.14493906497955322 -0.08849147707223892 0.21273501217365265 253 176 48
0.12484867870807648 -0.07287228107452393 0.21492162346839905 253 178 47
0.09281590580940247 -0.08541164547204971 0.21746565401554108 253 181 45
0.11327751725912094 -0.059582602232694626 0.21465040743350983 253 181 45
0.12222859263420105 -0.07679642736911774 0.2108849585056305 253 181 45
0.11720623821020126 -0.0749116763472557 0.20866404473781586 253 179 46
0.1493767946958542 -0.05481831729412079 0.2156597524881363 253 179 46
0.1858762800693512 -0.052633728832006454 0.2109609693288803 253 178 47
0.18047241866588593 -0.05395868793129921 0.19641683995723724 253 179 46
0.15984228253364563 -0.033294666558504105 0.18682080507278442 253 179 46
0.14293688535690308 -0.04108146205544472 0.21147119998931885 253 178 47
0.10771788656711578 -0.0826411247253418 0.21123521029949188 253 178 47
0.0767638087272644 -0.1205742210149765 0.21877694129943848 252 173 49
0.0728490948677063 -0.12591828405857086 0.232171893119812 252 167 53
0.08680552989244461 -0.11707527935504913 0.2657746970653534 252 166 53
0.11298652738332748 -0.12766842544078827 0.22791865468025208 250 159 58
0.1235550045967102 -0.06400266289710999 0.21399684250354767 246 145 66
0.17617222666740417 -0.01736864447593689 0.18413136899471283 244 138 71
0.13422998785972595 -0.027614254504442215 0.16518466174602509 238 124 80
0.11561502516269684 -0.006536304950714111 0.17368052899837494 234 116 85
0.1999235451221466 0.04822370782494545 0.1448914110660553 230 109 90
0.2734428346157074 0.12444635480642319 0.0765080600976944 227 103 95
0.34681132435798645 0.2016051709651947 0.008304121904075146 223 97 99
0.3570763170719147 0.19978000223636627 0.0021683797240257263 215 87 107
0.34297889471054077 0.22389400005340576 -0.030452910810709 210 80 112
0.36006560921669006 0.27699941396713257 -0.16139885783195496 203 71 119
0.36742985248565674 0.3812867999076843 -0.20742984116077423 195 62 127
0.35608211159706116 0.3042229413986206 -0.22405879199504852 189 55 132
0.3021419942378998 0.2737017273902893 -0.22663767635822296 190 56 131
0.30109626054763794 0.2714408338069916 -0.20534132421016693 191 57 130
0.2919836938381195 0.27283376455307007 -0.20098373293876648 187 53 134
0.3252090811729431 0.26413455605506897 -0.21066181361675262 183 48 138
0.30578017234802246 0.2627262771129608 -0.21151624619960785 184 50 137
0.3113362491130829 0.2633492946624756 -0.21714921295642853 188 54 133
0.3141433000564575 0.24989864230155945 -0.20838423073291779 192 59 129
0.3039989173412323 0.2411774843931198 -0.20461995899677277 193 60 128
0.29572203755378723 0.23214329779148102 -0.2000466287136078 195 62 127
0.29353415966033936 0.22173067927360535 -0.19690106809139252 196 63 126
0.27186498045921326 0.21635323762893677 -0.1863894909620285 195 62 127
0.27346378564834595 0.20882679522037506 -0.17729870975017548 197 64 125
0.2586343288421631 0.1905987411737442 -0.16879276931285858 200 68 122
0.2529048025608063 0.17631343007087708 -0.15058311820030212 200 68 122
0.2529218792915344 0.16769522428512573 -0.15303662419319153 200 68 122
0.2615722715854645 0.16469134390354156 -0.15187186002731323 202 70 120
0.2565023601055145 0.1501946598291397 -0.13954167068004608 205 73 117
0.25080108642578125 0.14181257784366608 -0.13963428139686584 209 79 113
0.23645958304405212 0.1361071914434433 -0.13001951575279236 212 82 110
0.2354969084262848 0.1328454613685608 -0.13002996146678925 215 86 108
0.22986213862895966 0.13149617612361908 -0.12817716598510742 216 88 106
0.2389945685863495 0.13235871493816376 -0.12609437108039856 215 87 107
0.23929427564144135 0.14129027724266052 -0.12027383595705032 215 86 108
0.2357437163591385 0.13645294308662415 -0.12075308710336685 213 83 109
0.21406036615371704 0.11857499182224274 -0.12853458523750305 209 79 113
0.20604616403579712 0.11547385156154633 -0.1191418394446373 207 75 116
0.25086909532546997 0.0927380844950676 -0.10051638633012772 204 72 118
0.25961926579475403 0.0704573467373848 -0.08065050840377808 195 62 127
0.2643957734107971 0.09652683138847351 -0.06841964274644852 186 52 135
0.26187634468078613 0.07779659330844879 -0.04079369455575943 183 48 138
0.2558235228061676 0.03552388399839401 -0.09029854089021683 180 45 141
0.200287327170372 0.05909660831093788 -0.12209709733724594 175 40 144
0.16013242304325104 0.025337982922792435 -0.1265224814414978 167 33 151
0.12955719232559204 0.028944598510861397 -0.1145101860165596 159 26 155
0.09532813727855682 0.05531306937336922 -0.1302982121706009 155 23 158
0.07169343531131744 0.01574147306382656 -0.11634349822998047 151 19 160
0.0554642379283905 -0.025024089962244034 -0.09175805747509003 149 17 161
0.036628179252147675 -0.053750067949295044 -0.05886117368936539 146 15 162
0.05140870809555054 -0.04562531039118767 -0.06337085366249084 143 13 163
0.0696217343211174 -0.03801138326525688 -0.05211028829216957 142 12 164
0.10778044164180756 -0.019048482179641724 -0.06680919975042343 143 13 163
0.14991292357444763 0.008152248337864876 -0.06169666349887848 147 16 161
0.1553819179534912 0.01591493748128414 -0.06599364429712296 149 17 161
0.156143456697464 0.0303437951952219 -0.07518145442008972 158 25 156
0.16049261391162872 0.030093107372522354 -0.07814160734415054 169 35 149
0.16827772557735443 0.03448053076863289 -0.07499208301305771 185 51 136
0.17107073962688446 0.02874869480729103 -0.07232511043548584 194 61 128
0.17740464210510254 0.03899085149168968 -0.07102647423744202 198 65 124
0.16492889821529388 0.034139685332775116 -0.06703139841556549 197 64 125
0.1663459986448288 0.029500063508749008 -0.07307077944278717 201 69 121
0.17018413543701172 0.028658989816904068 -0.05598253756761551 203 71 119
0.15269799530506134 0.0118971923366189 -0.059554893523454666 189 55 132
0.1489434391260147 0.007445884868502617 -0.051843661814928055 184 50 137
0.14484931528568268 -0.006047495640814304 -0.043203532695770264 177 43 143
0.13458430767059326 -0.009884159080684185 -0.03617961332201958 177 43 143
0.15224912762641907 -0.006989022716879845 -0.03666335716843605 177 43 143
0.15294961631298065 -0.015838874503970146 -0.0254833921790123 182 47 139
0.14372612535953522 -0.02586604841053486 -0.029759075492620468 187 53 134
0.159660205245018 -0.0037841571029275656 -0.043809179216623306 194 61 128
0.15871381759643555 -0.0009597083553671837 -0.030512705445289612 205 73 117
0.12020526826381683 -0.026908226311206818 -0.035382699221372604 215 86 108
0.1019417941570282 -0.042926955968141556 -0.035207655280828476 224 100 97
0.11311586946249008 -0.03899175301194191 -0.019560925662517548 232 113 88
0.10451526939868927 -0.025967659428715706 -0.045763153582811356 238 124 80
0.10082822293043137 -0.018425673246383667 -0.06634048372507095 240 128 77
0.10861637443304062 -0.008232496678829193 -0.09284164756536484 243 135 72
0.12292143702507019 0.02417456917464733 -0.08129971474409103 243 134 73
0.12768828868865967 0.026401448994874954 -0.08396340906620026 241 130 76
0.09932692348957062 0.014470362104475498 -0.09097012877464294 237 121 82
0.07222267240285873 0.02195977233350277 -0.08473329246044159 232 113 88
0.04724849388003349 0.017994249239563942 -0.09243502467870712 226 102 96
0.031408559530973434 0.0046946159563958645 -0.09178952127695084 221 95 101
0.0016173489857465029 -0.038864247500896454 -0.06811492145061493 215 87 107
-0.13195286691188812 -0.07697389274835587 -0.06375223398208618 222 96 100
-0.3069051504135132 -0.15339726209640503 -0.007689342368394136 223 97 99
-0.3958704471588135 -0.19811485707759857 0.06637559831142426 219 91 103
-0.3940867483615875 -0.22045767307281494 0.06970448046922684 215 86 108
-0.35182082653045654 -0.23791758716106415 0.0720512866973877 209 79 113
-0.36328423023223877 -0.24639178812503815 0.03914279118180275 209 79 113
-0.3152216970920563 -0.25915199518203735 0.053935885429382324 213 83 109
-0.29512718319892883 -0.2658262848854065 0.07222561538219452 215 87 107
-0.2453247606754303 -0.24826431274414062 0.07082384079694748 218 90 104
-0.20738641917705536 -0.246825709939003 0.048023372888565063 220 94 102
-0.19958074390888214 -0.252060204744339 0.022696884348988533 217 89 105
-0.2009071558713913 -0.1974649876356125 0.03568777069449425 214 85 109
-0.20362122356891632 -0.2583842873573303 0.02515769936144352 214 85 109
-0.13685081899166107 -0.20209506154060364 0.010928711853921413 217 89 105
-0.06218893080949783 -0.16437195241451263 0.011494078673422337 218 90 104
0.01569531485438347 -0.12354211509227753 -0.021099591627717018 222 96 100
0.022160153836011887 -0.10126879811286926 -0.03685492277145386 225 101 96
0.01309480145573616 -0.08181780576705933 -0.038784921169281006 219 91 103
0.044664416462183 -0.060291588306427 -0.039282090961933136 213 83 109
0.07379738986492157 -0.040906213223934174 -0.05052272230386734 209 79 113
0.0991157814860344 -0.02895253524184227 -0.03923172503709793 205 73 117
0.11077944934368134 -0.0341557152569294 -0.042881205677986145 199 66 123
0.14512258768081665 -0.037835944443941116 -0.028847452253103256 192 59 129
0.15438979864120483 -0.04905450716614723 -0.02935509756207466 191 57 130
0.13210901618003845 -0.06623909622430801 -0.03259674832224846 196 63 126
0.11509621143341064 -0.0807126834988594 -0.005549596156924963 198 65 124
0.13704177737236023 -0.07051169872283936 0.000882752938196063 194 61 128
0.1517290621995926 -0.054600730538368225 -0.02525973506271839 192 59 129
0.14221444725990295 -0.020121600478887558 -0.023266421630978584 193 60 128
0.15592718124389648 -0.0238640196621418 -0.042710352689027786 189 55 132
0.20098555088043213 0.013444115407764912 -0.05458436906337738 186 52 135
0.20823688805103302 0.02209453098475933 -0.06133349984884262 186 52 135
0.19758981466293335 0.023810192942619324 -0.06323075294494629 183 48 138
0.19497200846672058 0.030108019709587097 -0.06452340632677078 170 36 148
0.23498649895191193 0.0241041649132967 -0.05772241950035095 181 46 140
0.24414119124412537 0.026205040514469147 -0.043033044785261154 181 46 140
0.24029745161533356 0.013532805256545544 -0.04335950314998627 177 43 143
0.22202511131763458 0.019558824598789215 -0.042561497539281845 169 35 149
0.2237778902053833 0.02573210932314396 -0.044656626880168915 158 25 156
0.22849954664707184 0.03556305542588234 -0.045412443578243256 153 20 159
0.2262730747461319 0.03521318733692169 -0.051899466663599014 147 16 161
0.2254141867160797 0.03472241386771202 -0.047818295657634735 133 6 166
0.21723400056362152 0.032052308320999146 -0.041956014931201935 130 4 167
0.2204599380493164 0.03180601820349693 -0.04865415021777153 124 2 167
0.22591543197631836 0.024202371016144753 -0.037330735474824905 115 0 168
0.22744815051555634 0.018411144614219666 -0.03722231462597847 108 0 168
0.22437159717082977 0.017879003658890724 -0.04134912043809891 106 0 167
0.22028782963752747 0.01824437826871872 -0.04390512779355049 106 0 167
0.2230115383863449 0.021358458325266838 -0.045470092445611954 111 0 168
0.22417016327381134 0.007855217903852463 -0.0409950353205204 111 0 168
0.23003999888896942 0.0027992655523121357 -0.029066648334264755 108 0 168
0.22681501507759094 -0.010589707642793655 -0.027399873360991478 103 0 167
0.22769314050674438 -0.005655118729919195 -0.020667679607868195 103 0 167
0.21965160965919495 0.0006133142742328346 -0.02472543530166149 104 0 167
0.20640122890472412 0.0025824434123933315 -0.034451212733983994 117 0 168
0.19696593284606934 0.00445471191778779 -0.03162878379225731 137 8 165
0.19830450415611267 0.009294632822275162 -0.033903393894433975 149 17 161
0.1974480301141739 0.001190570998005569 -0.03518058359622955 151 19 160
0.2025899738073349 0.003076711902394891 -0.03466036170721054 149 17 161
0.201735258102417 -0.0018774369964376092 -0.03245208412408829 146 15 162
0.2038036435842514 -0.014524055644869804 -0.02585422433912754 143 13 163
