ply
format ascii 1.0
element vertex 683
property float x
property float y
property float z
property uchar red
property uchar green
property uchar blue
end_header
-0.276481032371521 -0.20772065222263336 -0.005316904280334711 0 0 255
-0.2928276062011719 -0.15301117300987244 0.0033386931754648685 0 0 255
-0.3422383666038513 -0.12943097949028015 0.0409591980278492 0 0 255
-0.3517279028892517 -0.07828392833471298 0.07852725684642792 0 0 255
-0.3272090256214142 -0.07016610354185104 0.07788348197937012 0 0 255
-0.2973119914531708 -0.07076286524534225 0.08666184544563293 0 0 255
-0.31251364946365356 -0.0039397650398314 0.10939919948577881 0 0 255
-0.3743513822555542 0.032703690230846405 0.03967253118753433 0 0 255
-0.48005911707878113 -0.04617423191666603 0.1827516257762909 0 0 255
-0.4789193570613861 -0.023639099672436714 0.2261805683374405 0 0 255
-0.4916490614414215 -0.052207864820957184 0.16574446856975555 0 0 255
-0.19443726539611816 0.10175260156393051 0.18286919593811035 0 0 255
-0.08332162350416183 0.28231513500213623 0.20156216621398926 0 0 255
-0.0047164186835289 0.26893606781959534 0.20417213439941406 0 0 255
-0.020013796165585518 0.3113270699977875 0.17303727567195892 0 0 255
0.013329838402569294 0.31876257061958313 0.14926011860370636 0 0 255
0.03531457483768463 0.30810943245887756 0.13387103378772736 0 0 255
0.03585650771856308 0.2918701469898224 0.12392820417881012 0 0 255
0.10990186035633087 0.2955305278301239 0.09826358407735825 0 0 255
0.13893191516399384 0.2866993248462677 0.0834968313574791 0 0 255
0.1362818479537964 0.28813332319259644 0.09247196465730667 0 0 255
0.1297854483127594 0.2918289303779602 0.08669164031744003 0 0 255
0.11867357790470123 0.29214200377464294 0.09153556078672409 0 0 255
0.10983648151159286 0.2863081097602844 0.0918412134051323 0 0 255
0.12088358402252197 0.30219122767448425 0.07778865098953247 0 0 255
0.1532488465309143 0.29757800698280334 0.07776300609111786 0 0 255
0.14486515522003174 0.31223899126052856 0.07958193868398666 0 0 255
0.15892645716667175 0.299877792596817 0.09389233589172363 0 0 255
0.11711767315864563 0.30769872665405273 0.09680745005607605 0 0 255
0.07884998619556427 0.32273951172828674 0.11180828511714935 0 0 255
0.044556159526109695 0.3101359009742737 0.13842357695102692 0 0 255
0.022164104506373405 0.2946826219558716 0.1543184071779251 0 0 255
-0.015844814479351044 0.2482413649559021 0.20040403306484222 0 0 255
-0.12480375915765762 0.21128156781196594 0.20918361842632294 0 0 255
-0.20597736537456512 0.15296190977096558 0.19551213085651398 0 0 255
-0.19498836994171143 0.1016123965382576 0.17366448044776917 0 0 255
-0.1770622581243515 0.13886992633342743 0.20329365134239197 0 0 255
-0.16289328038692474 0.18353794515132904 0.14750289916992188 0 0 255
-0.013040011748671532 0.2123798280954361 0.17144775390625 0 0 255
-0.005235372576862574 0.2849896550178528 0.14869853854179382 0 0 255
-0.03327212110161781 0.297282874584198 0.1464972198009491 0 0 255
0.014143829233944416 0.3046668767929077 0.1119091585278511 0 0 255
0.05378072336316109 0.32723480463027954 0.10809855163097382 0 0 255
0.08125073462724686 0.33590877056121826 0.06454989314079285 0 0 255
0.10311370342969894 0.33561283349990845 0.060470469295978546 0 0 255
0.11694207042455673 0.3204619884490967 0.06536286324262619 0 0 255
0.1424998641014099 0.29561296105384827 0.07802845537662506 0 0 255
0.15168264508247375 0.2924904525279999 0.060085102915763855 0 0 255
0.16883109509944916 0.30234283208847046 0.05010140687227249 0 0 255
0.1682794690132141 0.30489054322242737 0.06269095838069916 0 0 255
0.1771952509880066 0.30228257179260254 0.06761575490236282 0 0 255
0.17585383355617523 0.30068445205688477 0.050955116748809814 0 0 255
0.176375612616539 0.29093441367149353 0.05911363288760185 0 0 255
0.17141877114772797 0.29661428928375244 0.05548198148608208 0 0 255
0.16834139823913574 0.3088147044181824 0.050030417740345 0 0 255
0.16173501312732697 0.3082559406757355 0.046276599168777466 0 0 255
0.17422205209732056 0.3022943139076233 0.057446230202913284 0 0 255
0.17447054386138916 0.31002354621887207 0.04325215145945549 0 0 255
0.17472366988658905 0.3040608763694763 0.04192836582660675 0 0 255
0.181407630443573 0.30186548829078674 0.03454954922199249 0 0 255
0.17981666326522827 0.30244243144989014 0.04630201682448387 0 0 255
0.168045312166214 0.30944186449050903 0.045896224677562714 0 0 255
0.15407684445381165 0.3150104880332947 0.04806879907846451 0 0 255
0.14036472141742706 0.32728835940361023 0.0428779236972332 0 0 255
0.13346293568611145 0.33447933197021484 0.04896587133407593 0 0 255
0.1452905386686325 0.32305923104286194 0.05395893752574921 0 0 255
0.1392900049686432 0.312602162361145 0.06595903635025024 0 0 255
0.1398819386959076 0.31504693627357483 0.06270267814397812 0 0 255
0.11332937330007553 0.30858972668647766 0.0766594260931015 0 0 255
0.11020782589912415 0.3004198968410492 0.07542307674884796 0 0 255
0.0915788933634758 0.320118248462677 0.07829590141773224 0 0 255
0.09992591291666031 0.3243108093738556 0.07374438643455505 0 0 255
0.08448946475982666 0.32177796959877014 0.06578642129898071 0 0 255
0.08087792247533798 0.31384915113449097 0.06754827499389648 0 0 255
0.07847689837217331 0.3360966444015503 0.06430216133594513 0 0 255
0.07974565029144287 0.34671324491500854 0.07577994465827942 0 0 255
0.12137438356876373 0.3088313937187195 0.08007775992155075 0 0 255
0.14250434935092926 0.29712238907814026 0.07945960015058517 0 0 255
0.14881080389022827 0.2949385344982147 0.06900745630264282 0 0 255
0.1647452712059021 0.28532126545906067 0.06297904253005981 0 0 255
0.17065638303756714 0.2796887159347534 0.05557648092508316 0 0 255
0.17023588716983795 0.2770810127258301 0.056636299937963486 0 0 255
0.1643201857805252 0.269862562417984 0.07077844440937042 0 0 255
0.15327826142311096 0.26067402958869934 0.08018282055854797 0 0 255
0.13278594613075256 0.2609086036682129 0.0778236910700798 0 0 255
0.12950561940670013 0.25939929485321045 0.08272845298051834 0 0 255
0.12177722156047821 0.26842162013053894 0.0923268049955368 0 0 255
0.118080735206604 0.28339749574661255 0.09927168488502502 0 0 255
0.10807885974645615 0.2909153401851654 0.0972258448600769 0 0 255
0.11544808745384216 0.2993091642856598 0.08269753307104111 0 0 255
0.11832546442747116 0.3027724623680115 0.08437037467956543 0 0 255
0.12952108681201935 0.2963929772377014 0.07835858315229416 0 0 255
0.1377570778131485 0.28395336866378784 0.09272325038909912 0 0 255
0.1361662894487381 0.29434093832969666 0.08666489273309708 0 0 255
0.13309551775455475 0.2940286099910736 0.08505279570817947 0 0 255
0.1232449859380722 0.2958356440067291 0.0860866904258728 0 0 255
0.14186573028564453 0.2912687659263611 0.08644486218690872 0 0 255
0.14836569130420685 0.27889159321784973 0.074360691010952 0 0 255
0.1646842360496521 0.27999502420425415 0.07346748560667038 0 0 255
0.14193253219127655 0.2757844924926758 0.08055607229471207 0 0 255
0.15876363217830658 0.27706271409988403 0.08194240927696228 0 0 255
0.15693631768226624 0.28250041604042053 0.08484947681427002 0 0 255
0.1454250067472458 0.29229021072387695 0.09256439656019211 0 0 255
0.14299827814102173 0.2902471125125885 0.10024552047252655 0 0 255
0.13266205787658691 0.28188350796699524 0.09838953614234924 0 0 255
0.14334054291248322 0.2752121090888977 0.09606371074914932 0 0 255
0.1529066264629364 0.27601370215415955 0.09445890039205551 0 0 255
0.1409521847963333 0.28016483783721924 0.0941237285733223 0 0 255
0.1478944718837738 0.2935967743396759 0.08244895935058594 0 0 255
0.1589282602071762 0.2931906282901764 0.07654890418052673 0 0 255
0.1679091900587082 0.2983487546443939 0.06949363648891449 0 0 255
0.17502854764461517 0.29201164841651917 0.06772760301828384 0 0 255
0.16675974428653717 0.2942328155040741 0.06544315814971924 0 0 255
0.1664980798959732 0.28345245122909546 0.06876040995121002 0 0 255
0.1653134524822235 0.2797449231147766 0.07077176868915558 0 0 255
0.15590114891529083 0.28447315096855164 0.07951299101114273 0 0 255
0.17052283883094788 0.2885296642780304 0.07890741527080536 0 0 255
0.16744568943977356 0.28976190090179443 0.06915376335382462 0 0 255
0.1788865476846695 0.2983812093734741 0.05692049860954285 0 0 255
0.18004092574119568 0.323141872882843 0.043744221329689026 0 0 255
0.16480480134487152 0.33981621265411377 0.04529871791601181 0 0 255
0.1663980633020401 0.3489571213722229 0.05116218328475952 0 0 255
0.1640748828649521 0.34351637959480286 0.06152277812361717 0 0 255
0.1616010069847107 0.35239869356155396 0.06179474666714668 0 0 255
0.1918819546699524 0.3368435502052307 0.05228017270565033 0 0 255
0.1724368929862976 0.3372301459312439 0.02778264507651329 0 0 255
0.18727195262908936 0.3325765132904053 0.02895534597337246 0 0 255
0.21125367283821106 0.3169269561767578 0.05416419357061386 0 0 255
0.21556033194065094 0.29140010476112366 0.0572984404861927 0 0 255
0.1707051694393158 0.32382732629776 0.02307845465838909 0 0 255
0.17068776488304138 0.2845005989074707 0.07117478549480438 0 0 255
0.1721208095550537 0.25826072692871094 0.05431952327489853 0 0 255
0.1624859720468521 0.24866235256195068 0.05533728376030922 0 0 255
0.19578611850738525 0.21038979291915894 0.09635166823863983 0 0 255
0.2411407232284546 0.19651080667972565 0.09791959822177887 0 0 255
0.2672990560531616 0.21313880383968353 0.10040339827537537 0 0 255
0.2961667776107788 0.2060287743806839 0.10968472063541412 0 0 255
0.3546244204044342 0.20000694692134857 0.043677832931280136 0 0 255
0.36600470542907715 0.17304445803165436 0.048290036618709564 0 0 255
0.4377785921096802 0.2089833915233612 -0.013509153388440609 0 0 255
0.37058499455451965 0.25212568044662476 0.015480252914130688 0 0 255
0.37076565623283386 0.2474890649318695 0.025877393782138824 0 0 255
0.35623499751091003 0.22516463696956635 0.004628476221114397 0 0 255
0.31738877296447754 0.22136589884757996 0.009722935035824776 0 0 255
0.32140496373176575 0.2394987940788269 -0.0036697606556117535 0 0 255
0.3015801012516022 0.24014964699745178 0.018953364342451096 0 0 255
0.3097456991672516 0.21770955622196198 0.024400295689702034 0 0 255
0.3368890583515167 0.26547688245773315 -0.08612526208162308 0 0 255
0.3527293801307678 0.3260047137737274 -0.04785950481891632 0 0 255
0.2548808753490448 0.26093730330467224 0.0666508823633194 0 0 255
0.21014785766601562 0.18823355436325073 0.0011002671672031283 0 0 255
0.2742348909378052 0.10169314593076706 -0.09791350364685059 0 0 255
0.3200016915798187 -0.00873920600861311 0.03198827803134918 0 0 255
0.24822910130023956 0.022602085024118423 -0.18538737297058105 0 0 255
0.14609171450138092 -0.0147210992872715 -0.2294643521308899 0 0 255
0.16341431438922882 -0.13486899435520172 -0.1569361835718155 0 0 255
0.09085191786289215 -0.2378011792898178 -0.1514040231704712 0 0 255
0.048784710466861725 -0.31141218543052673 -0.14049223065376282 0 0 255
0.0855010375380516 -0.3668089807033539 -0.13080783188343048 0 0 255
0.1198558509349823 -0.3927604556083679 -0.1676146537065506 0 0 255
0.16399426758289337 -0.4562719464302063 -0.1746833473443985 0 0 255
0.3774004578590393 -0.2871606945991516 -0.25121206045150757 0 0 255
0.18885798752307892 -0.24422197043895721 -0.23662391304969788 0 0 255
-0.004043468739837408 0.04647640883922577 0.14469723403453827 0 0 255
0.011929738335311413 0.17753492295742035 0.04103408008813858 0 0 255
0.009112396277487278 -0.015949469059705734 0.20020484924316406 0 0 255
-0.24303081631660461 0.10565423965454102 0.07116518169641495 0 0 255
-0.25089359283447266 0.0691286027431488 0.1578332930803299 0 0 255
-0.303507536649704 0.030666105449199677 0.15772880613803864 0 0 255
-0.349203497171402 0.03131122142076492 0.15614691376686096 0 0 255
-0.3658584654331207 -0.04174195975065231 0.13395242393016815 0 0 255
-0.3583480417728424 -0.04027567431330681 0.10084927827119827 0 0 255
-0.38104957342147827 -0.036863479763269424 0.10523730516433716 0 0 255
-0.3965041935443878 -0.04756223410367966 0.09745880961418152 0 0 255
-0.3792691230773926 -0.0023785310331732035 0.04681253433227539 0 0 255
-0.37153658270835876 -0.06011186167597771 0.05766772851347923 0 0 255
-0.39842018485069275 -0.07167956978082657 0.01743321493268013 0 0 255
-0.3634723126888275 -0.07323478907346725 -0.010522853583097458 0 0 255
-0.3576757311820984 -0.08880837261676788 -0.0024172517005354166 0 0 255
-0.32836976647377014 -0.11207717657089233 -0.0169376228004694 0 0 255
-0.21413153409957886 -0.13391326367855072 -0.03208295628428459 0 0 255
-0.20152077078819275 -0.1220145970582962 0.009494949132204056 0 0 255
-0.22910399734973907 -0.03222478926181793 0.10046716779470444 0 0 255
-0.03982377052307129 0.10441236943006516 0.0003434483951423317 0 0 255
0.1319652497768402 0.13315396010875702 0.057220134884119034 0 0 255
0.1436431109905243 0.12850423157215118 0.1307186782360077 0 0 255
0.17495664954185486 0.21031661331653595 0.10361123830080032 0 0 255
0.21185562014579773 0.2630043625831604 0.07809332013130188 0 0 255
0.2149970531463623 0.26154616475105286 0.06637177616357803 0 0 255
0.20611953735351562 0.2578771412372589 0.061133045703172684 0 0 255
0.204169362783432 0.2601343095302582 0.07488218694925308 0 0 255
0.195970356464386 0.2592235803604126 0.08046843856573105 0 0 255
0.18638719618320465 0.2624557316303253 0.08186465501785278 0 0 255
0.16408184170722961 0.25817039608955383 0.08971831202507019 0 0 255
0.16221164166927338 0.2550632655620575 0.0942852571606636 0 0 255
0.16491304337978363 0.25335386395454407 0.09244856238365173 0 0 255
0.17197337746620178 0.2566380202770233 0.09388402849435806 0 0 255
0.15547466278076172 0.2604652941226959 0.09653381258249283 0 0 255
0.1577221006155014 0.2522813081741333 0.09580445289611816 0 0 255
0.16963909566402435 0.2456124871969223 0.0936259776353836 0 0 255
0.1921657919883728 0.23692649602890015 0.08975180983543396 0 0 255
0.17441295087337494 0.24433591961860657 0.07704853266477585 0 0 255
0.20254850387573242 0.2256275862455368 0.07591572403907776 0 0 255
0.19147691130638123 0.20533248782157898 0.09622346609830856 0 0 255
0.18529623746871948 0.18352632224559784 0.10221730917692184 0 0 255
0.20178720355033875 0.15727505087852478 0.09369902312755585 0 0 255
0.22790995240211487 0.12997660040855408 0.11011436581611633 0 0 255
0.24327488243579865 0.08948754519224167 0.10028242319822311 0 0 255
0.2843937575817108 0.051089510321617126 0.11814840137958527 0 0 255
0.29893630743026733 0.013520979322493076 0.1136864572763443 0 0 255
0.3123217523097992 -0.03768044710159302 0.12022636085748672 0 0 255
0.3695831596851349 -0.08270435035228729 0.10119806230068207 0 0 255
0.42264825105667114 -0.22274696826934814 0.08758268505334854 0 0 255
0.47046613693237305 -0.37160834670066833 0.06898806989192963 0 0 255
0.44635599851608276 -0.4245976209640503 0.04170014709234238 0 0 255
0.42801645398139954 -0.44870439171791077 0.005142517387866974 0 0 255
0.35034728050231934 -0.4549464285373688 -0.017790663987398148 0 0 255
0.2857537567615509 -0.4455532431602478 -0.05469448119401932 0 0 255
0.20550121366977692 -0.42991551756858826 -0.04866104945540428 0 0 255
0.16034971177577972 -0.43350690603256226 -0.03249571472406387 0 0 255
0.1507963389158249 -0.43322664499282837 -0.05370684340596199 0 0 255
0.18462282419204712 -0.4079694449901581 -0.06525403261184692 0 0 255
0.22299586236476898 -0.3961501717567444 -0.07726944983005524 0 0 255
0.24417342245578766 -0.4095037281513214 -0.055621445178985596 0 0 255
0.23032182455062866 -0.4255850613117218 -0.06872256100177765 0 0 255
0.2504422664642334 -0.4295869469642639 -0.05106858164072037 0 0 255
0.25678449869155884 -0.43001213669776917 -0.04741791635751724 0 0 255
0.23605217039585114 -0.43648749589920044 -0.03822644427418709 0 0 255
0.21873843669891357 -0.4255668818950653 -0.051584258675575256 0 0 255
0.20116646587848663 -0.42782217264175415 -0.027339324355125427 0 0 255
0.12590302526950836 -0.4410777986049652 -0.02198067121207714 0 0 255
0.10035349428653717 -0.4452963173389435 -0.006494998466223478 0 0 255
0.1049538254737854 -0.46254879236221313 0.010146340355277061 0 0 255
0.13899460434913635 -0.46063336730003357 0.0025633806362748146 0 0 255
0.16389033198356628 -0.47757771611213684 0.012311269529163837 0 0 255
0.20190317928791046 -0.46704649925231934 -0.003775419434532523 0 0 255
0.17859995365142822 -0.4655245840549469 0.025009125471115112 0 0 255
0.18889841437339783 -0.4410504698753357 0.002358462195843458 0 0 255
0.1551859974861145 -0.44754520058631897 -0.004529288038611412 0 0 255
0.15886622667312622 -0.42234647274017334 -0.0001973897306015715 0 0 255
0.11948805302381516 -0.4183974862098694 0.001940408954396844 0 0 255
0.11428523808717728 -0.42841196060180664 0.027565985918045044 0 0 255
0.1007978692650795 -0.4222191572189331 0.02288576401770115 0 0 255
0.08115626126527786 -0.41009125113487244 0.024361448362469673 0 0 255
0.08390352129936218 -0.4051693081855774 0.00502703757956624 0 0 255
0.06841650605201721 -0.3780866861343384 0.0038104832638055086 0 0 255
0.037528473883867264 -0.36143988370895386 0.005974330008029938 0 0 255
0.02394847199320793 -0.3463214933872223 -0.021334944292902946 0 0 255
0.010901683010160923 -0.33975672721862793 -0.037270985543727875 0 0 255
-0.0007653988432139158 -0.3374635577201843 -0.017851408571004868 0 0 255
-0.0028373044915497303 -0.32858356833457947 -0.024961434304714203 0 0 255
-0.01064487174153328 -0.31642770767211914 -0.031108282506465912 0 0 255
-0.017797527834773064 -0.31773197650909424 -0.02743908017873764 0 0 255
-0.019083179533481598 -0.31146809458732605 -0.02607952617108822 0 0 255
-0.037720002233982086 -0.30350932478904724 -0.029676271602511406 0 0 255
-0.025978541001677513 -0.2990908622741699 -0.0340287871658802 0 0 255
-0.01879125088453293 -0.28929102420806885 -0.04694225639104843 0 0 255
-0.04365018755197525 -0.2924377918243408 -0.03368794545531273 0 0 255
-0.047288551926612854 -0.29636210203170776 -0.02580893039703369 0 0 255
-0.06263487786054611 -0.2981506884098053 -0.035882093012332916 0 0 255
-0.09498860687017441 -0.3114837110042572 -0.02213594876229763 0 0 255
-0.09413213282823563 -0.31374141573905945 -0.015893908217549324 0 0 255
-0.10638919472694397 -0.32017382979393005 -0.024705752730369568 0 0 255
-0.1292283535003662 -0.32881465554237366 -0.005873553920537233 0 0 255
-0.13643570244312286 -0.3342788815498352 0.01071837730705738 0 0 255
-0.14065271615982056 -0.3366401493549347 0.004327553324401379 0 0 255
-0.1454949527978897 -0.3462936282157898 0.022005928680300713 0 0 255
-0.14975892007350922 -0.35271185636520386 0.019343482330441475 0 0 255
-0.1314709335565567 -0.35042285919189453 0.020838651806116104 0 0 255
-0.12025938928127289 -0.3641912341117859 0.03479597344994545 0 0 255
-0.10786008834838867 -0.36143288016319275 0.024405738338828087 0 0 255
-0.10462567955255508 -0.3735256791114807 0.029254520311951637 0 0 255
-0.06662023067474365 -0.387229323387146 0.03302793949842453 0 0 255
-0.02718735672533512 -0.3877857029438019 0.0211609099060297 0 0 255
0.024445097893476486 -0.39069005846977234 0.024009495973587036 0 0 255
0.060418907552957535 -0.3927338421344757 0.02214827388525009 0 0 255
0.09264079481363297 -0.38519486784935 0.016830086708068848 0 0 255
0.13561193645000458 -0.38038697838783264 -0.004192290361970663 0 0 255
0.11824354529380798 -0.38366416096687317 -0.0054329014383256435 0 0 255
0.13604770600795746 -0.37803059816360474 -0.012639041990041733 0 0 255
0.13320478796958923 -0.3671760857105255 -0.030307598412036896 0 0 255
0.12960664927959442 -0.37037649750709534 -0.020231574773788452 0 0 255
0.11791735887527466 -0.3713879883289337 -0.029842518270015717 0 0 255
0.08882042020559311 -0.3789275586605072 -0.03737771883606911 0 0 255
0.0726732611656189 -0.39805853366851807 -0.021349435672163963 0 0 255
0.06335083395242691 -0.3986701965332031 -0.020862499251961708 0 0 255
0.03404371812939644 -0.40299010276794434 -0.016818324103951454 0 0 255
0.03471994772553444 -0.41175633668899536 -0.005420849658548832 0 0 255
-0.21696895360946655 -0.1688685417175293 0.009748907759785652 255 127 0
-0.20798639953136444 -0.16736090183258057 -0.00666973739862442 255 127 0
-0.2011251300573349 -0.21120749413967133 0.01998884230852127 255 127 0
-0.20579269528388977 -0.27691322565078735 0.036562494933605194 255 127 0
-0.13870438933372498 -0.34850451350212097 0.0883045494556427 255 127 0
0.09665804356336594 -0.2533787488937378 0.06564098596572876 255 127 0
0.14210395514965057 -0.096701979637146 0.033341389149427414 255 127 0
0.14813993871212006 -0.06199590861797333 0.007066922727972269 255 127 0
0.1536739021539688 -0.007677255664020777 -0.03226494416594505 255 127 0
0.16828112304210663 -0.005398513283580542 -0.026949604973196983 255 127 0
0.14696359634399414 -0.033278267830610275 -0.04832233488559723 255 127 0
0.035242076963186264 -0.12496649473905563 -0.07107512652873993 255 127 0
0.07581263035535812 -0.17612740397453308 -0.12129931151866913 255 127 0
0.40018004179000854 0.10932048410177231 -0.09315196424722672 255 127 0
0.36385464668273926 0.3798515498638153 -0.01768074743449688 255 127 0
0.20010174810886383 0.4383600652217865 -0.03835475072264671 255 127 0
0.23774956166744232 0.4283958077430725 -0.025526955723762512 255 127 0
0.21193034946918488 0.45366790890693665 -0.0125700319185853 255 127 0
0.20922739803791046 0.44030311703681946 -0.02105017937719822 255 127 0
0.19271638989448547 0.4413306713104248 -0.024645810946822166 255 127 0
0.1897139698266983 0.43892550468444824 -0.021540267392992973 255 127 0
0.19282300770282745 0.4314403831958771 -0.018161481246352196 255 127 0
0.19602671265602112 0.42535287141799927 -0.02201814576983452 255 127 0
0.19165819883346558 0.43273302912712097 -0.019662275910377502 255 127 0
0.17340368032455444 0.42079201340675354 -0.012303059920668602 255 127 0
0.1525837630033493 0.4070439338684082 -0.019195187836885452 255 127 0
0.1869930475950241 0.4026308059692383 -0.00925511121749878 255 127 0
0.1755523681640625 0.42041927576065063 -0.016282353550195694 255 127 0
0.1987544298171997 0.41710689663887024 -0.014726107008755207 255 127 0
0.20795325934886932 0.42330625653266907 -0.012304169125854969 255 127 0
0.2191668152809143 0.42877626419067383 -0.016216197982430458 255 127 0
0.21010997891426086 0.4394606649875641 -0.016476783901453018 255 127 0
0.2054179310798645 0.44489073753356934 -0.007271815091371536 255 127 0
0.21385766565799713 0.4234323799610138 -0.008500687777996063 255 127 0
0.23926350474357605 0.4297059178352356 -0.011918410658836365 255 127 0
0.23991215229034424 0.4361438453197479 -0.02726551704108715 255 127 0
0.24769480526447296 0.43815407156944275 -0.03380446881055832 255 127 0
0.2589881122112274 0.43222516775131226 -0.03232284635305405 255 127 0
0.25801223516464233 0.43153539299964905 -0.03371063619852066 255 127 0
0.2553709149360657 0.4356454908847809 -0.038753967732191086 255 127 0
0.2625240981578827 0.44043219089508057 -0.03426482528448105 255 127 0
0.2626549303531647 0.44189733266830444 -0.03607860952615738 255 127 0
0.25821736454963684 0.44660040736198425 -0.04297637939453125 255 127 0
0.2681427597999573 0.44322219491004944 -0.03986351937055588 255 127 0
0.2711181938648224 0.444863498210907 -0.04070467874407768 255 127 0
0.27422240376472473 0.44475889205932617 -0.03826792538166046 255 127 0
0.2683058977127075 0.45225396752357483 -0.04150751605629921 255 127 0
0.26951494812965393 0.4582071602344513 -0.040169667452573776 255 127 0
0.2503047287464142 0.4547833800315857 -0.02254687249660492 255 127 0
0.1962990015745163 0.5271663069725037 0.031423285603523254 255 127 0
-0.08150747418403625 0.18560563027858734 -0.0625535249710083 255 127 0
-0.16462120413780212 0.002500931266695261 0.07158832252025604 255 127 0
-0.20426993072032928 0.056466903537511826 0.052334900945425034 255 127 0
-0.21068613231182098 0.021649478003382683 0.08590026199817657 255 127 0
-0.2170051783323288 -0.0010783857433125377 0.07148982584476471 255 127 0
-0.23008757829666138 -0.04309361055493355 0.07297920435667038 255 127 0
-0.24739950895309448 -0.05834909901022911 0.06746483594179153 255 127 0
-0.25498759746551514 -0.07549627870321274 0.06521382182836533 255 127 0
-0.25164633989334106 -0.08760633319616318 0.06259407103061676 255 127 0
-0.2604815661907196 -0.08967166393995285 0.060761984437704086 255 127 0
-0.2517794668674469 -0.08951002359390259 0.05832898989319801 255 127 0
-0.25455644726753235 -0.08894725888967514 0.06059778481721878 255 127 0
-0.25128495693206787 -0.08347415179014206 0.06179402768611908 255 127 0
-0.2473001927137375 -0.0789867714047432 0.06042781472206116 255 127 0
-0.2535085678100586 -0.07730820775032043 0.057078223675489426 255 127 0
-0.24862071871757507 -0.08428678661584854 0.05915601924061775 255 127 0
-0.25741657614707947 -0.07951116561889648 0.05398041382431984 255 127 0
-0.24669812619686127 -0.07967910170555115 0.05804641172289848 255 127 0
-0.25119471549987793 -0.07653569430112839 0.05765173211693764 255 127 0
-0.2507956027984619 -0.07296500355005264 0.05428583174943924 255 127 0
-0.25075697898864746 -0.0762704387307167 0.05484485253691673 255 127 0
-0.2532264292240143 -0.07054661214351654 0.05291387438774109 255 127 0
-0.24673868715763092 -0.06448996067047119 0.053682029247283936 255 127 0
-0.2449188530445099 -0.056222788989543915 0.052262041717767715 255 127 0
-0.2484901249408722 -0.05672992393374443 0.05369095504283905 255 127 0
-0.2589190602302551 -0.06663591414690018 0.052136607468128204 255 127 0
-0.25815990567207336 -0.07956520467996597 0.04960443824529648 255 127 0
-0.25928905606269836 -0.09182162582874298 0.04466595500707626 255 127 0
-0.26470476388931274 -0.09624899178743362 0.04150683432817459 255 127 0
-0.2738356292247772 -0.09985359013080597 0.03380272537469864 255 127 0
-0.2725624740123749 -0.1252952516078949 0.03484463319182396 255 127 0
-0.279403954744339 -0.14088255167007446 0.028714852407574654 255 127 0
-0.2892543077468872 -0.15769897401332855 0.022654855623841286 255 127 0
-0.2847006022930145 -0.1680164337158203 0.02262827754020691 255 127 0
-0.2750129699707031 -0.17131611704826355 0.024640224874019623 255 127 0
-0.2829110622406006 -0.17566445469856262 0.019816748797893524 255 127 0
-0.2834155261516571 -0.17891933023929596 0.019615335389971733 255 127 0
-0.2824220359325409 -0.179573193192482 0.020380588248372078 255 127 0
-0.28368741273880005 -0.18142518401145935 0.013846233487129211 255 127 0
-0.28981050848960876 -0.19068287312984467 0.009939111769199371 255 127 0
-0.2909391522407532 -0.19416187703609467 0.0050927759148180485 255 127 0
-0.28126785159111023 -0.19690124690532684 0.0036544862668961287 255 127 0
-0.27715423703193665 -0.19104181230068207 0.005691519007086754 255 127 0
-0.2891159653663635 -0.20049473643302917 0.014784339815378189 255 127 0
-0.2863955497741699 -0.18538789451122284 0.02422911487519741 255 127 0
-0.26884332299232483 -0.193682000041008 0.03602960333228111 255 127 0
-0.2948424816131592 -0.17477962374687195 0.03942299261689186 255 127 0
-0.2897240221500397 -0.13868941366672516 0.03597285598516464 255 127 0
-0.28610050678253174 -0.12027239054441452 0.05466482415795326 255 127 0
-0.27441203594207764 -0.10967674851417542 0.03595086559653282 255 127 0
-0.2820068895816803 -0.1175333559513092 0.040954217314720154 255 127 0
-0.2654359042644501 -0.10944810509681702 0.03822614997625351 255 127 0
-0.2648128271102905 -0.10374440997838974 0.0486069917678833 255 127 0
-0.2657509744167328 -0.08281826972961426 0.04810196906328201 255 127 0
-0.26383107900619507 -0.09149081259965897 0.050015248358249664 255 127 0
-0.27304399013519287 -0.09328053891658783 0.05719537287950516 255 127 0
-0.2758774161338806 -0.09749816358089447 0.048953477293252945 255 127 0
-0.2657873034477234 -0.10312868654727936 0.05489256605505943 255 127 0
-0.2727833390235901 -0.09162819385528564 0.048309262841939926 255 127 0
-0.2744843065738678 -0.08890829235315323 0.0460604727268219 255 127 0
-0.27059444785118103 -0.08301793783903122 0.04791215807199478 255 127 0
-0.2593168020248413 -0.08491075783967972 0.042364370077848434 255 127 0
-0.2704661190509796 -0.09764397144317627 0.04035663604736328 255 127 0
-0.27553680539131165 -0.09893947839736938 0.03815215826034546 255 127 0
-0.26656222343444824 -0.09814877808094025 0.02946762554347515 255 127 0
-0.25322598218917847 -0.09571372717618942 0.0324910543859005 255 127 0
-0.26948997378349304 -0.0931071788072586 0.03860010951757431 255 127 0
-0.28006473183631897 -0.09892916679382324 0.03429599851369858 255 127 0
-0.268192321062088 -0.1145816296339035 0.049021217972040176 255 127 0
-0.2803536653518677 -0.10046085715293884 0.05092238262295723 255 127 0
-0.23642727732658386 -0.08427329361438751 0.07404528558254242 255 127 0
-0.22414878010749817 0.013014664873480797 0.09594091027975082 255 127 0
-0.13361908495426178 0.10257444530725479 0.18034608662128448 255 127 0
-0.09267532825469971 0.10625013709068298 0.19799962639808655 255 127 0
-0.2395731806755066 -0.15377134084701538 0.1402515321969986 255 127 0
-0.37992843985557556 -0.24871407449245453 0.01509577501565218 255 127 0
-0.2991979122161865 -0.2988433837890625 0.0878857970237732 255 127 0
-0.24519865214824677 -0.16851061582565308 0.01783391833305359 255 127 0
-0.24133390188217163 -0.1651768535375595 0.037137504667043686 255 127 0
-0.24637703597545624 -0.1721479594707489 0.04432456195354462 255 127 0
-0.24369607865810394 -0.16963692009449005 0.05543243885040283 255 127 0
-0.2356213480234146 -0.1672142744064331 0.06458418816328049 255 127 0
-0.235995814204216 -0.1348414272069931 0.06382256001234055 255 127 0
-0.24200651049613953 -0.12999221682548523 0.05479663982987404 255 127 0
-0.2187638133764267 -0.1267627775669098 0.05902101844549179 255 127 0
-0.1905680149793625 -0.05264480039477348 0.03846224397420883 255 127 0
-0.12634707987308502 0.003705037524923682 0.0421929694712162 255 127 0
-0.15344832837581635 -0.0031106537207961082 0.058344267308712006 255 127 0
-0.2049284279346466 -0.0468575693666935 0.050928205251693726 255 127 0
-0.21165773272514343 -0.08619651198387146 0.04844675958156586 255 127 0
-0.22866462171077728 -0.07790707051753998 0.044723983854055405 255 127 0
-0.2166481763124466 -0.0729912593960762 0.045603156089782715 255 127 0
-0.22585836052894592 -0.06461396813392639 0.046003300696611404 255 127 0
-0.2087341994047165 -0.06933397799730301 0.045772213488817215 255 127 0
-0.20458978414535522 -0.06102482229471207 0.03934059664607048 255 127 0
-0.2003244161605835 -0.0570218600332737 0.04600755125284195 255 127 0
-0.210615873336792 -0.07787185907363892 0.04778735339641571 255 127 0
-0.21278700232505798 -0.10743985325098038 0.051047954708337784 255 127 0
-0.2267541140317917 -0.1155409961938858 0.0510362945497036 255 127 0
-0.23384134471416473 -0.12186820060014725 0.04752610996365547 255 127 0
-0.23616403341293335 -0.13328228890895844 0.047199323773384094 255 127 0
-0.23140667378902435 -0.15094271302223206 0.05309656262397766 255 127 0
-0.2553911805152893 -0.1435372531414032 0.05425000563263893 255 127 0
-0.22709248960018158 -0.13663119077682495 0.04733039066195488 255 127 0
-0.23602008819580078 -0.12271551787853241 0.060967639088630676 255 127 0
-0.22308753430843353 -0.13649357855319977 0.0485311783850193 255 127 0
-0.2387971132993698 -0.14769677817821503 0.04679609090089798 255 127 0
-0.21081028878688812 -0.1252138465642929 0.027278296649456024 255 127 0
-0.16372719407081604 -0.03877045959234238 0.03188788518309593 255 127 0
-0.03546571359038353 0.026858706027269363 0.035616837441921234 255 127 0
-0.004873199854046106 0.02379443123936653 -0.02065969817340374 255 127 0
0.01622876524925232 0.31973180174827576 0.03672824427485466 255 127 0
-0.04858457297086716 0.24242860078811646 0.03437427803874016 255 127 0
-0.11872169375419617 0.09175395965576172 0.05695711448788643 255 127 0
-0.13445258140563965 0.034516070038080215 0.02774391882121563 255 127 0
-0.137252077460289 0.025289777666330338 0.02970333769917488 255 127 0
-0.11815214902162552 0.05282418802380562 0.031757984310388565 255 127 0
-0.08693984895944595 0.04636009782552719 0.029848450794816017 255 127 0
-0.12137240171432495 0.0436079204082489 0.029373392462730408 255 127 0
-0.11701662093400955 0.012061522342264652 0.042602166533470154 255 127 0
-0.12208851426839828 0.007135735359042883 0.0411735400557518 255 127 0
-0.12975123524665833 -0.007748951204121113 0.04935372620820999 255 127 0
-0.14878810942173004 -0.04387767240405083 0.05385397747159004 255 127 0
-0.17386963963508606 -0.06871791929006577 0.03657380864024162 255 127 0
-0.1734452098608017 -0.058953382074832916 0.04554121196269989 255 127 0
-0.1264316588640213 -0.037398066371679306 0.048392221331596375 255 127 0
-0.14294007420539856 -0.043200887739658356 0.0428951159119606 255 127 0
-0.19132833182811737 -0.08341382443904877 0.05497773364186287 255 127 0
-0.21488775312900543 -0.08232419192790985 0.06019866093993187 255 127 0
-0.19057568907737732 -0.07138784229755402 0.05099610611796379 255 127 0
-0.20217449963092804 -0.10128910839557648 0.052113331854343414 255 127 0
-0.2275560051202774 -0.08230501413345337 0.04958730563521385 255 127 0
-0.21830689907073975 -0.06517082452774048 0.047598037868738174 255 127 0
-0.19640874862670898 -0.03795472905039787 0.046663735061883926 255 127 0
-0.17138788104057312 0.0007026342209428549 0.04248080402612686 255 127 0
-0.1561456173658371 0.02547908015549183 0.04666179418563843 255 127 0
-0.14474086463451385 0.03042907454073429 0.04585987329483032 255 127 0
-0.12824563682079315 0.04033457487821579 0.047532930970191956 255 127 0
-0.12516027688980103 0.0584622286260128 0.0449090339243412 255 127 0
-0.11748617887496948 0.05280449986457825 0.061060208827257156 255 127 0
-0.12354728579521179 0.04202363267540932 0.05420929566025734 255 127 0
-0.12953807413578033 0.04740630090236664 0.0417400598526001 255 127 0
-0.1023683175444603 0.05424710735678673 0.03213157877326012 255 127 0
-0.0819169357419014 0.2230554074048996 -0.13154172897338867 255 127 0
0.31105470657348633 0.4381837248802185 -0.0696941390633583 255 127 0
0.28955352306365967 0.4624151885509491 -0.015469507314264774 255 127 0
0.21199265122413635 0.41767174005508423 -0.003713753307238221 255 127 0
0.2014310508966446 0.40758201479911804 0.03608715906739235 255 127 0
0.19553834199905396 0.4103969931602478 0.028881860896945 255 127 0
0.2128300815820694 0.42024922370910645 0.0336914137005806 255 127 0
0.22409877181053162 0.42692652344703674 0.03255649656057358 255 127 0
0.2419639527797699 0.42256030440330505 0.03282306715846062 255 127 0
0.24862688779830933 0.4260704815387726 0.03083968348801136 255 127 0
0.23619017004966736 0.4254429042339325 0.03134255111217499 255 127 0
0.24531932175159454 0.4220668375492096 0.03859609365463257 255 127 0
0.250885933637619 0.422943651676178 0.029936986044049263 255 127 0
0.2420840710401535 0.4218410551548004 0.03293696790933609 255 127 0
0.23511093854904175 0.42365702986717224 0.03807616978883743 255 127 0
0.24236002564430237 0.4237350523471832 0.03548622503876686 255 127 0
0.24511800706386566 0.4259933829307556 0.0299046840518713 255 127 0
0.2454516887664795 0.4222443699836731 0.028714310377836227 255 127 0
0.2503419816493988 0.4250625669956207 0.02383984439074993 255 127 0
0.25707608461380005 0.4274871349334717 0.02024020254611969 255 127 0
0.25891488790512085 0.42632511258125305 0.019265497103333473 255 127 0
0.2568429708480835 0.4237963557243347 0.01428766269236803 255 127 0
0.2572350800037384 0.4241364598274231 0.0064245243556797504 255 127 0
0.26715731620788574 0.4251640737056732 0.005464138463139534 255 127 0
0.27919840812683105 0.4270760118961334 -0.0014462837716564536 255 127 0
0.2863644063472748 0.4324505925178528 -0.00892444048076868 255 127 0
0.2878081202507019 0.4269336760044098 -0.025146951898932457 255 127 0
0.2866048514842987 0.4305010437965393 -0.022588444873690605 255 127 0
0.28003165125846863 0.42803701758384705 -0.021207505837082863 255 127 0
0.2731638550758362 0.4280625581741333 -0.017748815938830376 255 127 0
0.26729679107666016 0.43046748638153076 -0.01558136846870184 255 127 0
0.2682248055934906 0.43405765295028687 -0.01603349857032299 255 127 0
0.2655631899833679 0.4355451464653015 -0.005852764938026667 255 127 0
0.25795143842697144 0.43626999855041504 -0.003501988248899579 255 127 0
0.25196731090545654 0.42948272824287415 -0.007876747287809849 255 127 0
0.24840477108955383 0.43431439995765686 -0.004962368868291378 255 127 0
0.2534307539463043 0.42794346809387207 -0.00223120697773993 255 127 0
0.24939584732055664 0.42962318658828735 -0.0036012360360473394 255 127 0
0.24204453825950623 0.4251297116279602 0.005440307315438986 255 127 0
0.23105567693710327 0.4270867705345154 -0.0008379555074498057 255 127 0
0.23156751692295074 0.42214515805244446 -0.0001828972453949973 255 127 0
0.24569277465343475 0.4209252893924713 -0.0037304130382835865 255 127 0
0.2548450529575348 0.4185783863067627 -0.003801757236942649 255 127 0
0.2604464590549469 0.4129907488822937 -0.007897136732935905 255 127 0
0.25967639684677124 0.41046255826950073 -0.006137143820524216 255 127 0
0.2578825354576111 0.4085104167461395 -0.001960927387699485 255 127 0
0.2654378414154053 0.4104083180427551 -0.0016127040144056082 255 127 0
0.26299911737442017 0.4141981899738312 -0.0019208256853744388 255 127 0
0.25529059767723083 0.41412025690078735 0.004707721993327141 255 127 0
0.2500438094139099 0.40633872151374817 0.010138019919395447 255 127 0
0.2438216209411621 0.4008510112762451 0.008829274214804173 255 127 0
0.2424071729183197 0.39819326996803284 -0.0005056181689724326 255 127 0
0.24250558018684387 0.4014047384262085 0.004739432595670223 255 127 0
0.23751308023929596 0.39462020993232727 0.00973607785999775 255 127 0
0.23576802015304565 0.40003156661987305 -0.01598201133310795 255 127 0
0.24632276594638824 0.395177960395813 -3.90680997952586e-06 255 127 0
0.22131752967834473 0.32038795948028564 0.04083102568984032 255 127 0
0.21543864905834198 0.22622039914131165 -0.003975129686295986 255 127 0
0.16909430921077728 0.289355993270874 0.010329517535865307 255 127 0
0.3095022439956665 0.3370148837566376 -0.059967488050460815 255 127 0
0.34482163190841675 0.389338880777359 -0.06259560585021973 255 127 0
0.32415077090263367 0.4128318130970001 -0.06571395695209503 255 127 0
0.3151128590106964 0.4224705100059509 -0.0649249404668808 255 127 0
0.3074004054069519 0.4267278015613556 -0.04751909524202347 255 127 0
0.2945258617401123 0.42750033736228943 -0.03946575149893761 255 127 0
0.28719449043273926 0.4334179759025574 -0.028682891279459 255 127 0
0.2767309844493866 0.43544307351112366 -0.023872695863246918 255 127 0
0.27012136578559875 0.4367870092391968 -0.017623065039515495 255 127 0
0.26475417613983154 0.4355863034725189 -0.016230102628469467 255 127 0
0.2634049355983734 0.4365387260913849 -0.014816434122622013 255 127 0
0.26028257608413696 0.4375437796115875 -0.01283095683902502 255 127 0
0.2572993338108063 0.43643680214881897 -0.012572812847793102 255 127 0
0.2556943893432617 0.4346524477005005 -0.01023818552494049 255 127 0
0.2586710751056671 0.43305209279060364 -0.006203970406204462 255 127 0
0.2578542232513428 0.4347451627254486 -0.006705820094794035 255 127 0
0.2573356628417969 0.4350566565990448 -0.005594674963504076 255 127 0
0.25643083453178406 0.4352060854434967 -0.006291944999247789 255 127 0
0.26123613119125366 0.43421563506126404 -0.004869723226875067 255 127 0
0.28396084904670715 0.4244050681591034 -0.0008306315867230296 255 127 0
0.2904820442199707 0.4113251864910126 0.089357890188694 255 127 0
0.098912812769413 0.3227218687534332 0.04759172722697258 255 127 0
-0.3826926350593567 -0.1496245414018631 0.08864863216876984 255 127 0
-0.2539568245410919 0.023635661229491234 0.05435029789805412 255 127 0
-0.11102227121591568 0.10780112445354462 0.1002604216337204 255 127 0
-0.10112117230892181 0.11506850272417068 0.1234668716788292 255 127 0
-0.12180396169424057 0.09413410723209381 0.10329849272966385 255 127 0
-0.12422125041484833 0.09967011958360672 0.11581839621067047 255 127 0
-0.03889854624867439 0.12658876180648804 0.16391588747501373 255 127 0
-0.10943499207496643 0.1438770741224289 0.12952806055545807 255 127 0
0.04330921545624733 0.4522646367549896 0.11127513647079468 255 127 0
0.11036134511232376 0.4023823142051697 0.009433803148567677 255 127 0
0.12136448174715042 0.44335708022117615 -0.01676764339208603 255 127 0
0.21932627260684967 0.4053928256034851 -0.019813232123851776 255 127 0
0.28210511803627014 0.44240254163742065 0.01938232034444809 255 127 0
0.31867316365242004 0.4392750859260559 0.019473381340503693 255 127 0
0.34187546372413635 0.35409098863601685 -0.001957148779183626 255 127 0
0.3226078152656555 0.2557363510131836 0.014227135106921196 255 127 0
0.277271568775177 0.15471917390823364 0.047472186386585236 255 127 0
0.22014674544334412 0.04223709926009178 0.09970374405384064 255 127 0
-0.028647031635046005 -0.059678904712200165 0.09820345044136047 255 127 0
0.028981579467654228 -0.2661309838294983 0.031603459268808365 255 127 0
-0.045114193111658096 -0.2599838674068451 0.047727931290864944 255 127 0
0.0832284465432167 -0.19561873376369476 -0.050685759633779526 255 127 0
0.14194302260875702 -0.15898734331130981 -0.06496535241603851 255 127 0
0.18991582095623016 -0.10257381200790405 -0.04283374920487404 255 127 0
0.20851221680641174 -0.10466743260622025 -0.030004825443029404 255 127 0
0.16554535925388336 -0.12705157697200775 -0.032526180148124695 255 127 0
0.15475325286388397 -0.1277429759502411 -0.002161856973543763 255 127 0
0.10083778202533722 -0.1845114827156067 0.003080336144194007 255 127 0
0.11594386398792267 -0.25518056750297546 0.004801971837878227 255 127 0
0.2536488175392151 -0.15084928274154663 -0.014363003894686699 255 127 0
0.17744100093841553 -0.08451830595731735 -0.012613080441951752 255 127 0
0.17181621491909027 -0.11339353024959564 -0.030599715188145638 255 127 0
0.1337146908044815 -0.12776735424995422 -0.014335458166897297 255 127 0
0.1343100517988205 -0.12168972194194794 -0.0018794761272147298 255 127 0
0.15258558094501495 -0.11375672370195389 -0.024323811754584312 255 127 0
0.1377919763326645 -0.10298748314380646 -0.02385701797902584 255 127 0
0.14497683942317963 -0.1015276089310646 -0.021532103419303894 255 127 0
0.1285400241613388 -0.09516952931880951 -0.019122835248708725 255 127 0
0.13515928387641907 -0.10293838381767273 -0.01865994744002819 255 127 0
0.12636388838291168 -0.1095082089304924 -0.014659111388027668 255 127 0
0.14167919754981995 -0.0994798094034195 -0.02854122407734394 255 127 0
0.15045982599258423 -0.09128069877624512 -0.031137483194470406 255 127 0
0.1596749871969223 -0.07499948889017105 -0.029316170141100883 255 127 0
0.15825749933719635 -0.06502020359039307 -0.03048297017812729 255 127 0
0.14842678606510162 -0.07640795409679413 -0.024278549477458 255 127 0
0.12902486324310303 -0.09602778404951096 -0.020692748948931694 255 127 0
0.13213229179382324 -0.09930524230003357 -0.019295943900942802 255 127 0
0.12816369533538818 -0.10193987190723419 -0.016288839280605316 255 127 0
0.11971554160118103 -0.1088397279381752 -0.01230949442833662 255 127 0
0.10828453302383423 -0.12684525549411774 -0.011522307060658932 255 127 0
0.09927518665790558 -0.14487671852111816 -0.01644938997924328 255 127 0
0.08163423836231232 -0.1676747053861618 -0.01525052823126316 255 127 0
0.07054510712623596 -0.18316663801670074 -0.01509432215243578 255 127 0
0.058521587401628494 -0.20227277278900146 -0.015284686349332333 255 127 0
0.04293559119105339 -0.2224949598312378 -0.015713362023234367 255 127 0
0.04161490127444267 -0.22899653017520905 -0.012956006452441216 255 127 0
0.04171586409211159 -0.23286840319633484 -0.01610708236694336 255 127 0
0.0318627655506134 -0.24312087893486023 -0.012969976291060448 255 127 0
0.03682393953204155 -0.24826204776763916 -0.010561014525592327 255 127 0
0.03719813749194145 -0.2397882491350174 -0.014841437339782715 255 127 0
0.03637987747788429 -0.24408112466335297 -0.01352876890450716 255 127 0
0.035968370735645294 -0.24256758391857147 -0.010299556888639927 255 127 0
0.05270572751760483 -0.22741472721099854 -0.011722927913069725 255 127 0
0.04943441227078438 -0.22647075355052948 -0.010068925097584724 255 127 0
0.048708681017160416 -0.22679449617862701 -0.013698849827051163 255 127 0
0.06438251584768295 -0.1974647045135498 0.0069132051430642605 255 127 0
0.10155176371335983 -0.1617620438337326 -0.022872956469655037 255 127 0
0.10170233249664307 -0.13928717374801636 -0.01683928072452545 255 127 0
0.11425213515758514 -0.14158396422863007 -0.006244200747460127 255 127 0
0.11042171716690063 -0.12984737753868103 -0.008882294408977032 255 127 0
0.10494177788496017 -0.13175484538078308 -0.005635980982333422 255 127 0
0.0959920585155487 -0.14162008464336395 -0.006610704120248556 255 127 0
0.08676724135875702 -0.1503722071647644 -0.007081659976392984 255 127 0
0.08622825890779495 -0.1525447815656662 -0.007733220234513283 255 127 0
0.08987896889448166 -0.1453646868467331 -0.008719994686543941 255 127 0
0.08373134583234787 -0.1481153964996338 -0.009992058388888836 255 127 0
0.08223073184490204 -0.15135200321674347 -0.013995492830872536 255 127 0
0.0734945759177208 -0.16518191993236542 -0.01427917368710041 255 127 0
0.0692879930138588 -0.175451397895813 -0.004405029118061066 255 127 0
0.07150806486606598 -0.17330887913703918 -0.006135213654488325 255 127 0
0.07043745368719101 -0.1703401505947113 -0.0033988533541560173 255 127 0
0.07932854443788528 -0.16618767380714417 0.0025677031371742487 255 127 0
0.08993162959814072 -0.15285499393939972 0.0005100845592096448 255 127 0
0.08755215257406235 -0.15101446211338043 0.00540132587775588 255 127 0
0.09450408071279526 -0.14939843118190765 0.01112242229282856 255 127 0
0.10390733927488327 -0.13219594955444336 0.005620729178190231 255 127 0
0.10940764099359512 -0.12532401084899902 0.004194342065602541 255 127 0
0.10910056531429291 -0.12567681074142456 0.01095022726804018 255 127 0
0.12275868654251099 -0.11945755779743195 0.013940864242613316 255 127 0
0.12249550223350525 -0.10736722499132156 0.02354627475142479 255 127 0
0.12611716985702515 -0.10641959309577942 0.02659105509519577 255 127 0
0.1267266571521759 -0.0942329689860344 0.02608673647046089 255 127 0
0.10816046595573425 -0.11219938844442368 0.03621179983019829 255 127 0
0.11710020154714584 -0.12741407752037048 0.04496040567755699 255 127 0
0.1307421326637268 -0.10544737428426743 0.0468197725713253 255 127 0
0.1321502923965454 -0.07122745364904404 0.05074860155582428 255 127 0
0.10784841328859329 -0.08704838156700134 0.050646647810935974 255 127 0
0.0900840237736702 -0.11413926631212234 0.05187346041202545 255 127 0
0.09759557992219925 -0.11492140591144562 0.04073220491409302 255 127 0
0.07948305457830429 -0.12700071930885315 0.04610351100564003 255 127 0
0.07813649624586105 -0.152746319770813 0.05577455461025238 255 127 0
0.038123782724142075 -0.19035319983959198 0.06660231202840805 255 127 0
0.0339122898876667 -0.20371387898921967 0.0723748579621315 255 127 0
0.022249145433306694 -0.21740326285362244 0.08667530864477158 255 127 0
-0.10571543872356415 -0.3651600480079651 0.0687447264790535 255 127 0
-0.3141210377216339 -0.415833979845047 0.10235191136598587 255 127 0
-0.2832469940185547 -0.3908887207508087 0.04915710911154747 255 127 0
-0.3045501708984375 -0.3441244661808014 0.0335162989795208 255 127 0
-0.29993659257888794 -0.3480994701385498 0.017756640911102295 255 127 0
-0.27725422382354736 -0.36992713809013367 0.023175403475761414 255 127 0
-0.28034302592277527 -0.3640921711921692 0.021379780024290085 255 127 0
-0.2866119146347046 -0.3584035038948059 0.012887381948530674 255 127 0
-0.2915351092815399 -0.35798269510269165 0.012293417938053608 255 127 0
-0.27675575017929077 -0.34706932306289673 0.007255885284394026 255 127 0
-0.2837773263454437 -0.33484742045402527 0.011516121216118336 255 127 0
-0.2812834680080414 -0.33710554242134094 0.013616356998682022 255 127 0
-0.2781098783016205 -0.34215909242630005 0.014065860770642757 255 127 0
-0.28503158688545227 -0.3482503592967987 0.0076743969693779945 255 127 0
-0.301004022359848 -0.3522022068500519 0.0062982747331261635 255 127 0
-0.2920334041118622 -0.34176039695739746 0.0013421870535239577 255 127 0
-0.29247453808784485 -0.3243461847305298 -0.002341160085052252 255 127 0
