ply
format ascii 1.0
element vertex 691
property float x
property float y
property float z
property uchar red
property uchar green
property uchar blue
end_header
-0.012347071431577206 0.35106125473976135 0.33232003450393677 255 127 0
-0.021414125338196754 0.35641467571258545 0.3263014256954193 255 127 0
-0.03791893273591995 0.3547232151031494 0.3184424638748169 255 127 0
-0.04394889250397682 0.3454061448574066 0.33058926463127136 255 127 0
-0.03338572382926941 0.34681275486946106 0.33551615476608276 255 127 0
-0.03728026524186134 0.3472995460033417 0.3402298092842102 255 127 0
-0.015410047024488449 0.35008397698402405 0.3473747670650482 255 127 0
-0.0028672211337834597 0.3791676163673401 0.3476874828338623 255 127 0
-0.017025114968419075 0.36632686853408813 0.34518903493881226 255 127 0
-0.04225528985261917 0.3660992383956909 0.34577706456184387 255 127 0
-0.06284165382385254 0.3547295928001404 0.3598715662956238 255 127 0
-0.09514971822500229 0.34808647632598877 0.3444695770740509 255 127 0
-0.11719247698783875 0.3656032085418701 0.35474324226379395 255 127 0
-0.12488719820976257 0.3659721910953522 0.3500075936317444 255 127 0
-0.13635872304439545 0.34960925579071045 0.3367164731025696 255 127 0
-0.14555072784423828 0.3655853569507599 0.3505656123161316 255 127 0
-0.12952953577041626 0.37557387351989746 0.36040636897087097 255 127 0
-0.10519877821207047 0.3672960102558136 0.354008287191391 255 127 0
-0.08179552853107452 0.3573607802391052 0.3424743115901947 255 127 0
-0.07835669070482254 0.3195343315601349 0.35381031036376953 255 127 0
-0.08761477470397949 0.33803126215934753 0.3467708230018616 255 127 0
-0.06597238034009933 0.353272020816803 0.35174497961997986 255 127 0
-0.05810661241412163 0.35010379552841187 0.3525641858577728 255 127 0
-0.061036478728055954 0.33524736762046814 0.34112879633903503 255 127 0
-0.07451577484607697 0.33331459760665894 0.33693692088127136 255 127 0
-0.08070677518844604 0.3469856381416321 0.33880284428596497 255 127 0
-0.06999228894710541 0.3274877965450287 0.3392053246498108 255 127 0
-0.05455956235527992 0.32659849524497986 0.33965468406677246 255 127 0
-0.02956015057861805 0.32054004073143005 0.339557945728302 255 127 0
-0.013435214757919312 0.31960153579711914 0.32299599051475525 255 127 0
-0.0040751295164227486 0.2977890074253082 0.30855488777160645 255 127 0
0.026983847841620445 0.29749590158462524 0.30787140130996704 255 127 0
0.05874747410416603 0.28332585096359253 0.29189300537109375 255 127 0
0.09007041901350021 0.26948851346969604 0.27963995933532715 255 127 0
0.10795895010232925 0.23573927581310272 0.2825806736946106 255 127 0
0.12083257734775543 0.24081818759441376 0.2765158414840698 255 127 0
0.11619797348976135 0.2531129717826843 0.2827410101890564 255 127 0
0.0874936580657959 0.2707556486129761 0.28266164660453796 255 127 0
0.058041688054800034 0.293111115694046 0.3072299361228943 255 127 0
0.030666789039969444 0.3231940269470215 0.3286210596561432 255 127 0
0.021890981122851372 0.33544695377349854 0.33230364322662354 255 127 0
-0.007732943166047335 0.3386421501636505 0.34458985924720764 255 127 0
-0.006889444775879383 0.35051748156547546 0.3545897305011749 255 127 0
0.023151034489274025 0.335030198097229 0.3557533919811249 255 127 0
0.03086179308593273 0.3331131935119629 0.3580440580844879 255 127 0
0.03370043262839317 0.31006866693496704 0.35132718086242676 255 127 0
0.0039716134779155254 0.32985347509384155 0.3698696792125702 255 127 0
-0.0037027974613010883 0.33322224020957947 0.37354379892349243 255 127 0
-0.005300123710185289 0.3324454426765442 0.37200677394866943 255 127 0
-0.003520240541547537 0.32394272089004517 0.37303560972213745 255 127 0
0.00254082097671926 0.3276312053203583 0.3723157048225403 255 127 0
0.003950363025069237 0.31345686316490173 0.37158456444740295 255 127 0
-0.023418232798576355 0.3088921904563904 0.36961302161216736 255 127 0
-0.034837257117033005 0.32985159754753113 0.37039604783058167 255 127 0
-0.043501462787389755 0.32379376888275146 0.37552616000175476 255 127 0
-0.05644470080733299 0.31862300634384155 0.38598909974098206 255 127 0
-0.0462430976331234 0.3264419138431549 0.3835529088973999 255 127 0
-0.040525902062654495 0.34390974044799805 0.3820677697658539 255 127 0
-0.03783757984638214 0.3293907046318054 0.39509937167167664 255 127 0
-0.05245302617549896 0.32556888461112976 0.3789493143558502 255 127 0
-0.08396761864423752 0.31922024488449097 0.3985559642314911 255 127 0
-0.11670669913291931 0.3357311189174652 0.3829660713672638 255 127 0
-0.1361367255449295 0.35864877700805664 0.3777892291545868 255 127 0
-0.15573051571846008 0.34756800532341003 0.37077054381370544 255 127 0
-0.17035748064517975 0.3295972943305969 0.364088237285614 255 127 0
-0.17071455717086792 0.32130399346351624 0.36432385444641113 255 127 0
-0.16330550611019135 0.3202894628047943 0.3600391447544098 255 127 0
-0.1856856793165207 0.301957368850708 0.36077970266342163 255 127 0
-0.20285436511039734 0.3067450523376465 0.3580065667629242 255 127 0
-0.19799266755580902 0.3326176702976227 0.3501068353652954 255 127 0
-0.1991357058286667 0.3329424560070038 0.35207682847976685 255 127 0
-0.19796478748321533 0.3280263841152191 0.34598127007484436 255 127 0
-0.18986129760742188 0.32370859384536743 0.33755433559417725 255 127 0
-0.16807913780212402 0.30641260743141174 0.3515189290046692 255 127 0
-0.15789853036403656 0.3134605288505554 0.3651506006717682 255 127 0
-0.14129731059074402 0.3206554055213928 0.35829558968544006 255 127 0
-0.13789090514183044 0.30804920196533203 0.35097217559814453 255 127 0
-0.13714540004730225 0.32153528928756714 0.36892953515052795 255 127 0
-0.14437714219093323 0.3236567974090576 0.3646540641784668 255 127 0
-0.1569434553384781 0.3297280967235565 0.3639136254787445 255 127 0
-0.17517301440238953 0.3462332785129547 0.3617026209831238 255 127 0
-0.17398974299430847 0.35368064045906067 0.35243427753448486 255 127 0
-0.1776084154844284 0.35666313767433167 0.3513720631599426 255 127 0
-0.17550590634346008 0.3574985861778259 0.3434578478336334 255 127 0
-0.17689430713653564 0.35677000880241394 0.3463943898677826 255 127 0
-0.17439579963684082 0.3543841540813446 0.3460198938846588 255 127 0
-0.17582225799560547 0.35056573152542114 0.35001280903816223 255 127 0
-0.18050788342952728 0.3512764275074005 0.3506442904472351 255 127 0
-0.18216580152511597 0.3466075658798218 0.35616180300712585 255 127 0
-0.17962907254695892 0.359906941652298 0.3528500497341156 255 127 0
-0.18697285652160645 0.3423653841018677 0.3471094071865082 255 127 0
-0.1917957216501236 0.3564973771572113 0.34599563479423523 255 127 0
-0.19689470529556274 0.35909178853034973 0.3484060764312744 255 127 0
-0.20784364640712738 0.35974201560020447 0.3467871844768524 255 127 0
-0.21610118448734283 0.34508809447288513 0.3397562801837921 255 127 0
-0.223426952958107 0.34589672088623047 0.3369632661342621 255 127 0
-0.20739129185676575 0.34820160269737244 0.349808007478714 255 127 0
-0.20089693367481232 0.34926852583885193 0.3571583330631256 255 127 0
-0.21967904269695282 0.33692920207977295 0.3564263880252838 255 127 0
-0.24237500131130219 0.3226236402988434 0.34009161591529846 255 127 0
-0.25339996814727783 0.3195895254611969 0.33666977286338806 255 127 0
-0.27425551414489746 0.3026496171951294 0.3310394883155823 255 127 0
-0.29099562764167786 0.2915476858615875 0.31886520981788635 255 127 0
-0.29992926120758057 0.30004212260246277 0.3121127784252167 255 127 0
-0.30332791805267334 0.29129254817962646 0.30817049741744995 255 127 0
-0.3104623556137085 0.2546747624874115 0.2985144257545471 255 127 0
-0.31377896666526794 0.2562602758407593 0.30154937505722046 255 127 0
-0.30290189385414124 0.26208099722862244 0.3113735318183899 255 127 0
-0.2925942838191986 0.27019673585891724 0.3204646408557892 255 127 0
-0.29127123951911926 0.2712920904159546 0.31946036219596863 255 127 0
-0.2936488091945648 0.27511152625083923 0.30909788608551025 255 127 0
-0.3029499351978302 0.2747592329978943 0.307368665933609 255 127 0
-0.30740565061569214 0.26835867762565613 0.30453771352767944 255 127 0
-0.3018248677253723 0.2669621407985687 0.3062247335910797 255 127 0
-0.295202374458313 0.2688644528388977 0.3109498620033264 255 127 0
-0.29533714056015015 0.26262396574020386 0.31676337122917175 255 127 0
-0.2926742434501648 0.25584709644317627 0.31556302309036255 255 127 0
-0.2799350321292877 0.2613951861858368 0.3248651325702667 255 127 0
-0.26597729325294495 0.2744103670120239 0.33543965220451355 255 127 0
-0.25753629207611084 0.263008713722229 0.3223973512649536 255 127 0
-0.2575400471687317 0.2631414532661438 0.31483837962150574 255 127 0
-0.24852076172828674 0.2378784716129303 0.3056487739086151 255 127 0
-0.24150775372982025 0.23392298817634583 0.3176819980144501 255 127 0
-0.2366432249546051 0.21688203513622284 0.314137727022171 255 127 0
-0.2396458238363266 0.2179040163755417 0.3014705777168274 255 127 0
-0.2269774228334427 0.21329906582832336 0.3042490482330322 255 127 0
-0.22999785840511322 0.22301197052001953 0.3165613114833832 255 127 0
-0.2348155826330185 0.2140893042087555 0.3139863610267639 255 127 0
-0.23342813551425934 0.22343659400939941 0.30190160870552063 255 127 0
-0.22585149109363556 0.21603763103485107 0.30559593439102173 255 127 0
-0.2176567018032074 0.22238905727863312 0.32776322960853577 255 127 0
-0.20191378891468048 0.23590657114982605 0.3216220736503601 255 127 0
-0.2071380317211151 0.2341402769088745 0.31772327423095703 255 127 0
-0.2047276347875595 0.22560741007328033 0.3105453848838806 255 127 0
-0.21014633774757385 0.2298213094472885 0.32285410165786743 255 127 0
-0.21867600083351135 0.21820425987243652 0.3103618621826172 255 127 0
-0.21844036877155304 0.2036372274160385 0.3013888895511627 255 127 0
-0.2102566957473755 0.20828871428966522 0.312203586101532 255 127 0
-0.20387180149555206 0.17969106137752533 0.28994524478912354 255 127 0
-0.20915959775447845 0.13113082945346832 0.2789732813835144 255 127 0
-0.1852414757013321 0.1291423738002777 0.2801037132740021 255 127 0
-0.15122690796852112 0.11674779653549194 0.2916884422302246 255 127 0
-0.12718263268470764 0.11791758239269257 0.2937031090259552 255 127 0
-0.10834504663944244 0.10757295042276382 0.2889424264431 255 127 0
-0.09711861610412598 0.12387929111719131 0.2936667799949646 255 127 0
-0.1346357762813568 0.1421159952878952 0.2905166447162628 255 127 0
-0.16462476551532745 0.1459905505180359 0.2987115979194641 255 127 0
-0.15761806070804596 0.16232775151729584 0.3080817759037018 255 127 0
-0.14596472680568695 0.18179191648960114 0.3172098994255066 255 127 0
-0.12499111890792847 0.19486688077449799 0.3107244372367859 255 127 0
-0.09441953897476196 0.18383321166038513 0.31041625142097473 255 127 0
-0.060987696051597595 0.18793387711048126 0.31543412804603577 255 127 0
-0.05623853951692581 0.1981201171875 0.3204096853733063 255 127 0
-0.057648926973342896 0.20696566998958588 0.31601396203041077 255 127 0
-0.055060409009456635 0.20432013273239136 0.3194836676120758 255 127 0
-0.05888441577553749 0.22429674863815308 0.32638218998908997 255 127 0
-0.05452580377459526 0.23562996089458466 0.3134419620037079 255 127 0
-0.046006809920072556 0.23308441042900085 0.298473060131073 255 127 0
-0.04034529626369476 0.2460041046142578 0.30246078968048096 255 127 0
-0.03934594616293907 0.2566843628883362 0.31751498579978943 255 127 0
-0.04746714606881142 0.2288293093442917 0.30906757712364197 255 127 0
-0.02328491024672985 0.24801377952098846 0.32278215885162354 255 127 0
0.034263789653778076 0.2950468361377716 0.32758790254592896 255 127 0
0.05922854691743851 0.2602766454219818 0.3172111511230469 255 127 0
0.03820858895778656 0.24588586390018463 0.3701285421848297 255 127 0
0.003699997439980507 0.2686178684234619 0.38529345393180847 255 127 0
-0.03121514990925789 0.25349071621894836 0.3727531433105469 255 127 0
-0.04548389092087746 0.26170647144317627 0.37526825070381165 255 127 0
-0.014505885541439056 0.2843706011772156 0.36429452896118164 255 127 0
0.03061625175178051 0.22384655475616455 0.36215564608573914 255 127 0
0.03351850435137749 0.20471937954425812 0.3410826325416565 255 127 0
0.043159931898117065 0.2043810337781906 0.36374640464782715 255 127 0
0.025997893884778023 0.1872497946023941 0.33175429701805115 255 127 0
0.03694611415266991 0.13583378493785858 0.32430094480514526 255 127 0
0.08659739792346954 0.10769781470298767 0.3427271842956543 255 127 0
0.132141575217247 0.10146860033273697 0.3192039430141449 255 127 0
0.18493005633354187 0.09670913964509964 0.32988065481185913 255 127 0
0.23235701024532318 0.1026327908039093 0.30293935537338257 255 127 0
0.2567465007305145 0.08230627328157425 0.28585928678512573 255 127 0
0.22419312596321106 0.10536140203475952 0.28847649693489075 255 127 0
0.22702659666538239 0.07060454040765762 0.29276978969573975 255 127 0
0.2561018168926239 0.001521086785942316 0.2421572506427765 255 127 0
0.32108205556869507 -0.07842857390642166 0.21457171440124512 255 127 0
0.3984942138195038 -0.06494026631116867 0.1724601835012436 255 127 0
0.4323889911174774 -0.06848109513521194 0.11302828043699265 255 127 0
0.4130863547325134 -0.0915045440196991 0.13603642582893372 255 127 0
0.42669886350631714 -0.07483301311731339 0.14177106320858002 255 127 0
0.400101900100708 -0.04176997393369675 0.1771334707736969 255 127 0
0.3717595636844635 0.007346127647906542 0.17149850726127625 255 127 0
0.3915499746799469 -0.005169373005628586 0.15399165451526642 255 127 0
0.3800390362739563 0.040334537625312805 0.17008177936077118 255 127 0
0.35965436697006226 0.07092510163784027 0.18334516882896423 255 127 0
0.3336831033229828 0.09166069328784943 0.1905057430267334 255 127 0
0.3188740015029907 0.09533897787332535 0.20639459788799286 255 127 0
0.3125184178352356 0.11350056529045105 0.2128666341304779 255 127 0
0.2933300733566284 0.12415245920419693 0.2050004005432129 255 127 0
0.3173615038394928 0.1052410751581192 0.19296088814735413 255 127 0
0.3086625635623932 0.13205920159816742 0.20633436739444733 255 127 0
0.2986719310283661 0.14612306654453278 0.19545042514801025 255 127 0
0.3102171719074249 0.11479181796312332 0.1850665658712387 255 127 0
0.3128967583179474 0.08855587989091873 0.1899528056383133 255 127 0
0.3135427236557007 0.13764047622680664 0.1855001151561737 255 127 0
0.3058798611164093 0.11053866893053055 0.17498087882995605 255 127 0
0.27107885479927063 0.1130005493760109 0.2261163592338562 255 127 0
0.2691190838813782 0.09233491867780685 0.21453694999217987 255 127 0
0.28420424461364746 0.029626693576574326 0.21150630712509155 255 127 0
0.3263464570045471 -0.002121823141351342 0.16285882890224457 255 127 0
0.3482227325439453 -0.07653596997261047 0.0918879508972168 255 127 0
0.3931152820587158 -0.1564197689294815 -0.001267566462047398 255 127 0
0.41388267278671265 -0.1903979331254959 -0.047624021768569946 255 127 0
0.38149353861808777 -0.22713349759578705 -0.09878667443990707 255 127 0
0.4085924029350281 -0.2556213438510895 -0.13221272826194763 255 127 0
0.41887834668159485 -0.2636886239051819 -0.17299498617649078 255 127 0
0.41363993287086487 -0.28779807686805725 -0.16810666024684906 255 127 0
0.41415658593177795 -0.26504629850387573 -0.18582887947559357 255 127 0
0.4176860451698303 -0.29739701747894287 -0.20352870225906372 255 127 0
0.4194815456867218 -0.2831103801727295 -0.2044254094362259 255 127 0
0.453829824924469 -0.27947935461997986 -0.1681763082742691 255 127 0
0.4643101990222931 -0.24069596827030182 -0.1147954910993576 255 127 0
0.43116092681884766 -0.18283458054065704 -0.07757391035556793 255 127 0
0.44742870330810547 -0.18137264251708984 -0.07412898540496826 255 127 0
0.4695681929588318 -0.17257046699523926 -0.07298113405704498 255 127 0
0.44978538155555725 -0.12883423268795013 -0.0833895355463028 255 127 0
0.4651816785335541 -0.1281590461730957 -0.09141242504119873 255 127 0
0.4878509044647217 -0.11856106668710709 -0.08539308607578278 255 127 0
0.4845259487628937 -0.07347375154495239 -0.06550867855548859 255 127 0
0.45915716886520386 -0.026778025552630424 0.023498445749282837 255 127 0
0.4111921191215515 0.16347132623195648 0.22711673378944397 255 127 0
0.20370295643806458 0.28467631340026855 0.3969486951828003 255 127 0
-0.023096967488527298 0.310982346534729 0.3993374705314636 255 127 0
-0.131344273686409 0.2687526047229767 0.39371979236602783 255 127 0
-0.1567239910364151 0.30604058504104614 0.4118002653121948 255 127 0
-0.12705589830875397 0.27935823798179626 0.4255639910697937 255 127 0
-0.07294436544179916 0.34626659750938416 0.47736531496047974 255 127 0
-0.08295844495296478 0.341156005859375 0.4209135174751282 255 127 0
-0.10294200479984283 0.40745967626571655 0.4428696036338806 255 127 0
-0.14716339111328125 0.3648054301738739 0.42263975739479065 255 127 0
-0.22531092166900635 0.3601043224334717 0.40770313143730164 255 127 0
-0.2321450114250183 0.3730729818344116 0.4152735769748688 255 127 0
-0.24436573684215546 0.3913111388683319 0.4255868196487427 255 127 0
-0.2224796861410141 0.4329812228679657 0.3928467035293579 255 127 0
-0.22643937170505524 0.4048685133457184 0.37773388624191284 255 127 0
-0.2491772174835205 0.4341532588005066 0.3666602075099945 255 127 0
-0.291154146194458 0.4136936068534851 0.3014489710330963 255 127 0
-0.33369123935699463 0.3629506230354309 0.29102054238319397 255 127 0
-0.34778648614883423 0.305393785238266 0.26047754287719727 255 127 0
-0.35469701886177063 0.28504905104637146 0.2344532459974289 255 127 0
-0.38443440198898315 0.2554246485233307 0.20673824846744537 255 127 0
-0.3916151225566864 0.24109657108783722 0.181624636054039 255 127 0
-0.4033243656158447 0.2490825057029724 0.18117645382881165 255 127 0
-0.39721187949180603 0.2393941432237625 0.17392024397850037 255 127 0
-0.40860554575920105 0.23692721128463745 0.1700838953256607 255 127 0
-0.4052788317203522 0.22394132614135742 0.16070833802223206 255 127 0
-0.4094114303588867 0.22864674031734467 0.16123567521572113 255 127 0
-0.40847572684288025 0.22188355028629303 0.15360115468502045 255 127 0
-0.403942734003067 0.21550722420215607 0.1515367478132248 255 127 0
-0.40998220443725586 0.22907917201519012 0.15998110175132751 255 127 0
-0.39644765853881836 0.23743225634098053 0.18201307952404022 255 127 0
-0.38985446095466614 0.25489988923072815 0.20705178380012512 255 127 0
-0.38400140404701233 0.2689913511276245 0.2096286565065384 255 127 0
-0.37453576922416687 0.2716200351715088 0.2233763039112091 255 127 0
-0.363419771194458 0.29258137941360474 0.22615885734558105 255 127 0
-0.35676318407058716 0.3162316083908081 0.21984577178955078 255 127 0
-0.35715505480766296 0.3037000596523285 0.21222950518131256 255 127 0
-0.3451150059700012 0.29776135087013245 0.21709570288658142 255 127 0
-0.34430351853370667 0.3113338053226471 0.23195534944534302 255 127 0
-0.3276154100894928 0.3265310227870941 0.25175899267196655 255 127 0
-0.3267344534397125 0.33275750279426575 0.2670366168022156 255 127 0
-0.32889774441719055 0.33534106612205505 0.2723810374736786 255 127 0
-0.3180191218852997 0.3398628830909729 0.2794661521911621 255 127 0
-0.3123602867126465 0.3565422594547272 0.27953040599823 255 127 0
-0.31107810139656067 0.371605783700943 0.28460559248924255 255 127 0
-0.29869022965431213 0.38766562938690186 0.2848934233188629 255 127 0
-0.31651338934898376 0.3816034197807312 0.28971198201179504 255 127 0
-0.3129082918167114 0.36668211221694946 0.2868678569793701 255 127 0
-0.3135771155357361 0.3762393295764923 0.29353123903274536 255 127 0
-0.3050345182418823 0.37513601779937744 0.3005000948905945 255 127 0
-0.31031620502471924 0.36473315954208374 0.2905042767524719 255 127 0
-0.32162362337112427 0.3511022925376892 0.28039905428886414 255 127 0
-0.3240901827812195 0.3405330181121826 0.2785146236419678 255 127 0
-0.3243114650249481 0.34501221776008606 0.28351834416389465 255 127 0
-0.3087739944458008 0.34859177470207214 0.30079901218414307 255 127 0
-0.295717716217041 0.3441641330718994 0.30692535638809204 255 127 0
-0.28667449951171875 0.35441362857818604 0.3121280372142792 255 127 0
-0.27375638484954834 0.36908164620399475 0.3245834708213806 255 127 0
-0.24591858685016632 0.37320682406425476 0.3411533832550049 255 127 0
-0.23761609196662903 0.38493260741233826 0.35365477204322815 255 127 0
-0.2067134976387024 0.4055405259132385 0.3588975965976715 255 127 0
-0.21805305778980255 0.40636029839515686 0.36399558186531067 255 127 0
-0.21654722094535828 0.3887864351272583 0.36417993903160095 255 127 0
-0.23171736299991608 0.37427642941474915 0.357978492975235 255 127 0
-0.2347109168767929 0.36358073353767395 0.3672043979167938 255 127 0
-0.21801042556762695 0.35254451632499695 0.36330685019493103 255 127 0
-0.2421654909849167 0.35386550426483154 0.34772390127182007 255 127 0
-0.2580910921096802 0.3512978255748749 0.3403165638446808 255 127 0
-0.27792811393737793 0.3556889295578003 0.31966081261634827 255 127 0
-0.30423781275749207 0.34760868549346924 0.3042236566543579 255 127 0
-0.312776118516922 0.34473922848701477 0.2945793569087982 255 127 0
-0.3170073330402374 0.3413979709148407 0.28923508524894714 255 127 0
-0.3205641210079193 0.33796682953834534 0.29593247175216675 255 127 0
-0.3111068606376648 0.3454204797744751 0.30383580923080444 255 127 0
-0.2924840748310089 0.3612455427646637 0.30828163027763367 255 127 0
-0.2956715226173401 0.35961341857910156 0.30936679244041443 255 127 0
-0.3043769896030426 0.36076977849006653 0.3043355643749237 255 127 0
-0.3197706937789917 0.35465046763420105 0.2923332154750824 255 127 0
-0.3221268653869629 0.349041610956192 0.28778985142707825 255 127 0
-0.3154783546924591 0.3607609272003174 0.30755478143692017 255 127 0
-0.3045808970928192 0.3780142366886139 0.3260737359523773 255 127 0
-0.26452159881591797 0.38963887095451355 0.34809571504592896 255 127 0
-0.21291305124759674 0.3943590223789215 0.36570504307746887 255 127 0
-0.17846453189849854 0.4026239216327667 0.3733651638031006 255 127 0
-0.2011263519525528 0.3940906524658203 0.36921170353889465 255 127 0
-0.20329079031944275 0.3878280520439148 0.3563838005065918 255 127 0
-0.18560972809791565 0.4160129725933075 0.3694649040699005 255 127 0
-0.1409408301115036 0.40370282530784607 0.39101743698120117 255 127 0
-0.08486024290323257 0.3922477066516876 0.38255295157432556 255 127 0
-0.09524626284837723 0.3776300251483917 0.3811565041542053 255 127 0
-0.08561097085475922 0.35861143469810486 0.38037413358688354 255 127 0
-0.09707512706518173 0.38231536746025085 0.3864096999168396 255 127 0
-0.0961821898818016 0.4047669470310211 0.3840637505054474 255 127 0
-0.07263749092817307 0.3971927762031555 0.38817647099494934 255 127 0
-0.06668055802583694 0.3903665542602539 0.38260558247566223 255 127 0
-0.07119045406579971 0.38252002000808716 0.37982890009880066 255 127 0
-0.06427499651908875 0.3869447410106659 0.3913308084011078 255 127 0
-0.04821714758872986 0.390082448720932 0.3852243423461914 255 127 0
-0.03334380313754082 0.39082399010658264 0.3833315968513489 255 127 0
-0.014298321679234505 0.3911958336830139 0.3882511556148529 255 127 0
-0.005270431283861399 0.374823659658432 0.37849318981170654 255 127 0
-0.0336003378033638 0.3681637644767761 0.3675609529018402 255 127 0
-0.029356932267546654 0.37663882970809937 0.39226946234703064 255 127 0
-0.025201303884387016 0.4000542461872101 0.39426669478416443 255 127 0
-0.016614994034171104 0.3986842632293701 0.3890151083469391 255 127 0
-0.003700752044096589 0.39221301674842834 0.3795883357524872 255 127 0
-0.0004256629617884755 0.3902280330657959 0.36910441517829895 255 127 0
0.004455110989511013 0.39168304204940796 0.37171900272369385 255 127 0
0.013364977203309536 0.3873533308506012 0.3693162202835083 255 127 0
0.016688229516148567 0.38891491293907166 0.3630269169807434 255 127 0
0.0252253208309412 0.39121347665786743 0.3654671013355255 255 127 0
0.040155407041311264 0.38094812631607056 0.3622644245624542 255 127 0
0.05343528464436531 0.36835986375808716 0.3586602509021759 255 127 0
0.0619761198759079 0.3621333837509155 0.3552853465080261 255 127 0
0.06271160393953323 0.36160045862197876 0.35417336225509644 255 127 0
0.07386348396539688 0.3686665892601013 0.35204678773880005 255 127 0
0.08252429962158203 0.370292991399765 0.34960025548934937 255 127 0
0.08425314724445343 0.35091400146484375 0.34761402010917664 255 127 0
0.08997694402933121 0.33003857731819153 0.33625528216362 255 127 0
0.08777236193418503 0.3441196084022522 0.3363373875617981 255 127 0
0.07509227097034454 0.3657062351703644 0.34637436270713806 255 127 0
0.08082525432109833 0.35447150468826294 0.34606072306632996 255 127 0
0.06811809539794922 0.3517009913921356 0.3513840436935425 255 127 0
0.049106303602457047 0.3505387604236603 0.34487614035606384 255 127 0
0.03774268552660942 0.3570157289505005 0.3371582627296448 255 127 0
0.034171104431152344 0.3487086892127991 0.3379327952861786 255 127 0
0.041026946157217026 0.33005958795547485 0.3475436270236969 255 127 0
0.05469685047864914 0.32419463992118835 0.3478313088417053 255 127 0
0.06915601342916489 0.32248154282569885 0.34674811363220215 255 127 0
0.06596064567565918 0.32649070024490356 0.3516177237033844 255 127 0
0.06212732568383217 0.3324224650859833 0.34920114278793335 255 127 0
0.03588946908712387 0.3303872048854828 0.36177051067352295 255 127 0
0.04951205104589462 0.3277575969696045 0.3535258173942566 255 127 0
0.03932477533817291 0.3500833809375763 0.3698328733444214 255 127 0
-0.002223131014034152 0.37587669491767883 0.36193206906318665 255 127 0
-0.01582315005362034 0.35437101125717163 0.3444962203502655 255 127 0
-0.00475364038720727 0.3370499312877655 0.35760655999183655 255 127 0
0.011633537709712982 0.3301394283771515 0.3734898269176483 255 127 0
0.028571195900440216 0.3294268548488617 0.36555662751197815 255 127 0
0.041190218180418015 0.33197951316833496 0.37084364891052246 255 127 0
0.06123596429824829 0.3235721290111542 0.3722756803035736 255 127 0
0.090965636074543 0.31510260701179504 0.3649693727493286 255 127 0
0.12005438655614853 0.3130192160606384 0.3644811809062958 255 127 0
0.129868283867836 0.31910473108291626 0.3590731620788574 255 127 0
0.11976207047700882 0.3115779161453247 0.3668293058872223 255 127 0
0.11873980611562729 0.30817461013793945 0.37640994787216187 255 127 0
0.12338967621326447 0.30780723690986633 0.38198357820510864 255 127 0
0.115984708070755 0.32063037157058716 0.3872959315776825 255 127 0
0.11796212941408157 0.32383212447166443 0.3796772062778473 255 127 0
0.12751404941082 0.3190075755119324 0.37850674986839294 255 127 0
0.13286030292510986 0.32767078280448914 0.38495898246765137 255 127 0
0.13770537078380585 0.3291107714176178 0.3813691735267639 255 127 0
0.14233054220676422 0.32741549611091614 0.37884607911109924 255 127 0
0.14667078852653503 0.32623445987701416 0.3805559575557709 255 127 0
0.14747098088264465 0.3221782147884369 0.3812524378299713 255 127 0
0.1465228945016861 0.3299197256565094 0.380198210477829 255 127 0
0.15300539135932922 0.3387535512447357 0.3798619508743286 255 127 0
0.15502773225307465 0.33422911167144775 0.3763750195503235 255 127 0
0.16473421454429626 0.32837027311325073 0.37463706731796265 255 127 0
0.17007014155387878 0.32813137769699097 0.37134984135627747 255 127 0
0.1735830008983612 0.32586511969566345 0.36967888474464417 255 127 0
0.17025159299373627 0.32187607884407043 0.3690415620803833 255 127 0
0.16993758082389832 0.3199227452278137 0.3715288043022156 255 127 0
0.16718314588069916 0.3241783380508423 0.3733702003955841 255 127 0
0.1667521446943283 0.3314017355442047 0.3734603524208069 255 127 0
0.17348641157150269 0.33422142267227173 0.37566736340522766 255 127 0
0.17517253756523132 0.3335413932800293 0.37671855092048645 255 127 0
0.1708751618862152 0.33469969034194946 0.378709077835083 255 127 0
0.1680418699979782 0.34057170152664185 0.37798231840133667 255 127 0
0.1618279218673706 0.34106048941612244 0.38071808218955994 255 127 0
0.15247097611427307 0.34105491638183594 0.3841111958026886 255 127 0
0.14318662881851196 0.34514227509498596 0.38211899995803833 255 127 0
0.13652190566062927 0.34452497959136963 0.3846205770969391 255 127 0
0.13290943205356598 0.34398776292800903 0.38416481018066406 255 127 0
0.13483883440494537 0.34378349781036377 0.3851568102836609 255 127 0
0.13331489264965057 0.34297627210617065 0.38725802302360535 255 127 0
0.13209699094295502 0.3466993272304535 0.38786035776138306 255 127 0
0.1322738379240036 0.34985610842704773 0.3875010311603546 255 127 0
0.12498693913221359 0.3495679199695587 0.3887184262275696 255 127 0
0.12425048649311066 0.3493415117263794 0.39284229278564453 255 127 0
0.1227821484208107 0.3430793881416321 0.39282146096229553 255 127 0
0.12008094787597656 0.3435945212841034 0.39003944396972656 255 127 0
0.11976663768291473 0.35491830110549927 0.39595553278923035 255 127 0
0.12495773285627365 0.3575093150138855 0.39530590176582336 255 127 0
0.12824226915836334 0.3463926911354065 0.3974453806877136 255 127 0
0.12476220726966858 0.3390592932701111 0.39860814809799194 255 127 0
0.11677724868059158 0.33323371410369873 0.39663708209991455 255 127 0
0.11250493675470352 0.3413483500480652 0.4006616771221161 255 127 0
0.10312525928020477 0.34380194544792175 0.4006429612636566 255 127 0
0.10534302145242691 0.33895689249038696 0.40069103240966797 255 127 0
0.10180682688951492 0.34305301308631897 0.4057866930961609 255 127 0
0.10040542483329773 0.3393891751766205 0.4035423696041107 255 127 0
0.09649280458688736 0.34265199303627014 0.4016328454017639 255 127 0
0.08652899414300919 0.35810935497283936 0.40622812509536743 255 127 0
0.0816032662987709 0.3644322454929352 0.40879273414611816 255 127 0
0.08219218999147415 0.3688616454601288 0.40778082609176636 255 127 0
0.08974770456552505 0.3570204973220825 0.4060209393501282 255 127 0
0.09447142481803894 0.34469595551490784 0.40900394320487976 255 127 0
0.09667306393384933 0.34096992015838623 0.4099290370941162 255 127 0
0.09690085798501968 0.3432310223579407 0.40967604517936707 255 127 0
0.09634662419557571 0.353486031293869 0.4026426672935486 255 127 0
0.09582052379846573 0.35553038120269775 0.39744994044303894 255 127 0
0.09694550931453705 0.35485824942588806 0.39797934889793396 255 127 0
0.09239276498556137 0.3596091568470001 0.3990337550640106 255 127 0
0.09528008848428726 0.3593958020210266 0.3952586352825165 255 127 0
0.09710106253623962 0.36302369832992554 0.39291849732398987 255 127 0
0.09492716193199158 0.3642852008342743 0.39337486028671265 255 127 0
0.08874467760324478 0.36453956365585327 0.3942199945449829 255 127 0
0.077292300760746 0.35651642084121704 0.3985256552696228 255 127 0
0.0702984407544136 0.35152027010917664 0.4028926193714142 255 127 0
0.06426095217466354 0.35556936264038086 0.4025815427303314 255 127 0
0.060862112790346146 0.3661196231842041 0.40481528639793396 255 127 0
0.06411635875701904 0.37543678283691406 0.3998323082923889 255 127 0
0.06754163652658463 0.3695746064186096 0.4010376036167145 255 127 0
0.06633102893829346 0.3651074171066284 0.4029054343700409 255 127 0
0.06400787830352783 0.3661697208881378 0.3980628550052643 255 127 0
0.05996416136622429 0.377553254365921 0.400510311126709 255 127 0
0.06135430186986923 0.3836391568183899 0.39645418524742126 255 127 0
0.06161787733435631 0.3744974136352539 0.3950074017047882 255 127 0
0.05740657448768616 0.36906686425209045 0.3988799750804901 255 127 0
0.05508020892739296 0.3651463985443115 0.3980773687362671 255 127 0
0.055981531739234924 0.35844865441322327 0.3986435532569885 255 127 0
0.06359952688217163 0.3577638566493988 0.4006029963493347 255 127 0
0.07484731078147888 0.35632988810539246 0.39694908261299133 255 127 0
0.08311669528484344 0.3598935306072235 0.3965790569782257 255 127 0
0.0880461111664772 0.3675798773765564 0.3944462239742279 255 127 0
0.09553428739309311 0.3693331778049469 0.3901359438896179 255 127 0
0.1070813462138176 0.35472437739372253 0.3795245289802551 255 127 0
0.11469019204378128 0.3434167504310608 0.3818652629852295 255 127 0
0.12274884432554245 0.3415817320346832 0.3860667645931244 255 127 0
0.1307365745306015 0.34936967492103577 0.3851577341556549 255 127 0
0.13383698463439941 0.35299330949783325 0.3827146291732788 255 127 0
0.13976402580738068 0.34961584210395813 0.37884506583213806 255 127 0
0.14056773483753204 0.34247511625289917 0.3776998519897461 255 127 0
0.14683087170124054 0.33601102232933044 0.3770517110824585 255 127 0
0.15396110713481903 0.33293020725250244 0.3673836886882782 255 127 0
0.15346722304821014 0.32118743658065796 0.36922311782836914 255 127 0
0.137583389878273 0.32727763056755066 0.3750517964363098 255 127 0
0.12983885407447815 0.34427884221076965 0.3758406937122345 255 127 0
0.1252709925174713 0.3567153513431549 0.37931758165359497 255 127 0
0.12112661451101303 0.359527051448822 0.38252002000808716 255 127 0
0.11708775907754898 0.35745611786842346 0.38280239701271057 255 127 0
0.1144416481256485 0.3442249298095703 0.38891521096229553 255 127 0
0.09921732544898987 0.3440265357494354 0.3892430365085602 255 127 0
0.08651459217071533 0.3441404402256012 0.39807382225990295 255 127 0
0.08637447655200958 0.3500492572784424 0.39544397592544556 255 127 0
0.08640649914741516 0.35974597930908203 0.4009525179862976 255 127 0
0.08974152058362961 0.37041059136390686 0.4033447802066803 255 127 0
0.0973406732082367 0.3855789601802826 0.39974161982536316 255 127 0
0.11052190512418747 0.38463738560676575 0.39146092534065247 255 127 0
0.11011013388633728 0.3832118809223175 0.39005744457244873 255 127 0
0.09545352309942245 0.38337716460227966 0.3927038908004761 255 127 0
0.0929938405752182 0.3747355043888092 0.39724844694137573 255 127 0
0.09359082579612732 0.38072657585144043 0.397287517786026 255 127 0
0.0904245376586914 0.39382001757621765 0.39190933108329773 255 127 0
0.09974919259548187 0.390319287776947 0.3876395523548126 255 127 0
0.11395246535539627 0.3882955014705658 0.37837737798690796 255 127 0
0.10445857048034668 0.38393574953079224 0.38977953791618347 255 127 0
0.10546956211328506 0.3667074143886566 0.39054492115974426 255 127 0
0.09642671793699265 0.36689695715904236 0.39795979857444763 255 127 0
0.09083305299282074 0.365153044462204 0.39057862758636475 255 127 0
0.08417265862226486 0.36649802327156067 0.38823121786117554 255 127 0
0.07489174604415894 0.3630690574645996 0.39200595021247864 255 127 0
0.06681959331035614 0.36514008045196533 0.40057802200317383 255 127 0
0.05826517567038536 0.3793657720088959 0.40091246366500854 255 127 0
0.06274140626192093 0.3779531717300415 0.395046204328537 255 127 0
0.05820976570248604 0.391324520111084 0.39513900876045227 255 127 0
0.05462126061320305 0.3999089002609253 0.3908939063549042 255 127 0
0.049092333763837814 0.3913041055202484 0.39912593364715576 255 127 0
0.04298892244696617 0.36629876494407654 0.4060666263103485 255 127 0
0.03452366217970848 0.3527798056602478 0.4064572751522064 255 127 0
0.03245770186185837 0.3574230670928955 0.4051329791545868 255 127 0
0.019749585539102554 0.36995449662208557 0.40776392817497253 255 127 0
0.02815871126949787 0.3739027976989746 0.4042700529098511 255 127 0
0.037728313356637955 0.367563933134079 0.4086194634437561 255 127 0
0.06025335565209389 0.3585736155509949 0.4099600613117218 255 127 0
0.058775488287210464 0.36820274591445923 0.4078408479690552 255 127 0
0.06315671652555466 0.3623969852924347 0.40755948424339294 255 127 0
0.07392863184213638 0.3599568009376526 0.41295158863067627 255 127 0
0.08732939511537552 0.353191077709198 0.40930449962615967 255 127 0
0.09574433416128159 0.3610142171382904 0.4026135802268982 255 127 0
0.09694202989339828 0.35430076718330383 0.40114825963974 255 127 0
0.10902003198862076 0.3448105454444885 0.3967520296573639 255 127 0
0.1300448477268219 0.33029529452323914 0.3985083997249603 255 127 0
0.16076244413852692 0.31944966316223145 0.39670079946517944 255 127 0
0.17617128789424896 0.3181070387363434 0.3913731873035431 255 127 0
0.1969536393880844 0.3098694086074829 0.37566882371902466 255 127 0
0.1947808414697647 0.30787885189056396 0.3656807839870453 255 127 0
0.193918839097023 0.30138906836509705 0.3589755594730377 255 127 0
0.1961442083120346 0.28854259848594666 0.3703208863735199 255 127 0
0.1953168511390686 0.28769540786743164 0.37709900736808777 255 127 0
0.19094318151474 0.29450029134750366 0.3728629946708679 255 127 0
0.1995641142129898 0.28971898555755615 0.3727733790874481 255 127 0
0.20863714814186096 0.29117512702941895 0.37228259444236755 255 127 0
0.21323023736476898 0.2935449182987213 0.3638435900211334 255 127 0
0.2215152233839035 0.2893426716327667 0.3554533123970032 255 127 0
0.21538549661636353 0.29734933376312256 0.3616770803928375 255 127 0
0.21435724198818207 0.29585912823677063 0.3605721890926361 255 127 0
0.20058199763298035 0.29335930943489075 0.3477218449115753 255 127 0
0.18758836388587952 0.2766176164150238 0.37471893429756165 255 127 0
0.163653165102005 0.2580912411212921 0.4067673087120056 255 127 0
0.14446260035037994 0.2670188546180725 0.40050268173217773 255 127 0
0.14539426565170288 0.29413020610809326 0.39187386631965637 255 127 0
0.15837740898132324 0.3280542492866516 0.3903414309024811 255 127 0
0.17250972986221313 0.34233590960502625 0.3958357870578766 255 127 0
0.17560754716396332 0.345624715089798 0.3858072757720947 255 127 0
0.17497745156288147 0.33620351552963257 0.3797455430030823 255 127 0
0.17929787933826447 0.3391859531402588 0.38557305932044983 255 127 0
0.16397245228290558 0.3312608003616333 0.3828614056110382 255 127 0
0.1697053164243698 0.3079693913459778 0.38727787137031555 255 127 0
0.16427592933177948 0.3181132674217224 0.3953016400337219 255 127 0
0.14917078614234924 0.32153117656707764 0.3905859887599945 255 127 0
0.15053533017635345 0.3376886248588562 0.37776514887809753 255 127 0
0.13524186611175537 0.3507747948169708 0.4040904641151428 255 127 0
0.11584611237049103 0.35705530643463135 0.3911816477775574 255 127 0
0.11037936061620712 0.3441880941390991 0.397602915763855 255 127 0
0.05528700724244118 0.34244632720947266 0.41594794392585754 255 127 0
-0.01174827478826046 0.3398856520652771 0.4218585193157196 255 127 0
-0.06413944065570831 0.3267917037010193 0.40435144305229187 255 127 0
-0.10777150839567184 0.31708723306655884 0.4056389331817627 255 127 0
-0.16326622664928436 0.3219250738620758 0.4056580364704132 255 127 0
-0.2130478322505951 0.3319375813007355 0.35215485095977783 255 127 0
-0.24422696232795715 0.3034162223339081 0.3396662175655365 255 127 0
-0.23964263498783112 0.28463122248649597 0.3457527458667755 255 127 0
-0.20785120129585266 0.3195735514163971 0.42387986183166504 255 127 0
-0.15910868346691132 0.3828183114528656 0.4390626549720764 255 127 0
-0.06914860755205154 0.34943971037864685 0.4191392660140991 255 127 0
0.05119775980710983 0.29467254877090454 0.43642887473106384 255 127 0
0.09952154755592346 0.2896396517753601 0.44725939631462097 255 127 0
0.14555595815181732 0.2811630070209503 0.39856621623039246 255 127 0
0.13854555785655975 0.29847466945648193 0.3995859920978546 255 127 0
0.14868374168872833 0.2759597897529602 0.39893537759780884 255 127 0
0.14215683937072754 0.2494146078824997 0.4129253327846527 255 127 0
0.13377273082733154 0.2491191327571869 0.4300646185874939 255 127 0
0.13179254531860352 0.23155301809310913 0.4340607523918152 255 127 0
0.12478958070278168 0.2454148679971695 0.42663949728012085 255 127 0
0.12409048527479172 0.25254514813423157 0.43771597743034363 255 127 0
0.121026910841465 0.26818475127220154 0.45315271615982056 255 127 0
0.1348273754119873 0.25129470229148865 0.45395520329475403 255 127 0
0.12666429579257965 0.22864589095115662 0.4654821753501892 255 127 0
0.14585436880588531 0.21925607323646545 0.4545324146747589 255 127 0
0.14113493263721466 0.21406503021717072 0.4508737027645111 255 127 0
0.13949503004550934 0.22797498106956482 0.4417527914047241 255 127 0
0.11392578482627869 0.25925323367118835 0.4356015622615814 255 127 0
0.08194585889577866 0.2675197720527649 0.4420222043991089 255 127 0
0.045918043702840805 0.2980538308620453 0.4452210068702698 255 127 0
0.01820218190550804 0.3030162453651428 0.44906315207481384 255 127 0
0.015688469633460045 0.31097856163978577 0.45096907019615173 255 127 0
0.007611492648720741 0.31818002462387085 0.45066460967063904 255 127 0
0.029472652822732925 0.3187122344970703 0.4410243034362793 255 127 0
0.03479602560400963 0.3038303554058075 0.4490826427936554 255 127 0
0.041863176971673965 0.30437126755714417 0.4474993050098419 255 127 0
0.07000398635864258 0.3009214997291565 0.4478115737438202 255 127 0
0.11810597032308578 0.2883557975292206 0.418188214302063 255 127 0
0.1390782594680786 0.29255980253219604 0.42031610012054443 255 127 0
0.17242877185344696 0.2795923352241516 0.40583163499832153 255 127 0
0.19643041491508484 0.280137836933136 0.3949889540672302 255 127 0
0.21094536781311035 0.27692922949790955 0.3861750066280365 255 127 0
0.19789652526378632 0.27777624130249023 0.37863048911094666 255 127 0
0.21279193460941315 0.2680511772632599 0.3668687045574188 255 127 0
0.20467859506607056 0.2747625410556793 0.36359331011772156 255 127 0
0.20801524817943573 0.28186315298080444 0.37609297037124634 255 127 0
0.19718268513679504 0.29565227031707764 0.37102624773979187 255 127 0
0.2022075057029724 0.2942977845668793 0.36866769194602966 255 127 0
0.18622350692749023 0.3006916046142578 0.36834412813186646 255 127 0
0.18645676970481873 0.29597845673561096 0.3605847954750061 255 127 0
0.19747726619243622 0.28966328501701355 0.35994958877563477 255 127 0
0.20031362771987915 0.28661197423934937 0.3490857779979706 255 127 0
0.2052299827337265 0.2773727774620056 0.34540119767189026 255 127 0
0.22226083278656006 0.2723067104816437 0.3325679898262024 255 127 0
0.2270502746105194 0.2743443250656128 0.3367075026035309 255 127 0
0.23243370652198792 0.2679730951786041 0.3321378529071808 255 127 0
0.23458929359912872 0.27568620443344116 0.32538098096847534 255 127 0
0.2268192619085312 0.28362026810646057 0.32276642322540283 255 127 0
0.22710439562797546 0.29357999563217163 0.33123305439949036 255 127 0
0.2280653864145279 0.2947314977645874 0.33854663372039795 255 127 0
0.2232162058353424 0.28631851077079773 0.3484208285808563 255 127 0
0.21725939214229584 0.2891300320625305 0.3476995527744293 255 127 0
0.20275649428367615 0.2961462140083313 0.3420650064945221 255 127 0
0.20211412012577057 0.30194011330604553 0.3351016342639923 255 127 0
0.2087646722793579 0.2949887812137604 0.3332845866680145 255 127 0
0.21850526332855225 0.29246264696121216 0.33484864234924316 255 127 0
0.22256304323673248 0.28032833337783813 0.33579909801483154 255 127 0
0.22589173913002014 0.27970433235168457 0.3507753610610962 255 127 0
0.22333604097366333 0.2835896611213684 0.3334314227104187 255 127 0
0.21545320749282837 0.27974584698677063 0.3344793915748596 255 127 0
0.21194173395633698 0.2834271490573883 0.3450637757778168 255 127 0
0.23072877526283264 0.2760176956653595 0.3319171965122223 255 127 0
0.2246450036764145 0.28268909454345703 0.3357309103012085 255 127 0
0.22753702104091644 0.27264878153800964 0.33970940113067627 255 127 0
0.23933832347393036 0.27141064405441284 0.3422050178050995 255 127 0
0.24425433576107025 0.2699160873889923 0.33189600706100464 255 127 0
0.2349739819765091 0.27591612935066223 0.34561434388160706 255 127 0
0.248550683259964 0.2957422733306885 0.33852308988571167 255 127 0
0.25696131587028503 0.2814908027648926 0.33428022265434265 255 127 0
0.2517889142036438 0.26159536838531494 0.34719744324684143 255 127 0
0.23655879497528076 0.24616380035877228 0.3416528105735779 255 127 0
0.2216237634420395 0.24941888451576233 0.3512817621231079 255 127 0
0.2010408192873001 0.25271111726760864 0.3746883273124695 255 127 0
0.1854264885187149 0.27823635935783386 0.3767069876194 255 127 0
0.17925739288330078 0.3002443015575409 0.36274951696395874 255 127 0
0.18662162125110626 0.2965792715549469 0.3671421706676483 255 127 0
0.19046643376350403 0.3088671565055847 0.35581573843955994 255 127 0
0.2232837826013565 0.28113695979118347 0.3305056095123291 255 127 0
0.2237810641527176 0.2719155550003052 0.3257395625114441 255 127 0
0.1918497085571289 0.2917475998401642 0.34323567152023315 255 127 0
0.17410537600517273 0.3012162446975708 0.3387856185436249 255 127 0
0.11751075088977814 0.32718268036842346 0.3758993148803711 255 127 0
0.07199542969465256 0.35231420397758484 0.37555649876594543 255 127 0
0.03756211698055267 0.37612661719322205 0.3879024386405945 255 127 0
0.03170685097575188 0.3788885474205017 0.3970748484134674 255 127 0
0.04478426277637482 0.3779507279396057 0.4012729227542877 255 127 0
0.05276162177324295 0.3825206756591797 0.39705890417099 255 127 0
0.07686835527420044 0.3758035898208618 0.36983975768089294 255 127 0
0.07624758780002594 0.39780181646347046 0.3478200137615204 255 127 0
0.05430471897125244 0.3867233097553253 0.34707969427108765 255 127 0
0.060072850435972214 0.3917466700077057 0.36620470881462097 255 127 0
0.04447965696454048 0.4366573691368103 0.35964685678482056 255 127 0
0.07730232924222946 0.43564876914024353 0.35127678513526917 255 127 0
0.13516390323638916 0.3820427358150482 0.33065202832221985 255 127 0
0.19385001063346863 0.33435294032096863 0.3003099262714386 255 127 0
0.21716731786727905 0.3149518370628357 0.2646211087703705 255 127 0
0.21980495750904083 0.3044765293598175 0.26419636607170105 255 127 0
0.2673190236091614 0.25740107893943787 0.2443009912967682 255 127 0
0.2600718140602112 0.2905701994895935 0.23104923963546753 255 127 0
0.29355794191360474 0.24541565775871277 0.17901131510734558 255 127 0
0.2979409694671631 0.23027539253234863 0.176616832613945 255 127 0
0.3213692009449005 0.22323545813560486 0.16853687167167664 255 127 0
0.31796133518218994 0.2078678458929062 0.16161033511161804 255 127 0
0.3145088255405426 0.19624854624271393 0.16640131175518036 255 127 0
0.31033092737197876 0.1903001368045807 0.159818634390831 255 127 0
0.3000297546386719 0.21423593163490295 0.17217391729354858 255 127 0
0.3105145990848541 0.20941714942455292 0.17639197409152985 255 127 0
0.29993727803230286 0.2228686809539795 0.1886633038520813 255 127 0
0.2939046025276184 0.21520262956619263 0.20024096965789795 255 127 0
0.2702171504497528 0.23870934545993805 0.2125663012266159 255 127 0
0.26069894433021545 0.25013843178749084 0.2280818074941635 255 127 0
0.2572006583213806 0.275847852230072 0.2572106719017029 255 127 0
0.25902000069618225 0.3065713047981262 0.25623080134391785 255 127 0
0.25309428572654724 0.30326661467552185 0.26476508378982544 255 127 0
0.24874868988990784 0.3045043647289276 0.26717257499694824 255 127 0
0.2565608620643616 0.29151493310928345 0.2636408507823944 255 127 0
0.2646835148334503 0.29302576184272766 0.25741147994995117 255 127 0
0.2610419988632202 0.2800973057746887 0.2630181610584259 255 127 0
0.2377501279115677 0.2882458567619324 0.2640877366065979 255 127 0
0.2468850016593933 0.29653406143188477 0.23119358718395233 255 127 0
0.2978721261024475 0.2681421935558319 0.21788683533668518 255 127 0
0.2989051640033722 0.2417382001876831 0.20712816715240479 255 127 0
0.29651397466659546 0.2255733162164688 0.19469448924064636 255 127 0
0.2963040769100189 0.23869459331035614 0.1795557290315628 255 127 0
0.2882573902606964 0.25422853231430054 0.19840382039546967 255 127 0
0.30536407232284546 0.24247658252716064 0.19250674545764923 255 127 0
0.2897569239139557 0.22336117923259735 0.18264052271842957 255 127 0
0.30849868059158325 0.20782935619354248 0.17501938343048096 255 127 0
0.31465670466423035 0.23060296475887299 0.15287859737873077 255 127 0
0.30678126215934753 0.22671718895435333 0.18389710783958435 255 127 0
0.3047594726085663 0.23067635297775269 0.19361962378025055 255 127 0
0.27707335352897644 0.2554665505886078 0.22458896040916443 255 127 0
0.24804167449474335 0.27532559633255005 0.23941202461719513 255 127 0
0.21270422637462616 0.2886195480823517 0.265707403421402 255 127 0
0.2040337473154068 0.29483669996261597 0.2801610827445984 255 127 0
0.19238580763339996 0.31049469113349915 0.2978276014328003 255 127 0
0.17632879316806793 0.32454952597618103 0.30551406741142273 255 127 0
0.1732477843761444 0.3355620503425598 0.29242590069770813 255 127 0
