ply
format ascii 1.0
element vertex 694
property float x
property float y
property float z
property uchar red
property uchar green
property uchar blue
end_header
0.3970983028411865 0.2004001885652542 -0.0708613246679306 0 0 255
0.44195982813835144 0.12852314114570618 0.00794412661343813 0 0 255
0.41040757298469543 0.19028356671333313 -0.00550500676035881 0 0 255
0.3928036093711853 0.21667762100696564 -0.013066950254142284 0 0 255
0.39917314052581787 0.20583418011665344 0.0019128475105389953 0 0 255
0.39013245701789856 0.3138640522956848 0.03984411060810089 0 0 255
0.4105225205421448 0.32662028074264526 0.0441012904047966 0 0 255
0.3907921612262726 0.35276806354522705 0.04589288681745529 0 0 255
0.356858491897583 0.37163403630256653 0.03267870470881462 0 0 255
0.3662946820259094 0.3599540889263153 0.025447292253375053 0 0 255
0.40244531631469727 0.33287444710731506 0.0010152423055842519 0 0 255
0.3788677453994751 0.3644527792930603 -0.006978325545787811 0 0 255
0.38180357217788696 0.34817495942115784 -0.03296705707907677 0 0 255
0.3842754364013672 0.3133257329463959 -0.026075541973114014 0 0 255
0.36797600984573364 0.3265325129032135 0.002546744653955102 0 0 255
0.3861986994743347 0.31279614567756653 -0.019458439201116562 0 0 255
0.3767366409301758 0.30352434515953064 0.019562814384698868 0 0 255
0.3658617436885834 0.33344152569770813 0.007201537489891052 0 0 255
0.348193496465683 0.3353256285190582 -0.00750930979847908 0 0 255
0.29978373646736145 0.35694196820259094 -0.024282455444335938 0 0 255
0.22080479562282562 0.4057234227657318 0.03561542555689812 0 0 255
0.26130303740501404 0.4743075370788574 0.08557625114917755 0 0 255
0.1877935826778412 0.34494882822036743 0.09350235015153885 0 0 255
-0.028369003906846046 0.2792440950870514 0.11590690910816193 0 0 255
-0.13902872800827026 0.18035203218460083 -0.0411045141518116 0 0 255
-0.18026494979858398 0.03590983524918556 -0.11331956833600998 0 0 255
-0.13820572197437286 -0.0449485145509243 -0.1278592199087143 0 0 255
-0.011184868402779102 -0.2128199189901352 0.015346725471317768 0 0 255
0.06860625743865967 -0.025632858276367188 -0.045611824840307236 0 0 255
0.003337172092869878 0.07439402490854263 -0.08911930024623871 0 0 255
0.024042854085564613 0.000805621559266001 -0.02749144472181797 0 0 255
0.021673103794455528 0.03332989662885666 -0.07118453830480576 0 0 255
-0.019147289916872978 0.03630887344479561 -0.02345619909465313 0 0 255
0.000878234684932977 0.014811578206717968 0.016248084604740143 0 0 255
-0.005091721657663584 0.024090703576803207 0.005710122641175985 0 0 255
-0.016536695882678032 -0.013901986181735992 0.021206246688961983 0 0 255
-0.05302157998085022 0.007286647334694862 0.001847891602665186 0 0 255
-0.06279366463422775 -0.015024815686047077 -0.008728996850550175 0 0 255
-0.05969137325882912 -0.054933831095695496 0.03780440241098404 0 0 255
-0.0730067789554596 -0.04315446689724922 0.04373830556869507 0 0 255
-0.12062124162912369 0.000988977262750268 0.05933811515569687 0 0 255
-0.11005792021751404 0.03195226937532425 0.08869563788175583 0 0 255
-0.13737115263938904 0.02336077019572258 0.12729841470718384 0 0 255
-0.16886350512504578 0.05522659793496132 0.1430661529302597 0 0 255
-0.22759254276752472 0.03964535892009735 0.11217848211526871 0 0 255
-0.23558853566646576 -0.06937727332115173 0.09867294877767563 0 0 255
-0.2819259762763977 -0.037061840295791626 0.08827157318592072 0 0 255
-0.2755628824234009 -0.07939005643129349 0.1377989798784256 0 0 255
-0.23544278740882874 -0.10075929015874863 0.10754046589136124 0 0 255
-0.19238705933094025 -0.11210063844919205 0.08864643424749374 0 0 255
-0.13496644794940948 -0.036075983196496964 0.018182292580604553 0 0 255
-0.11012106388807297 -0.022353727370500565 0.009597710333764553 0 0 255
-0.042203862220048904 0.022874653339385986 -0.04190882295370102 0 0 255
-0.08354417234659195 0.030928928405046463 -0.05359948053956032 0 0 255
-0.01456049270927906 -0.03982129320502281 -0.0414261668920517 0 0 255
-0.03437747806310654 -0.02506505697965622 -0.08869528025388718 0 0 255
-0.06991169601678848 0.031767234206199646 -0.09679790586233139 0 0 255
-0.12293341010808945 -0.0006778020178899169 -0.09825391322374344 0 0 255
-0.12231089174747467 -0.07473845779895782 -0.08095517754554749 0 0 255
-0.12105300277471542 -0.08703375607728958 -0.08720064908266068 0 0 255
-0.10252981632947922 -0.060631219297647476 -0.08391043543815613 0 0 255
-0.09587975591421127 -0.09379542618989944 -0.058387793600559235 0 0 255
-0.07391693443059921 -0.05597657710313797 -0.08453381806612015 0 0 255
-0.09118535369634628 -0.06798076629638672 -0.11713527888059616 0 0 255
-0.16988590359687805 -0.1458529680967331 -0.05855628103017807 0 0 255
-0.2061781883239746 -0.139617457985878 -0.08313615620136261 0 0 255
-0.19710996747016907 -0.09465990215539932 -0.06332949548959732 0 0 255
-0.20684339106082916 -0.031830571591854095 -0.06880779564380646 0 0 255
-0.1324615478515625 0.035906463861465454 -0.11276111006736755 0 0 255
-0.07865738868713379 0.14108805358409882 -0.16838856041431427 0 0 255
0.05737759545445442 0.08988919854164124 -0.1397155523300171 0 0 255
0.07501576840877533 0.017615213990211487 -0.1202496811747551 0 0 255
0.07941045612096786 0.03484871983528137 -0.1522824913263321 0 0 255
0.0850081592798233 0.06159553676843643 -0.191873699426651 0 0 255
0.04659072309732437 -0.014194022864103317 -0.16755403578281403 0 0 255
-0.013944229111075401 -0.06040346994996071 -0.1821688711643219 0 0 255
-0.087801493704319 -0.038379475474357605 -0.18062184751033783 0 0 255
-0.0781727284193039 -0.1489274948835373 -0.15271946787834167 0 0 255
-0.11888852715492249 -0.13429197669029236 -0.15794895589351654 0 0 255
-0.158884197473526 -0.13664105534553528 -0.1319430023431778 0 0 255
-0.150299534201622 -0.21412339806556702 -0.11363442242145538 0 0 255
-0.19109097123146057 -0.1988886147737503 -0.09478133171796799 0 0 255
-0.18781937658786774 -0.15857703983783722 -0.0799887627363205 0 0 255
-0.17572717368602753 -0.14957427978515625 -0.09173349291086197 0 0 255
-0.175511434674263 -0.12442100048065186 -0.0977310836315155 0 0 255
-0.19281356036663055 -0.13706916570663452 -0.0872812569141388 0 0 255
-0.19331958889961243 -0.1457420289516449 -0.07504968345165253 0 0 255
-0.21359339356422424 -0.14463189244270325 -0.07246358692646027 0 0 255
-0.208622545003891 -0.15638890862464905 -0.063008613884449 0 0 255
-0.2140732854604721 -0.1567857265472412 -0.06062878668308258 0 0 255
-0.20007388293743134 -0.14424476027488708 -0.05563998594880104 0 0 255
-0.20047511160373688 -0.15961499512195587 -0.053227122873067856 0 0 255
-0.19076283276081085 -0.17236191034317017 -0.0625150129199028 0 0 255
-0.18946772813796997 -0.15708091855049133 -0.06558017432689667 0 0 255
-0.1879228949546814 -0.1540093868970871 -0.058807339519262314 0 0 255
-0.19281768798828125 -0.14092424511909485 -0.057759229093790054 0 0 255
-0.19259336590766907 -0.15691937506198883 -0.049668021500110626 0 0 255
-0.18184030055999756 -0.14510215818881989 -0.05411707982420921 0 0 255
-0.1811232566833496 -0.15846122801303864 -0.05497361347079277 0 0 255
-0.17475929856300354 -0.14458760619163513 -0.08903251588344574 0 0 255
-0.15553615987300873 -0.17018277943134308 -0.09333047270774841 0 0 255
-0.13915011286735535 -0.16401413083076477 -0.1151147112250328 0 0 255
-0.139276921749115 -0.17596320807933807 -0.10591557621955872 0 0 255
-0.15853852033615112 -0.18685194849967957 -0.11314866691827774 0 0 255
-0.17204681038856506 -0.18258649110794067 -0.12548547983169556 0 0 255
-0.20112244784832 -0.22826798260211945 -0.08850206434726715 0 0 255
-0.2271290123462677 -0.21570894122123718 -0.08653927594423294 0 0 255
-0.24536174535751343 -0.18492449820041656 -0.08644532412290573 0 0 255
-0.22847814857959747 -0.2299976497888565 -0.08138000965118408 0 0 255
-0.24014078080654144 -0.20545189082622528 -0.0641237422823906 0 0 255
-0.276128351688385 -0.23111990094184875 -0.03621919825673103 0 0 255
-0.31160402297973633 -0.23860515654087067 -0.022167302668094635 0 0 255
-0.3174457550048828 -0.25850799679756165 -0.02531549520790577 0 0 255
-0.3678220808506012 -0.24155046045780182 -0.01951473020017147 0 0 255
-0.3844999372959137 -0.2280566692352295 -0.025404253974556923 0 0 255
-0.3806254267692566 -0.21787700057029724 -0.01048337109386921 0 0 255
-0.42207077145576477 -0.18398632109165192 -0.001955773215740919 0 0 255
-0.4256841838359833 -0.1541256606578827 0.031989023089408875 0 0 255
-0.395730584859848 -0.19473837316036224 0.030581481754779816 0 0 255
-0.45097842812538147 -0.16031506657600403 0.055299658328294754 0 0 255
-0.43271341919898987 -0.19472506642341614 0.08246009796857834 0 0 255
-0.48268598318099976 -0.11240771412849426 0.08838873356580734 0 0 255
-0.44656723737716675 -0.08797729760408401 0.09132331609725952 0 0 255
-0.4369003474712372 -0.0738573744893074 0.15049095451831818 0 0 255
-0.5036161541938782 0.10474580526351929 0.21202409267425537 0 0 255
-0.47626468539237976 0.23246224224567413 0.21396692097187042 0 0 255
-0.4316748380661011 0.14284110069274902 0.27461203932762146 0 0 255
-0.42817506194114685 0.09242904931306839 0.24232038855552673 0 0 255
-0.39797937870025635 0.1260586827993393 0.21483895182609558 0 0 255
-0.3367462456226349 0.2022935152053833 0.22767382860183716 0 0 255
-0.24023665487766266 0.32652604579925537 0.23123317956924438 0 0 255
-0.1511632651090622 0.37682604789733887 0.2294846922159195 0 0 255
-0.21009854972362518 0.3735162913799286 0.18999120593070984 0 0 255
-0.24104969203472137 0.21423690021038055 0.17075896263122559 0 0 255
-0.255801796913147 0.06435917317867279 0.11966373026371002 0 0 255
-0.32462236285209656 0.04933919757604599 0.05494658648967743 0 0 255
-0.3125286102294922 0.008895478211343288 0.04692127928137779 0 0 255
-0.3507949411869049 -0.014364408329129219 0.10904407501220703 0 0 255
-0.4207151234149933 -0.0073619503527879715 0.15577642619609833 0 0 255
-0.4234285056591034 0.007859911769628525 0.1798992156982422 0 0 255
-0.46027669310569763 -0.03602589666843414 0.1586739718914032 0 0 255
-0.47133931517601013 -0.06966391205787659 0.14002102613449097 0 0 255
-0.42045173048973083 -0.13863985240459442 0.10275620222091675 0 0 255
-0.3835435211658478 -0.15728533267974854 0.07439765334129333 0 0 255
-0.3081827163696289 -0.12625639140605927 0.019276631996035576 0 0 255
-0.23172825574874878 -0.1286798119544983 0.00863457191735506 0 0 255
-0.2122240960597992 -0.175682932138443 -0.013165854848921299 0 0 255
-0.22741934657096863 -0.22669076919555664 -0.0150544298812747 0 0 255
-0.2280251830816269 -0.21628591418266296 -0.02194773592054844 0 0 255
-0.23802782595157623 -0.16373948752880096 -0.029797153547406197 0 0 255
-0.1947234869003296 -0.18470343947410583 -0.04015113785862923 0 0 255
-0.19986127316951752 -0.16359560191631317 -0.07485403120517731 0 0 255
-0.10923402011394501 -0.19309037923812866 -0.11417410522699356 0 0 255
0.015233505517244339 -0.1903366893529892 -0.12437567859888077 0 0 255
0.05035827308893204 -0.16386833786964417 -0.14059937000274658 0 0 255
0.03527513146400452 -0.1865275502204895 -0.15445809066295624 0 0 255
0.1354612112045288 -0.19927753508090973 -0.17384441196918488 0 0 255
0.19294840097427368 -0.16021431982517242 -0.10560688376426697 0 0 255
0.1807316690683365 -0.11800260841846466 -0.043792299926280975 0 0 255
0.12917044758796692 -0.1296057403087616 -0.014088617637753487 0 0 255
0.0999847948551178 -0.13063932955265045 -0.08532623201608658 0 0 255
-0.058604903519153595 -0.20359393954277039 -0.06007532402873039 0 0 255
-0.06036991998553276 -0.3397298753261566 -0.0465170219540596 0 0 255
-0.08730830997228622 -0.4201107919216156 -0.06923136115074158 0 0 255
-0.07377985119819641 -0.3511979579925537 -0.19235850870609283 0 0 255
-0.007710237987339497 -0.30040669441223145 -0.2386172115802765 0 0 255
0.045810550451278687 -0.34345269203186035 -0.14625675976276398 0 0 255
0.011805224232375622 -0.3363187611103058 -0.11286529898643494 0 0 255
-0.03096267208456993 -0.2771945893764496 -0.0390603244304657 0 0 255
0.005012648180127144 -0.13699735701084137 -0.007922683842480183 0 0 255
0.046864863485097885 -0.03474771976470947 -0.023371240124106407 0 0 255
0.05574887990951538 -0.08661909401416779 0.03553194925189018 0 0 255
-0.015274859964847565 -0.08259827643632889 0.05499391630291939 0 0 255
0.06336450576782227 -0.13958710432052612 0.005875126924365759 0 0 255
-0.010927245952188969 -0.06423681229352951 -0.036843057721853256 0 0 255
0.06523952633142471 -0.1905936449766159 -0.06794331967830658 0 0 255
0.10797256976366043 -0.07091035693883896 -0.20894940197467804 0 0 255
0.2433551698923111 -0.03270454704761505 -0.1996796727180481 0 0 255
0.21050255000591278 0.08440468460321426 -0.14831483364105225 0 0 255
0.22350166738033295 0.06809089332818985 -0.1131882593035698 0 0 255
0.2784486711025238 0.09066621959209442 -0.07827866077423096 0 0 255
0.19329217076301575 0.08200051635503769 0.020242054015398026 0 0 255
0.19582499563694 0.1608116328716278 0.10874440521001816 0 0 255
0.12643826007843018 0.2994445860385895 0.23749200999736786 0 0 255
0.012838957831263542 0.2879332900047302 0.33081379532814026 0 0 255
0.04061974212527275 0.3532465100288391 0.3420253098011017 0 0 255
0.03231753781437874 0.30115753412246704 0.3748275935649872 0 0 255
-0.019426966086030006 0.3159720301628113 0.368976891040802 0 0 255
-0.09819676727056503 0.34839382767677307 0.39540666341781616 0 0 255
-0.08649619668722153 0.1315401792526245 0.4428461194038391 0 0 255
-0.03296133503317833 0.20265045762062073 0.3778497278690338 0 0 255
-0.10017591714859009 0.13081978261470795 0.33503416180610657 0 0 255
-0.2172144502401352 0.09479831904172897 0.3416951596736908 0 0 255
-0.1956697404384613 0.19305920600891113 0.37618955969810486 0 0 255
-0.23312103748321533 0.08332253247499466 0.35095345973968506 0 0 255
-0.36287859082221985 0.07487296313047409 0.3634141683578491 0 0 255
-0.2667286992073059 0.22526130080223083 0.3433651924133301 0 0 255
-0.21897000074386597 0.14101187884807587 0.4104660749435425 0 0 255
-0.2859610617160797 0.2767695188522339 0.34614068269729614 0 0 255
-0.29027289152145386 0.17304828763008118 0.38877004384994507 0 0 255
-0.36383187770843506 0.24583396315574646 0.3691250681877136 0 0 255
-0.31848758459091187 0.06820730119943619 0.39664724469184875 0 0 255
-0.40492120385169983 0.1309759020805359 0.38747256994247437 0 0 255
-0.34001463651657104 0.10753323882818222 0.367386132478714 0 0 255
-0.3914942443370819 0.09326072037220001 0.3173883855342865 0 0 255
-0.40650948882102966 0.08713049441576004 0.2976240813732147 0 0 255
-0.39207467436790466 0.0020804929081350565 0.33026084303855896 0 0 255
-0.4474290907382965 -0.0016646869480609894 0.30896463990211487 0 0 255
-0.3572075366973877 -0.0040509747341275215 0.294974148273468 0 0 255
-0.2894035577774048 0.051670584827661514 0.2634635269641876 0 0 255
-0.23432201147079468 0.10299145430326462 0.2665204703807831 0 0 255
-0.13121604919433594 0.06974490731954575 0.2642880082130432 0 0 255
-0.19214129447937012 0.10949872434139252 0.22400175034999847 0 0 255
-0.36759182810783386 0.11878202855587006 0.19337774813175201 0 0 255
-0.4237770736217499 -0.12701642513275146 0.12488029897212982 0 0 255
-0.4116184115409851 -0.14644400775432587 -0.016801808029413223 0 0 255
-0.34925025701522827 -0.19398033618927002 -0.0076718865893781185 0 0 255
-0.37261056900024414 -0.20645226538181305 0.045279793441295624 0 0 255
-0.36744871735572815 -0.2070150375366211 0.06680533289909363 0 0 255
-0.3927685618400574 -0.18516187369823456 0.09494806081056595 0 0 255
-0.39902612566947937 -0.18122056126594543 0.13720259070396423 0 0 255
-0.4126695692539215 -0.14505600929260254 0.14769138395786285 0 0 255
-0.42999833822250366 -0.06609411537647247 0.18332228064537048 0 0 255
-0.4240015745162964 -0.047920890152454376 0.21581263840198517 0 0 255
-0.4017561674118042 -0.03181881085038185 0.23518341779708862 0 0 255
-0.4277505576610565 -0.029631583020091057 0.23262524604797363 0 0 255
-0.3993684947490692 -0.056503377854824066 0.19358572363853455 0 0 255
-0.4190778434276581 -0.03692042455077171 0.22598299384117126 0 0 255
-0.4371509850025177 -0.025411760434508324 0.2492441087961197 0 0 255
-0.4300399422645569 -0.042137306183576584 0.20913799107074738 0 0 255
-0.38636907935142517 -0.04330730438232422 0.13674576580524445 0 0 255
-0.37127140164375305 -0.059726376086473465 0.09989869594573975 0 0 255
-0.35757139325141907 -0.09382086247205734 0.109530508518219 0 0 255
-0.35846883058547974 -0.0804789811372757 0.09822346270084381 0 0 255
-0.3303792178630829 -0.08483491837978363 0.05912471562623978 0 0 255
-0.29944074153900146 -0.11593328416347504 0.07125557959079742 0 0 255
-0.2613784074783325 -0.08305852860212326 0.025891821831464767 0 0 255
-0.21266521513462067 -0.11169775575399399 0.019850412383675575 0 0 255
-0.1926063597202301 -0.08442123979330063 0.02506588026881218 0 0 255
-0.18353453278541565 -0.07967681437730789 0.03979536518454552 0 0 255
-0.19522416591644287 -0.07717659324407578 0.0246428195387125 0 0 255
-0.21660929918289185 -0.050052132457494736 0.05626701936125755 0 0 255
-0.2248716801404953 -0.06569058448076248 0.08010949939489365 0 0 255
-0.2408464103937149 -0.08827126771211624 0.07932635396718979 0 0 255
-0.2498004287481308 -0.02371237240731716 0.12049038708209991 0 0 255
-0.20715834200382233 -0.045104678720235825 0.16900989413261414 0 0 255
-0.19557851552963257 0.010889865458011627 0.15625843405723572 0 0 255
-0.21403715014457703 -0.027229350060224533 0.16597208380699158 0 0 255
-0.2748697102069855 -0.08359796553850174 0.13613590598106384 0 0 255
-0.23613497614860535 -0.050632722675800323 0.05792738497257233 0 0 255
-0.2018926441669464 -0.10471486300230026 0.0443526990711689 0 0 255
-0.22820299863815308 -0.21518725156784058 0.0801522433757782 0 0 255
-0.30283254384994507 -0.14936012029647827 0.04309197887778282 0 0 255
-0.30396121740341187 -0.12518984079360962 0.05119706317782402 0 0 255
-0.32122763991355896 -0.15059347450733185 0.07658062875270844 0 0 255
-0.33070096373558044 -0.17966009676456451 0.09464871883392334 0 0 255
-0.29997026920318604 -0.13184238970279694 0.0674266517162323 0 0 255
-0.2666650414466858 -0.1619633436203003 0.09550875425338745 0 0 255
-0.2875554859638214 -0.17551042139530182 0.10552078485488892 0 0 255
-0.3173079192638397 -0.12861378490924835 0.08721104264259338 0 0 255
-0.29358842968940735 -0.09838341176509857 0.038563020527362823 0 0 255
-0.2010359913110733 -0.05587951838970184 -0.02373523823916912 0 0 255
-0.1342136561870575 -0.08598588407039642 -0.037512507289648056 0 0 255
-0.09345302730798721 -0.09839406609535217 -0.05091661214828491 0 0 255
-0.018911946564912796 -0.08395285159349442 -0.111991748213768 0 0 255
-0.0008967263856902719 -0.13333994150161743 -0.12297811359167099 0 0 255
0.03312112018465996 -0.15561804175376892 -0.1117776483297348 0 0 255
0.04843178763985634 -0.15610527992248535 -0.10658945143222809 0 0 255
0.03885051980614662 -0.04905051738023758 -0.1280500888824463 0 0 255
0.0361657552421093 -0.035694267600774765 -0.07287361472845078 0 0 255
0.05767257884144783 0.047736771404743195 -0.03749476373195648 0 0 255
0.025029007345438004 0.13301922380924225 0.020564068108797073 0 0 255
0.05204780772328377 0.06396065652370453 0.08718365430831909 0 0 255
-0.03049183450639248 0.057690154761075974 0.11223508417606354 0 0 255
-0.12387262284755707 0.014250174164772034 0.0825488418340683 0 0 255
-0.16947723925113678 0.033988818526268005 0.08515952527523041 0 0 255
-0.18408159911632538 0.006041271146386862 0.10460968315601349 0 0 255
-0.1948581039905548 -0.00020732010307256132 0.11911338567733765 0 0 255
-0.19336125254631042 0.004291672259569168 0.11040788888931274 0 0 255
-0.2036210000514984 -0.005711404141038656 0.12104013562202454 0 0 255
-0.21226811408996582 -0.0032867121044546366 0.09666461497545242 0 0 255
-0.20939885079860687 0.004863167647272348 0.0652049332857132 0 0 255
-0.18418368697166443 -0.016524624079465866 0.06710341572761536 0 0 255
-0.1871725171804428 -0.012314720079302788 0.06482279300689697 0 0 255
-0.20453450083732605 -0.02094024233520031 0.0724254697561264 0 0 255
-0.22429071366786957 -0.03611234575510025 0.07386015355587006 0 0 255
-0.2343216985464096 -0.029319006949663162 0.05201047286391258 0 0 255
-0.2247648537158966 -0.060995299369096756 0.05691869556903839 0 0 255
-0.24638938903808594 -0.05406535789370537 0.05795338377356529 0 0 255
-0.2537146210670471 -0.05293990299105644 0.048918217420578 0 0 255
-0.2384270876646042 -0.06666646152734756 0.05380301922559738 0 0 255
-0.2604323923587799 -0.03202592581510544 0.13471734523773193 0 0 255
-0.1911657601594925 0.001404611044563353 0.13208355009555817 0 0 255
-0.14203834533691406 0.0812123566865921 0.041240788996219635 0 0 255
-0.07059131562709808 0.022194694727659225 0.027244701981544495 0 0 255
-0.11627887189388275 0.055098388344049454 0.061457693576812744 0 0 255
-0.15419822931289673 0.06698188930749893 0.004227033816277981 0 0 255
-0.17418648302555084 -0.04129146412014961 0.05324384197592735 0 0 255
-0.3246360719203949 -0.10798271745443344 0.1338924765586853 0 0 255
-0.38407474756240845 -0.06907716393470764 0.21780778467655182 0 0 255
-0.46886032819747925 -0.13617244362831116 0.1991741806268692 0 0 255
-0.4724428057670593 -0.06401676684617996 0.1806711107492447 0 0 255
-0.40353676676750183 -0.02141217701137066 0.04739587754011154 0 0 255
-0.2857702374458313 -0.05144662782549858 -0.028478972613811493 0 0 255
-0.19324752688407898 -0.10488811880350113 -0.048626359552145004 0 0 255
-0.17622096836566925 -0.11227556318044662 -0.09779302030801773 0 0 255
-0.1589447557926178 -0.1807926446199417 -0.10233394801616669 0 0 255
-0.1994103640317917 -0.17703337967395782 -0.09377328306436539 0 0 255
-0.23637479543685913 -0.134159654378891 -0.06289663910865784 0 0 255
-0.28076615929603577 -0.12749634683132172 -0.04520638287067413 0 0 255
-0.338716596364975 -0.18835951387882233 -0.0049820151180028915 0 0 255
-0.3413560092449188 -0.15143412351608276 0.009597525000572205 0 0 255
-0.32502055168151855 -0.123072549700737 -0.02167072333395481 0 0 255
-0.29567620158195496 -0.13845734298229218 -0.022005895152688026 0 0 255
-0.2776130437850952 -0.10565545409917831 -0.004692080896347761 0 0 255
-0.2790170907974243 -0.09862901270389557 -0.03336276486515999 0 0 255
-0.28916940093040466 -0.08902177214622498 -0.015341158024966717 0 0 255
-0.30946651101112366 -0.08881084620952606 -0.0012769256718456745 0 0 255
-0.319461464881897 -0.07305847108364105 -0.005858803633600473 0 0 255
-0.30342260003089905 -0.11855340003967285 0.0022545093670487404 0 0 255
-0.3225543797016144 -0.12100206315517426 0.023854607716202736 0 0 255
-0.35669657588005066 -0.0985221192240715 0.027826881036162376 0 0 255
-0.33657100796699524 -0.11809148639440536 0.03120771050453186 0 0 255
-0.3321394622325897 -0.11435539275407791 0.01867443136870861 0 0 255
-0.3205695152282715 -0.12277189642190933 0.022099614143371582 0 0 255
-0.31643301248550415 -0.12838630378246307 0.02796226181089878 0 0 255
-0.30196845531463623 -0.1279502958059311 -0.0007764293695800006 0 0 255
-0.28896722197532654 -0.10954872518777847 -0.0030661041382700205 0 0 255
-0.31242188811302185 -0.12466046214103699 0.020986227318644524 0 0 255
-0.3662647008895874 -0.03125220537185669 0.008653654716908932 0 0 255
-0.3573808968067169 -0.07635283470153809 0.060009803622961044 0 0 255
-0.3406561017036438 -0.05230371281504631 0.07924941927194595 0 0 255
-0.3517560064792633 -0.01982179284095764 0.14784760773181915 0 0 255
-0.3537465035915375 -0.013632251881062984 0.17108730971813202 0 0 255
-0.3193569779396057 0.07079780846834183 0.14998024702072144 0 0 255
-0.3931523859500885 0.03934677690267563 0.1607733815908432 0 0 255
-0.46174129843711853 0.06980321556329727 0.14073708653450012 0 0 255
-0.3964787423610687 0.1620204597711563 0.11505603045225143 0 0 255
-0.319647878408432 0.10327345132827759 0.14441770315170288 0 0 255
-0.2955789864063263 0.17846664786338806 0.08724367618560791 0 0 255
-0.19710057973861694 0.1447523683309555 0.031607042998075485 0 0 255
-0.19015942513942719 0.0010607042349874973 0.0009404370211996138 0 0 255
-0.26554369926452637 0.04034266993403435 -0.019246535375714302 0 0 255
-0.264242947101593 -0.012382356449961662 0.011952176690101624 0 0 255
-0.18595847487449646 -0.11556310951709747 -0.02561752125620842 0 0 255
-0.145980566740036 -0.11560560762882233 -0.051298752427101135 0 0 255
-0.19326215982437134 -0.048625245690345764 -0.040171876549720764 0 0 255
-0.23323674499988556 -0.04467993229627609 0.0061970120295882225 0 0 255
-0.2697299122810364 -0.10194805264472961 0.037037115544080734 0 0 255
-0.3993203341960907 -0.11217565089464188 0.0923304334282875 0 0 255
-0.4997204840183258 -0.12080086022615433 0.1618483066558838 0 0 255
-0.5093308687210083 -0.1956910938024521 0.18617689609527588 0 0 255
-0.5221869945526123 -0.15571628510951996 0.14216074347496033 0 0 255
-0.5067826509475708 -0.16903425753116608 0.10976535081863403 0 0 255
-0.5075689554214478 -0.16479358077049255 0.11489295214414597 0 0 255
-0.5098077058792114 -0.17216049134731293 0.12840919196605682 0 0 255
-0.4803829789161682 -0.2081676423549652 0.13635574281215668 0 0 255
-0.4640254080295563 -0.21599723398685455 0.16643372178077698 0 0 255
-0.4718398153781891 -0.2078648954629898 0.16247788071632385 0 0 255
-0.4725865125656128 -0.22350886464118958 0.17653506994247437 0 0 255
-0.49401339888572693 -0.1597733348608017 0.12281045317649841 0 0 255
-0.47171393036842346 -0.15499471127986908 0.12329297512769699 0 0 255
-0.4456164538860321 -0.09671051800251007 0.1251697540283203 0 0 255
-0.38026162981987 -0.07643558084964752 0.09653644263744354 0 0 255
-0.3502538204193115 -0.0833866223692894 0.0986185371875763 0 0 255
-0.3600614368915558 -0.055757585912942886 0.09186428040266037 0 0 255
-0.3411466181278229 -0.14504341781139374 0.15026801824569702 0 0 255
-0.4364587068557739 -0.022416047751903534 0.277803897857666 0 0 255
-0.0518372617661953 0.3505397439002991 0.3448818624019623 0 0 255
-0.2906738221645355 0.26722604036331177 0.13314872980117798 0 0 255
-0.1450405716896057 0.20287306606769562 0.18846395611763 0 0 255
-0.09646952897310257 0.1527383178472519 0.14110614359378815 0 0 255
-0.0874134749174118 0.14154288172721863 0.1434485763311386 0 0 255
-0.06131212040781975 0.13871194422245026 0.137985959649086 0 0 255
-0.033623576164245605 0.1515887826681137 0.13212844729423523 0 0 255
0.013848982751369476 0.1222003772854805 0.1147301197052002 0 0 255
0.044305503368377686 0.13229085505008698 0.10495435446500778 0 0 255
0.08048462867736816 0.14004510641098022 0.0835343673825264 0 0 255
0.09698808193206787 0.14059434831142426 0.08096626400947571 0 0 255
0.09564006328582764 0.13533900678157806 0.09857665747404099 0 0 255
0.1035185381770134 0.14665919542312622 0.09190067648887634 0 0 255
0.09719456732273102 0.13325154781341553 0.09388040006160736 0 0 255
0.09197254478931427 0.11654824018478394 0.0868387520313263 0 0 255
0.10469663888216019 0.13954679667949677 0.05685035511851311 0 0 255
0.1445903778076172 0.10935991257429123 0.07445377856492996 0 0 255
0.15212155878543854 0.13201606273651123 0.10727344453334808 0 0 255
0.13874214887619019 0.16875459253787994 0.1191633939743042 0 0 255
0.18106049299240112 0.19239363074302673 0.11198577284812927 0 0 255
0.1633402556180954 0.1945834755897522 0.12858328223228455 0 0 255
0.19082437455654144 0.1887136548757553 0.08809268474578857 0 0 255
0.1879492849111557 0.22219693660736084 0.1220746785402298 0 0 255
0.1455368548631668 0.2196994572877884 0.1477249413728714 0 0 255
0.1526009440422058 0.25881123542785645 0.1542508900165558 0 0 255
0.13641023635864258 0.24073493480682373 0.14312317967414856 0 0 255
0.15922175347805023 0.1812855452299118 0.14515985548496246 0 0 255
0.12076074630022049 0.21832267940044403 0.14789341390132904 0 0 255
0.055447425693273544 0.1878814399242401 0.1567283719778061 0 0 255
-0.06464153528213501 0.08176794648170471 0.16346009075641632 0 0 255
-0.20359665155410767 0.08458264917135239 0.07456762343645096 0 0 255
-0.3691039979457855 0.033812422305345535 0.07739448547363281 0 0 255
-0.3662298619747162 -0.12210927158594131 0.13450925052165985 0 0 255
-0.3356764018535614 -0.05561034008860588 0.09660635143518448 0 0 255
-0.27552247047424316 0.003664266085252166 0.0705166757106781 0 0 255
-0.2823304235935211 -0.005708550568670034 0.07216032594442368 0 0 255
-0.2727406322956085 -0.035248007625341415 0.08931805938482285 0 0 255
-0.25907808542251587 0.005492358934134245 0.12227725237607956 0 0 255
-0.1636897176504135 -0.046148426830768585 0.13738179206848145 0 0 255
-0.15317703783512115 0.059750474989414215 0.1897357553243637 0 0 255
-0.11307118833065033 0.09927845001220703 0.20696412026882172 0 0 255
-0.09419012814760208 0.0918317660689354 0.2025163620710373 0 0 255
-0.1649399846792221 0.12041769176721573 0.1923292726278305 0 0 255
-0.19623355567455292 0.04515039175748825 0.18682776391506195 0 0 255
-0.25688809156417847 0.14973345398902893 0.14956416189670563 0 0 255
-0.19559475779533386 -0.08402940630912781 0.11412304639816284 0 0 255
-0.20718403160572052 0.01137273944914341 0.04653824493288994 0 0 255
-0.21865829825401306 -0.11370899528265 0.012817668728530407 0 0 255
-0.3065755069255829 -0.01501272339373827 0.017864983528852463 0 0 255
-0.3512882888317108 -0.13904570043087006 0.07663949579000473 0 0 255
-0.3619007170200348 -0.12732082605361938 0.06949175894260406 0 0 255
-0.3695680797100067 -0.13413763046264648 0.013640638440847397 0 0 255
-0.40296655893325806 -0.20866243541240692 0.04787072166800499 0 0 255
-0.35714808106422424 -0.18341243267059326 0.05477648600935936 0 0 255
-0.43754303455352783 -0.15760593116283417 0.08138515800237656 0 0 255
-0.46769651770591736 -0.1549077033996582 0.11791033297777176 0 0 255
-0.5205062627792358 -0.17262981832027435 0.11214735358953476 0 0 255
-0.5109045505523682 -0.12389887124300003 0.11729931086301804 0 0 255
-0.5207009315490723 -0.1179007813334465 0.1281491369009018 0 0 255
-0.5023747086524963 -0.13996893167495728 0.11727838963270187 0 0 255
-0.4924355745315552 -0.09308674186468124 0.12927576899528503 0 0 255
-0.4763861298561096 -0.007355830166488886 0.17500951886177063 0 0 255
-0.4349346160888672 0.02517520636320114 0.26875361800193787 0 0 255
-0.28159892559051514 0.2130528837442398 0.30693167448043823 0 0 255
-0.19137081503868103 0.32456812262535095 0.26952189207077026 0 0 255
-0.08382485061883926 0.38430407643318176 0.25515487790107727 0 0 255
-0.03829348459839821 0.29787516593933105 0.3084225356578827 0 0 255
0.007546011824160814 0.4053686261177063 0.3277595043182373 0 0 255
0.07255597412586212 0.5069523453712463 0.2747897207736969 0 0 255
0.032037146389484406 0.586190938949585 0.1574338972568512 0 0 255
0.15028969943523407 0.4789695739746094 0.186672642827034 0 0 255
0.2067377120256424 0.45401614904403687 0.1536039263010025 0 0 255
0.2606000304222107 0.41198304295539856 0.163279727101326 0 0 255
0.2953786253929138 0.38123589754104614 0.1637653410434723 0 0 255
0.268350750207901 0.3677872121334076 0.13904693722724915 0 0 255
0.317393958568573 0.3589329123497009 0.15207190811634064 0 0 255
0.30693772435188293 0.362504780292511 0.12895533442497253 0 0 255
0.3031415641307831 0.32304683327674866 0.14826712012290955 0 0 255
0.29607269167900085 0.3346784710884094 0.14552994072437286 0 0 255
0.30971693992614746 0.34167277812957764 0.14615648984909058 0 0 255
0.28570979833602905 0.3179929554462433 0.16963738203048706 0 0 255
0.2668379247188568 0.33775565028190613 0.1810644268989563 0 0 255
0.2602105736732483 0.3433804214000702 0.20141613483428955 0 0 255
0.23643392324447632 0.3602534532546997 0.21427391469478607 0 0 255
0.2138357162475586 0.36844706535339355 0.2435266226530075 0 0 255
0.19633829593658447 0.3753056824207306 0.27505841851234436 0 0 255
0.2038881629705429 0.36157798767089844 0.27028965950012207 0 0 255
0.20906713604927063 0.3693983256816864 0.2600274085998535 0 0 255
0.20424646139144897 0.3833116888999939 0.26125630736351013 0 0 255
0.1761523336172104 0.42345479130744934 0.29203954339027405 0 0 255
0.1554839164018631 0.4344973862171173 0.3250656723976135 0 0 255
0.0645981952548027 0.45786088705062866 0.3747918903827667 0 0 255
-0.005309509579092264 0.4224970042705536 0.441812127828598 0 0 255
-0.1810304969549179 0.4532654583454132 0.4142937660217285 0 0 255
-0.16051673889160156 0.41128966212272644 0.49426963925361633 0 0 255
-0.21618591248989105 0.39168182015419006 0.534252941608429 0 0 255
-0.05702144652605057 0.4781971275806427 0.46621572971343994 0 0 255
0.10932931303977966 0.4176217019557953 0.4547289311885834 0 0 255
0.050920698791742325 0.367815226316452 0.3461737036705017 0 0 255
0.12038037925958633 0.39934974908828735 0.3450555205345154 0 0 255
0.20234878361225128 0.36534786224365234 0.2766188383102417 0 0 255
0.3048250675201416 0.371018648147583 0.2969876825809479 0 0 255
0.2690768539905548 0.2682822346687317 0.33088865876197815 0 0 255
0.21209517121315002 0.3387336730957031 0.3896463215351105 0 0 255
0.19363521039485931 0.31118401885032654 0.3851524889469147 0 0 255
0.2298501431941986 0.43792790174484253 0.3266740143299103 0 0 255
0.2657419443130493 0.374350368976593 0.3607894480228424 0 0 255
0.22217592597007751 0.426567018032074 0.3147397041320801 0 0 255
0.2072126865386963 0.40520066022872925 0.39443111419677734 0 0 255
0.21389372646808624 0.4759299159049988 0.40062397718429565 0 0 255
0.1813608556985855 0.40279337763786316 0.46765220165252686 0 0 255
0.07344686985015869 0.4566631615161896 0.44512927532196045 0 0 255
0.15680380165576935 0.4796503186225891 0.4711584448814392 0 0 255
0.05480712652206421 0.345904141664505 0.5745825171470642 0 0 255
-0.0552547313272953 0.3242105543613434 0.4931935667991638 0 0 255
-0.07253991812467575 0.32345300912857056 0.49192872643470764 0 0 255
-0.14862845838069916 0.25268077850341797 0.5188640356063843 0 0 255
-0.21787361800670624 0.21640673279762268 0.49199944734573364 0 0 255
-0.29516518115997314 0.26429954171180725 0.5179224610328674 0 0 255
-0.23831801116466522 0.3060620427131653 0.5110701322555542 0 0 255
-0.1904153972864151 0.3314267098903656 0.4953376352787018 0 0 255
-0.183223694562912 0.31036049127578735 0.4721304178237915 0 0 255
-0.22804729640483856 0.30444905161857605 0.46857938170433044 0 0 255
-0.22470860183238983 0.33438175916671753 0.4654691219329834 0 0 255
-0.21790088713169098 0.35649579763412476 0.48403534293174744 0 0 255
-0.26565566658973694 0.3870270550251007 0.49552711844444275 0 0 255
-0.36577272415161133 0.30485257506370544 0.45026370882987976 0 0 255
-0.44676920771598816 0.30827564001083374 0.359110563993454 0 0 255
-0.4313681423664093 0.2584075629711151 0.35443592071533203 0 0 255
-0.4694770276546478 0.16407769918441772 0.31749245524406433 0 0 255
-0.5250706672668457 0.20712247490882874 0.3198041021823883 0 0 255
-0.5261839628219604 0.24723297357559204 0.3644903600215912 0 0 255
-0.49503442645072937 0.23007537424564362 0.383232980966568 0 0 255
-0.4866911470890045 0.21351462602615356 0.4028279781341553 0 0 255
-0.49076756834983826 0.2570657432079315 0.4122512936592102 0 0 255
-0.44350773096084595 0.28301602602005005 0.4620114266872406 0 0 255
-0.3751973807811737 0.3365100026130676 0.5014728307723999 0 0 255
-0.3130769729614258 0.36683401465415955 0.5163989067077637 0 0 255
-0.22209183871746063 0.3664311468601227 0.517052173614502 0 0 255
-0.23390933871269226 0.363278329372406 0.49867889285087585 0 0 255
-0.2950269877910614 0.3528868854045868 0.47563642263412476 0 0 255
-0.34605085849761963 0.26417532563209534 0.5093254446983337 0 0 255
-0.3654945492744446 0.24332861602306366 0.3693697154521942 0 0 255
-0.2645426392555237 0.10540280491113663 0.2759016752243042 0 0 255
-0.15316511690616608 0.0682080090045929 0.35572925209999084 0 0 255
-0.1268540471792221 0.0668446347117424 0.34476789832115173 0 0 255
-0.1750827580690384 0.1356881707906723 0.28354841470718384 0 0 255
-0.16665197908878326 0.1289340853691101 0.3410324156284332 0 0 255
-0.21234267950057983 0.016385158523917198 0.22720186412334442 0 0 255
-0.26736941933631897 0.0027548433281481266 0.18813899159431458 0 0 255
-0.3350653648376465 0.0008788473787717521 0.2330712378025055 0 0 255
-0.32757705450057983 -0.009953968226909637 0.25981414318084717 0 0 255
-0.34357693791389465 0.012119441293179989 0.3265947699546814 0 0 255
-0.3350297212600708 0.13697510957717896 0.3873418867588043 0 0 255
-0.33949899673461914 0.13784320652484894 0.42186444997787476 0 0 255
-0.3140256702899933 0.16751456260681152 0.3909376859664917 0 0 255
-0.3688881993293762 0.12136862426996231 0.3573598861694336 0 0 255
-0.41434401273727417 0.08863332122564316 0.3592715561389923 0 0 255
-0.4258982241153717 0.08816599100828171 0.3774952292442322 0 0 255
-0.42132875323295593 0.07769200950860977 0.3731507956981659 0 0 255
-0.4474043846130371 0.07571003586053848 0.35241878032684326 0 0 255
-0.45993298292160034 0.07343979179859161 0.34712398052215576 0 0 255
-0.47562727332115173 0.10959500074386597 0.3426886796951294 0 0 255
-0.483822762966156 0.05116017162799835 0.33403700590133667 0 0 255
-0.4604334533214569 -0.1544158160686493 0.3970077633857727 0 0 255
-0.4630137085914612 -0.1498945653438568 0.1911621242761612 0 0 255
-0.46613529324531555 -0.1986096054315567 0.14879265427589417 0 0 255
-0.4846110939979553 -0.19265909492969513 0.12667734920978546 0 0 255
-0.47541117668151855 -0.18045154213905334 0.1324266493320465 0 0 255
-0.47435030341148376 -0.18436390161514282 0.14213332533836365 0 0 255
-0.4884585440158844 -0.1586262732744217 0.14813002943992615 0 0 255
-0.4848664700984955 -0.15591135621070862 0.1763826161623001 0 0 255
-0.4868343472480774 -0.16812995076179504 0.17531917989253998 0 0 255
-0.4627940058708191 -0.15468792617321014 0.16277295351028442 0 0 255
-0.4629146158695221 -0.1728152185678482 0.144773468375206 0 0 255
-0.47592875361442566 -0.17393498122692108 0.11609530448913574 0 0 255
-0.4419209063053131 -0.16498394310474396 0.08079119026660919 0 0 255
-0.41863396763801575 -0.17715728282928467 0.0798686221241951 0 0 255
-0.4057059586048126 -0.1652134656906128 0.08884281665086746 0 0 255
-0.3857875168323517 -0.16458621621131897 0.07355808466672897 0 0 255
-0.36458975076675415 -0.1981464922428131 0.07001518458127975 0 0 255
-0.3856823146343231 -0.16192524135112762 0.0914607122540474 0 0 255
-0.39810091257095337 -0.09642831981182098 0.10217830538749695 0 0 255
-0.3694978952407837 -0.06445999443531036 0.08239616453647614 0 0 255
-0.3235730230808258 -0.07747641205787659 0.08181945979595184 0 0 255
-0.26446473598480225 -0.0741700530052185 0.051150232553482056 0 0 255
-0.24256081879138947 -0.07084553688764572 0.03277309238910675 0 0 255
-0.2832901179790497 -0.07383231818675995 0.056431844830513 0 0 255
-0.2899228632450104 -0.09544917196035385 0.07109624147415161 0 0 255
-0.3124786913394928 -0.13752710819244385 0.05369191616773605 0 0 255
-0.3741472661495209 -0.1418941766023636 0.08605336397886276 0 0 255
-0.4161698818206787 -0.09731810539960861 0.09677411615848541 0 0 255
-0.4200688302516937 -0.09682048112154007 0.09008634835481644 0 0 255
-0.4004042446613312 -0.11659185588359833 0.10905251652002335 0 0 255
-0.3832809031009674 -0.10722843557596207 0.1101907342672348 0 0 255
-0.3905427157878876 -0.11903771758079529 0.1190744936466217 0 0 255
-0.42187610268592834 -0.10090743750333786 0.13517117500305176 0 0 255
-0.4365762174129486 -0.04243042692542076 0.14846952259540558 0 0 255
-0.4267980754375458 -0.026583867147564888 0.16493821144104004 0 0 255
-0.37712159752845764 -0.008333351463079453 0.11916377395391464 0 0 255
-0.31796586513519287 0.023295123130083084 0.03451788052916527 0 0 255
-0.24263539910316467 -0.03690472990274429 -0.015157179906964302 0 0 255
-0.19181275367736816 -0.08905266970396042 -0.03702552616596222 0 0 255
-0.1331993192434311 -0.1150733157992363 -0.04693518206477165 0 0 255
-0.19069968163967133 -0.14069783687591553 -0.047504473477602005 0 0 255
-0.2417520135641098 -0.1505873203277588 -0.010008752346038818 0 0 255
-0.2826228737831116 -0.13158392906188965 -0.013560829684138298 0 0 255
-0.2863442301750183 -0.15023910999298096 -0.025124119594693184 0 0 255
-0.2611539661884308 -0.1749916970729828 -0.04870821163058281 0 0 255
-0.2979778051376343 -0.20745620131492615 -0.048512209206819534 0 0 255
-0.26416292786598206 -0.20685330033302307 -0.06332437694072723 0 0 255
-0.28967949748039246 -0.2653592824935913 -0.07541132718324661 0 0 255
-0.3142212927341461 -0.21216519176959991 -0.09094757586717606 0 0 255
-0.3621601164340973 -0.30440494418144226 -0.06704901903867722 0 0 255
-0.403904527425766 -0.32813066244125366 -0.03541993722319603 0 0 255
-0.3813054859638214 -0.36470460891723633 -0.054780181497335434 0 0 255
-0.40281298756599426 -0.2884598970413208 -0.039876412600278854 0 0 255
-0.3947828710079193 -0.21730662882328033 -0.03533055633306503 0 0 255
-0.3134850263595581 -0.16284222900867462 0.02527286671102047 0 0 255
-0.344929575920105 -0.14066697657108307 0.07624024897813797 0 0 255
-0.3129924237728119 -0.15247242152690887 0.08209468424320221 0 0 255
-0.36087697744369507 -0.1264035701751709 0.02508922480046749 0 0 255
-0.2951034903526306 -0.19726362824440002 -0.0009351822081953287 0 0 255
-0.2934925854206085 -0.3008224666118622 0.0019248186144977808 0 0 255
-0.23744267225265503 -0.2340984344482422 0.03442501649260521 0 0 255
-0.2152184695005417 -0.27715885639190674 0.08635994791984558 0 0 255
-0.2761743664741516 -0.27257347106933594 0.05324751138687134 0 0 255
-0.2939194142818451 -0.31578099727630615 0.016420379281044006 0 0 255
-0.3500175476074219 -0.29706698656082153 0.053975291550159454 0 0 255
-0.3732261061668396 -0.24187907576560974 0.07583799958229065 0 0 255
-0.37059444189071655 -0.2258327454328537 0.10928372293710709 0 0 255
-0.40231430530548096 -0.16097937524318695 0.12779134511947632 0 0 255
-0.4022290110588074 -0.1840062141418457 0.16147133708000183 0 0 255
-0.40302857756614685 -0.1973462998867035 0.1214120015501976 0 0 255
-0.3397638201713562 -0.18032830953598022 0.04117440804839134 0 0 255
-0.3063274919986725 -0.1533433496952057 0.015530110336840153 0 0 255
-0.2510238587856293 -0.21107448637485504 0.029394159093499184 0 0 255
-0.22955377399921417 -0.16313324868679047 0.02569936029613018 0 0 255
-0.2076791375875473 -0.15851126611232758 0.07820050418376923 0 0 255
-0.22381481528282166 -0.09601162374019623 0.12200109660625458 0 0 255
-0.24220308661460876 -0.0373685322701931 0.18228892982006073 0 0 255
-0.2847142815589905 0.014942619018256664 0.22762639820575714 0 0 255
-0.32359904050827026 0.05177369341254234 0.2518044710159302 0 0 255
-0.3320091962814331 0.041843827813863754 0.2514977753162384 0 0 255
-0.36676377058029175 0.018564915284514427 0.26592138409614563 0 0 255
-0.37897351384162903 0.0053701926954090595 0.2643323242664337 0 0 255
-0.39301085472106934 -0.009873815812170506 0.2545456886291504 0 0 255
-0.3954956531524658 -0.02119903452694416 0.2595949172973633 0 0 255
-0.39832910895347595 -0.005722097121179104 0.26973628997802734 0 0 255
-0.38584330677986145 0.023217199370265007 0.27721309661865234 0 0 255
-0.3649081587791443 0.03764740377664566 0.2804512679576874 0 0 255
-0.35293662548065186 0.05556842312216759 0.27629128098487854 0 0 255
-0.3287906348705292 0.057920169085264206 0.2720867097377777 0 0 255
-0.31436777114868164 0.08280718326568604 0.26202958822250366 0 0 255
-0.2882298231124878 0.09392764419317245 0.2726167142391205 0 0 255
-0.27735933661460876 0.10820378363132477 0.2698000967502594 0 0 255
-0.22909905016422272 0.14579640328884125 0.2720118761062622 0 0 255
-0.179795041680336 0.14685288071632385 0.2576799988746643 0 0 255
-0.12898899614810944 0.18867747485637665 0.24072760343551636 0 0 255
-0.07531730830669403 0.18780657649040222 0.23222722113132477 0 0 255
-0.043448176234960556 0.21558335423469543 0.24488916993141174 0 0 255
-0.02553047612309456 0.22306470572948456 0.23713214695453644 0 0 255
0.006203419994562864 0.27537864446640015 0.22667290270328522 0 0 255
0.05023178085684776 0.2531162202358246 0.22186334431171417 0 0 255
0.06674373894929886 0.24946385622024536 0.2327203005552292 0 0 255
0.08082643896341324 0.25198987126350403 0.22444647550582886 0 0 255
0.09102363139390945 0.25959861278533936 0.21288523077964783 0 0 255
0.10416419804096222 0.2550080418586731 0.20113690197467804 0 0 255
0.10084260255098343 0.2400497943162918 0.20410409569740295 0 0 255
0.09575015306472778 0.24457240104675293 0.2003532499074936 0 0 255
0.08983273059129715 0.2369680404663086 0.2027176320552826 0 0 255
0.0802198126912117 0.22526361048221588 0.21281450986862183 0 0 255
0.07881429046392441 0.24549038708209991 0.22500130534172058 0 0 255
0.08547408133745193 0.24960505962371826 0.2139311134815216 0 0 255
0.07334346324205399 0.2561967074871063 0.21916808187961578 0 0 255
0.07033295184373856 0.2603185176849365 0.22998502850532532 0 0 255
0.06313174217939377 0.2843679189682007 0.2623837888240814 0 0 255
0.03368751332163811 0.273962140083313 0.3012259304523468 0 0 255
0.027449052780866623 0.2693147361278534 0.3132255971431732 0 0 255
0.03898518159985542 0.26135388016700745 0.3064452111721039 0 0 255
0.05474049225449562 0.26725277304649353 0.29237645864486694 0 0 255
0.0671551302075386 0.27698954939842224 0.2773425877094269 0 0 255
0.06977973133325577 0.29279661178588867 0.26574450731277466 0 0 255
0.059822604060173035 0.3132489323616028 0.24584944546222687 0 0 255
0.027992725372314453 0.3357086181640625 0.23641571402549744 0 0 255
-0.006095957010984421 0.34249767661094666 0.24367934465408325 0 0 255
-0.04997369274497032 0.3457982838153839 0.2771190106868744 0 0 255
-0.13021163642406464 0.3567269742488861 0.27914145588874817 0 0 255
-0.17426463961601257 0.33496877551078796 0.29343315958976746 0 0 255
-0.22521689534187317 0.33074986934661865 0.3233426809310913 0 0 255
-0.28186318278312683 0.33326321840286255 0.3243390619754791 0 0 255
-0.30529874563217163 0.32458144426345825 0.3442399501800537 0 0 255
-0.31539055705070496 0.3325940668582916 0.37687304615974426 0 0 255
-0.3375862240791321 0.32301202416419983 0.3825016915798187 0 0 255
-0.3336770832538605 0.3185528814792633 0.3802753686904907 0 0 255
-0.33087050914764404 0.33924320340156555 0.367864191532135 0 0 255
-0.31799405813217163 0.3207848370075226 0.3791670799255371 0 0 255
-0.3014833927154541 0.32346734404563904 0.38145530223846436 0 0 255
-0.28680065274238586 0.31211668252944946 0.39077070355415344 0 0 255
-0.28305551409721375 0.3232642710208893 0.38017427921295166 0 0 255
-0.28095877170562744 0.3342702090740204 0.36768147349357605 0 0 255
-0.2682955861091614 0.34333786368370056 0.38544926047325134 0 0 255
-0.2670761048793793 0.345844030380249 0.3786827623844147 0 0 255
-0.26166173815727234 0.3428865075111389 0.38750433921813965 0 0 255
-0.2547360956668854 0.3302391469478607 0.3775440752506256 0 0 255
-0.220210999250412 0.33295533061027527 0.36741164326667786 0 0 255
-0.1947469562292099 0.3215232491493225 0.36795538663864136 0 0 255
-0.16625972092151642 0.3555782437324524 0.36839672923088074 0 0 255
-0.08514399081468582 0.36374297738075256 0.36496075987815857 0 0 255
0.017716385424137115 0.36664023995399475 0.35657697916030884 0 0 255
0.14332760870456696 0.3130793273448944 0.3013951778411865 0 0 255
0.13957548141479492 0.36066246032714844 0.25818389654159546 0 0 255
0.1615733951330185 0.38467344641685486 0.2776465117931366 0 0 255
0.18855905532836914 0.40016627311706543 0.2625182867050171 0 0 255
0.15670490264892578 0.3725285828113556 0.26399606466293335 0 0 255
0.11375764012336731 0.4024290442466736 0.2184382975101471 0 0 255
0.036558352410793304 0.3741164803504944 0.2484200894832611 0 0 255
-0.014897690154612064 0.2627750635147095 0.22697527706623077 0 0 255
-0.16919682919979095 0.23255854845046997 0.2671954929828644 0 0 255
-0.2709784209728241 0.17727510631084442 0.2478993982076645 0 0 255
-0.3310534358024597 0.15976355969905853 0.2587735652923584 0 0 255
-0.35204017162323 0.11389908194541931 0.25497356057167053 0 0 255
-0.36982211470603943 0.15662194788455963 0.2698681056499481 0 0 255
-0.34871038794517517 0.11014904826879501 0.2514250576496124 0 0 255
-0.3784691095352173 0.1391739696264267 0.2305063158273697 0 0 255
-0.42005687952041626 0.11307498067617416 0.20930111408233643 0 0 255
