ply
format ascii 1.0
element vertex 701
property float x
property float y
property float z
property uchar red
property uchar green
property uchar blue
end_header
-0.17261698842048645 0.3558240532875061 -0.043192896991968155 0 0 255
-0.22633270919322968 0.36766666173934937 -0.10059134662151337 0 0 255
-0.2539457380771637 0.35786691308021545 -0.03726668283343315 0 0 255
-0.2475086748600006 0.3613976836204529 -0.041704196482896805 0 0 255
-0.25781339406967163 0.3749631643295288 -0.02627970464527607 0 0 255
-0.21441681683063507 0.35430020093917847 -0.03655479848384857 0 0 255
-0.15007780492305756 0.36986929178237915 0.003998427651822567 0 0 255
-0.14505937695503235 0.3694878816604614 -0.048524681478738785 0 0 255
-0.16017840802669525 0.3494800925254822 -0.08468405157327652 0 0 255
-0.17982564866542816 0.3315545916557312 -0.15212711691856384 0 0 255
-0.13854622840881348 0.3347613513469696 -0.15754377841949463 0 0 255
-0.05786890909075737 0.3692651391029358 -0.14310941100120544 0 0 255
-0.0333256758749485 0.37437015771865845 -0.14116442203521729 0 0 255
-0.1474548578262329 0.34289929270744324 -0.1465480923652649 0 0 255
-0.2379770129919052 0.3043955862522125 -0.22203220427036285 0 0 255
-0.3698122799396515 0.2498595416545868 -0.2830919325351715 0 0 255
-0.4638550281524658 0.24701064825057983 -0.2851482927799225 0 0 255
-0.44683319330215454 0.1799081265926361 -0.4809609353542328 0 0 255
-0.3294685184955597 0.1220650002360344 -0.4996480941772461 0 0 255
-0.23049047589302063 0.1899557262659073 -0.48861679434776306 0 0 255
-0.17189662158489227 0.2575986981391907 -0.421665221452713 0 0 255
-0.17446231842041016 0.24659422039985657 -0.4214550852775574 0 0 255
-0.18051770329475403 0.24593240022659302 -0.42620405554771423 0 0 255
-0.185163676738739 0.2629476487636566 -0.4294582009315491 0 0 255
-0.19230452179908752 0.2567746937274933 -0.43475037813186646 0 0 255
-0.21059167385101318 0.25065553188323975 -0.4349403381347656 0 0 255
-0.20599119365215302 0.2506997585296631 -0.4501638114452362 0 0 255
-0.15363557636737823 0.2325012981891632 -0.47649314999580383 0 0 255
-0.11464519798755646 0.22965767979621887 -0.48981359601020813 0 0 255
-0.11375638097524643 0.22324956953525543 -0.5245884656906128 0 0 255
-0.12909655272960663 0.22849956154823303 -0.507681131362915 0 0 255
-0.16218960285186768 0.24834157526493073 -0.4969722032546997 0 0 255
-0.17988701164722443 0.2643096446990967 -0.473947137594223 0 0 255
-0.18098151683807373 0.24826951324939728 -0.48153001070022583 0 0 255
-0.1753777116537094 0.2495664805173874 -0.49384525418281555 0 0 255
-0.17599362134933472 0.2470731884241104 -0.49636268615722656 0 0 255
-0.18513979017734528 0.23302429914474487 -0.49221110343933105 0 0 255
-0.18742254376411438 0.2414948046207428 -0.5067832469940186 0 0 255
-0.20884355902671814 0.23525689542293549 -0.4977477788925171 0 0 255
-0.2332497090101242 0.22314831614494324 -0.5030819773674011 0 0 255
-0.23448187112808228 0.2300373911857605 -0.4858388900756836 0 0 255
-0.24349065124988556 0.23952226340770721 -0.4729236960411072 0 0 255
-0.23199528455734253 0.2586914896965027 -0.45855602622032166 0 0 255
-0.2406400442123413 0.27176931500434875 -0.44004756212234497 0 0 255
-0.25112882256507874 0.2763100266456604 -0.44974204897880554 0 0 255
-0.25379833579063416 0.27478960156440735 -0.4389139711856842 0 0 255
-0.249643936753273 0.2606438398361206 -0.454795241355896 0 0 255
-0.26867663860321045 0.25186222791671753 -0.451694518327713 0 0 255
-0.25126132369041443 0.24884043633937836 -0.46044453978538513 0 0 255
-0.23247531056404114 0.2477913349866867 -0.4678858518600464 0 0 255
-0.20965538918972015 0.24646221101284027 -0.4702748954296112 0 0 255
-0.21585720777511597 0.23900628089904785 -0.4955172836780548 0 0 255
-0.2269928753376007 0.23473094403743744 -0.5046437382698059 0 0 255
-0.24279271066188812 0.22590553760528564 -0.49511435627937317 0 0 255
-0.25920426845550537 0.2154097557067871 -0.4997673034667969 0 0 255
-0.28972190618515015 0.21710821986198425 -0.4806917607784271 0 0 255
-0.29050198197364807 0.23857107758522034 -0.46351712942123413 0 0 255
-0.28269797563552856 0.2637215852737427 -0.43639227747917175 0 0 255
-0.2584296762943268 0.2788751721382141 -0.44815412163734436 0 0 255
-0.2569611966609955 0.27151498198509216 -0.45580828189849854 0 0 255
-0.2787829041481018 0.2543899714946747 -0.4606539011001587 0 0 255
-0.30610188841819763 0.25119996070861816 -0.4322785437107086 0 0 255
-0.3045884370803833 0.2613341510295868 -0.4342432916164398 0 0 255
-0.31402185559272766 0.27306967973709106 -0.4036009609699249 0 0 255
-0.2987259030342102 0.25794756412506104 -0.4306577146053314 0 0 255
-0.3027309477329254 0.25947684049606323 -0.42720022797584534 0 0 255
-0.30292215943336487 0.27131903171539307 -0.4207788109779358 0 0 255
-0.2967853248119354 0.27162691950798035 -0.414972722530365 0 0 255
-0.2881915271282196 0.2653244733810425 -0.41577720642089844 0 0 255
-0.2904922366142273 0.2713126540184021 -0.4131801724433899 0 0 255
-0.2832750678062439 0.27460357546806335 -0.42679083347320557 0 0 255
-0.28991419076919556 0.2617698311805725 -0.42901429533958435 0 0 255
-0.29006174206733704 0.2593328356742859 -0.42458921670913696 0 0 255
-0.28682437539100647 0.2650180757045746 -0.42233264446258545 0 0 255
-0.2890280783176422 0.26893219351768494 -0.4120233356952667 0 0 255
-0.3081205487251282 0.26273709535598755 -0.404898077249527 0 0 255
-0.32701408863067627 0.25734448432922363 -0.39651980996131897 0 0 255
-0.3402149975299835 0.26169273257255554 -0.35358282923698425 0 0 255
-0.35832810401916504 0.26709750294685364 -0.34634947776794434 0 0 255
-0.3811326026916504 0.2581208646297455 -0.33248665928840637 0 0 255
-0.3929682672023773 0.25022652745246887 -0.32147759199142456 0 0 255
-0.3984769880771637 0.23639823496341705 -0.30945447087287903 0 0 255
-0.4088638126850128 0.25092166662216187 -0.29300227761268616 0 0 255
-0.4188248813152313 0.25590404868125916 -0.2952345013618469 0 0 255
-0.42554911971092224 0.2460913509130478 -0.28508421778678894 0 0 255
-0.4337279498577118 0.24474671483039856 -0.2744580805301666 0 0 255
-0.43948671221733093 0.24451585114002228 -0.25546538829803467 0 0 255
-0.43506014347076416 0.24739836156368256 -0.24470239877700806 0 0 255
-0.44701072573661804 0.26007819175720215 -0.2006101757287979 0 0 255
-0.44343507289886475 0.25874459743499756 -0.19892628490924835 0 0 255
-0.4353257119655609 0.2659680247306824 -0.20442576706409454 0 0 255
-0.4279966950416565 0.269130140542984 -0.2078559845685959 0 0 255
-0.41586124897003174 0.2631954550743103 -0.235731840133667 0 0 255
-0.388498991727829 0.2826904058456421 -0.29803574085235596 0 0 255
-0.20794633030891418 0.3011804521083832 -0.4302603006362915 0 0 255
-0.18083584308624268 0.2233067750930786 -0.4621066451072693 0 0 255
-0.18674319982528687 0.22337864339351654 -0.4853249192237854 0 0 255
-0.06041819229722023 0.06755204498767853 -0.5600014925003052 0 0 255
0.11901135742664337 0.0679701641201973 -0.4783713221549988 0 0 255
0.2456332892179489 0.023869624361395836 -0.4437873363494873 0 0 255
0.2938419282436371 -0.002142952289432287 -0.425059050321579 0 0 255
0.31117457151412964 -0.0014146273024380207 -0.4232993423938751 0 0 255
0.3197094798088074 -0.00561162456870079 -0.4308888614177704 0 0 255
0.31607913970947266 -0.008881747722625732 -0.42658132314682007 0 0 255
0.338242769241333 -0.04006229341030121 -0.4007241725921631 0 0 255
0.3558206558227539 -0.031297992914915085 -0.3773881793022156 0 0 255
0.37790563702583313 -0.014912438578903675 -0.3398160934448242 0 0 255
0.4312432110309601 -0.019716154783964157 -0.2849591374397278 0 0 255
0.4760783612728119 -0.04797893017530441 -0.19761307537555695 0 0 255
0.5197432041168213 -0.07668998837471008 -0.1070142611861229 0 0 255
0.537308394908905 -0.09300538897514343 -0.00836645532399416 0 0 255
0.5159967541694641 -0.12559686601161957 0.05636810511350632 0 0 255
0.4882708489894867 -0.17091986536979675 0.04314606636762619 0 0 255
0.39681899547576904 -0.2103392481803894 -0.10492387413978577 0 0 255
0.22604632377624512 -0.17301258444786072 -0.06696706265211105 0 0 255
0.15557140111923218 0.008447094820439816 -0.3612287938594818 0 0 255
0.016599521040916443 0.2756175994873047 -0.30653756856918335 0 0 255
0.08043134212493896 0.2010156214237213 -0.5107864141464233 0 0 255
-0.04961027204990387 0.18741202354431152 -0.5140577554702759 0 0 255
-0.11510233581066132 0.21572428941726685 -0.4913780987262726 0 0 255
-0.1401940882205963 0.21402570605278015 -0.49806857109069824 0 0 255
-0.1585436761379242 0.2260548174381256 -0.49378955364227295 0 0 255
-0.1644139438867569 0.2067103534936905 -0.4857501685619354 0 0 255
-0.16682258248329163 0.21691679954528809 -0.4748319685459137 0 0 255
-0.17533451318740845 0.25407689809799194 -0.4656561017036438 0 0 255
-0.18520528078079224 0.2570176422595978 -0.451435387134552 0 0 255
-0.1954558789730072 0.2449510097503662 -0.46700021624565125 0 0 255
-0.21621645987033844 0.2358265072107315 -0.4536338746547699 0 0 255
-0.23894990980625153 0.2464028149843216 -0.4444032609462738 0 0 255
-0.2577129304409027 0.2524419128894806 -0.4239891767501831 0 0 255
-0.2817304730415344 0.2530202865600586 -0.4046628773212433 0 0 255
-0.2916644215583801 0.2676389813423157 -0.3983885943889618 0 0 255
-0.3416031301021576 0.21325643360614777 -0.37001875042915344 0 0 255
-0.33976981043815613 0.2189672291278839 -0.32979243993759155 0 0 255
-0.36907893419265747 0.1992955505847931 -0.28362831473350525 0 0 255
-0.37749558687210083 0.2479228973388672 -0.2057369351387024 0 0 255
-0.3818433880805969 0.27218756079673767 -0.1751662641763687 0 0 255
-0.39187371730804443 0.26447680592536926 -0.16185534000396729 0 0 255
-0.391991525888443 0.2598329782485962 -0.14179618656635284 0 0 255
-0.3956927955150604 0.25966742634773254 -0.11508025974035263 0 0 255
-0.38908734917640686 0.25029507279396057 -0.09673495590686798 0 0 255
-0.38286545872688293 0.25130903720855713 -0.07824122905731201 0 0 255
-0.37704670429229736 0.24052481353282928 -0.0630912259221077 0 0 255
-0.37897366285324097 0.2464195042848587 -0.058441538363695145 0 0 255
-0.38460659980773926 0.2478456348180771 -0.04685063660144806 0 0 255
-0.38485753536224365 0.2520691752433777 -0.0481155626475811 0 0 255
-0.38265979290008545 0.2492602914571762 -0.019508233293890953 0 0 255
-0.3870326280593872 0.25693780183792114 -0.02067023701965809 0 0 255
-0.38978901505470276 0.25409093499183655 -0.016696060076355934 0 0 255
-0.3959532678127289 0.2519668936729431 -0.008149654604494572 0 0 255
-0.39980611205101013 0.24329933524131775 0.008190873079001904 0 0 255
-0.40630823373794556 0.25027480721473694 0.03120237961411476 0 0 255
-0.40831467509269714 0.2535148561000824 0.03556658327579498 0 0 255
-0.40014293789863586 0.26250892877578735 0.04849833995103836 0 0 255
-0.3926984965801239 0.2578221261501312 0.04466509819030762 0 0 255
-0.3999321758747101 0.28060537576675415 0.02673722244799137 0 0 255
-0.4036710262298584 0.26583579182624817 0.004583560861647129 0 0 255
-0.41335755586624146 0.265884667634964 -0.006625640206038952 0 0 255
-0.40945813059806824 0.25745895504951477 -0.022474803030490875 0 0 255
-0.4127984344959259 0.2499459683895111 -0.01462353952229023 0 0 255
-0.41107404232025146 0.25366851687431335 -0.0431673564016819 0 0 255
-0.3994457721710205 0.2716119885444641 -0.024064619094133377 0 0 255
-0.2749141752719879 0.33361467719078064 -0.020782236009836197 0 0 255
-0.2175930142402649 0.3546375036239624 -0.2846023738384247 0 0 255
-0.34306037425994873 0.4817964732646942 -0.08008711040019989 0 0 255
-0.20493219792842865 0.11436741799116135 -0.43147075176239014 0 0 255
-0.5452127456665039 0.27358701825141907 0.15992143750190735 0 0 255
-0.40599384903907776 0.3310363292694092 0.272948682308197 0 0 255
-0.3738557994365692 0.2940879762172699 0.31319427490234375 0 0 255
-0.42539459466934204 0.29997071623802185 0.26471877098083496 0 0 255
-0.3993780016899109 0.2931453585624695 0.20007625222206116 0 0 255
-0.4102219045162201 0.2741551995277405 0.05929811671376228 0 0 255
-0.32293978333473206 0.3121502697467804 0.01369288470596075 0 0 255
-0.04458225890994072 0.41938120126724243 -0.10147832334041595 0 0 255
-0.09575631469488144 0.38798049092292786 -0.20945483446121216 0 0 255
-0.016946932300925255 0.3784489631652832 -0.36772212386131287 0 0 255
-0.06280567497015 0.3009745180606842 -0.4437221884727478 0 0 255
-0.08642200380563736 0.2785263657569885 -0.48147398233413696 0 0 255
-0.10865721851587296 0.26421427726745605 -0.49322885274887085 0 0 255
-0.10549909621477127 0.2649180293083191 -0.4782690107822418 0 0 255
-0.1156415045261383 0.2330683320760727 -0.5052701234817505 0 0 255
-0.131056010723114 0.2472623586654663 -0.47777998447418213 0 0 255
-0.13427408039569855 0.24285057187080383 -0.48719602823257446 0 0 255
-0.14450430870056152 0.2471756786108017 -0.49605393409729004 0 0 255
-0.1384231597185135 0.24487142264842987 -0.501162052154541 0 0 255
-0.06818840652704239 0.2463817298412323 -0.49709466099739075 0 0 255
-0.05561348795890808 0.26708483695983887 -0.4749818444252014 0 0 255
-0.05153956636786461 0.25096574425697327 -0.49856308102607727 0 0 255
-0.07374462485313416 0.2636735141277313 -0.49601444602012634 0 0 255
-0.019237706437706947 0.28662484884262085 -0.5175351500511169 0 0 255
0.1295100450515747 0.2727833092212677 -0.48986709117889404 0 0 255
0.43665966391563416 0.19748979806900024 -0.36982473731040955 0 0 255
0.6199089884757996 0.12887752056121826 -0.06156473606824875 0 0 255
0.6281862854957581 -0.019075609743595123 0.02471485547721386 0 0 255
0.5139143466949463 -0.07961965352296829 0.11296296119689941 0 0 255
0.25936880707740784 -0.24300377070903778 0.019714824855327606 0 0 255
0.25357016921043396 -0.23011106252670288 0.10741032660007477 0 0 255
0.20584627985954285 -0.14747501909732819 0.29027318954467773 0 0 255
0.23350684344768524 -0.09792079776525497 0.4286642074584961 0 0 255
0.2500643730163574 -0.11089707165956497 0.3689807653427124 0 0 255
0.26617011427879333 -0.10004103183746338 0.3562327027320862 0 0 255
0.2349410355091095 -0.08297688513994217 0.37755700945854187 0 0 255
0.19980686902999878 -0.11116071045398712 0.35533589124679565 0 0 255
0.19046826660633087 -0.08551003038883209 0.3674406409263611 0 0 255
0.26104915142059326 -0.10690037161111832 0.3298548460006714 0 0 255
0.2744844853878021 -0.06001291424036026 0.40584316849708557 0 0 255
0.35625800490379333 -0.054438140243291855 0.3956582844257355 0 0 255
0.33693528175354004 -0.06246437132358551 0.42258840799331665 0 0 255
0.32313671708106995 -0.0751166120171547 0.36189791560173035 0 0 255
0.29252851009368896 -0.13973547518253326 0.28795480728149414 0 0 255
0.3114168047904968 -0.13875629007816315 0.2801344096660614 0 0 255
0.3325496017932892 -0.0939587876200676 0.3160721957683563 0 0 255
0.3640404939651489 -0.09194091707468033 0.33757540583610535 0 0 255
0.319876104593277 -0.11048457771539688 0.3619998097419739 0 0 255
0.2794100046157837 -0.1239539086818695 0.3808986246585846 0 0 255
0.27113109827041626 -0.12486737221479416 0.4052999019622803 0 0 255
0.2687804400920868 -0.1213180422782898 0.4404711425304413 0 0 255
0.29256901144981384 -0.08561953157186508 0.4668610692024231 0 0 255
0.28849974274635315 -0.09813981503248215 0.44990986585617065 0 0 255
0.26737120747566223 -0.10222886502742767 0.4656490385532379 0 0 255
0.3528434932231903 -0.09662522375583649 0.41871652007102966 0 0 255
0.37774983048439026 -0.08691168576478958 0.43905332684516907 0 0 255
0.42912232875823975 -0.06969671696424484 0.43226689100265503 0 0 255
0.44483140110969543 -0.10144083201885223 0.437685489654541 0 0 255
0.4698488116264343 -0.09688560664653778 0.4386601448059082 0 0 255
0.4853832721710205 -0.08225494623184204 0.4137337803840637 0 0 255
0.4814283549785614 -0.10987571626901627 0.380677729845047 0 0 255
0.4753418266773224 -0.13330894708633423 0.34880706667900085 0 0 255
0.483458012342453 -0.13788476586341858 0.31705242395401 0 0 255
0.49498090147972107 -0.15357312560081482 0.29096391797065735 0 0 255
0.5105846524238586 -0.143164724111557 0.2573591470718384 0 0 255
0.5187178254127502 -0.145367830991745 0.23135991394519806 0 0 255
0.5147563219070435 -0.15146484971046448 0.2095438838005066 0 0 255
0.5107621550559998 -0.15148921310901642 0.19914701581001282 0 0 255
0.5025441646575928 -0.1432332694530487 0.2084604799747467 0 0 255
0.4941779673099518 -0.1544167697429657 0.2135041505098343 0 0 255
0.4973585605621338 -0.14086902141571045 0.22825035452842712 0 0 255
0.4980785846710205 -0.14316977560520172 0.2496381402015686 0 0 255
0.4928037226200104 -0.14160455763339996 0.25264477729797363 0 0 255
0.47264519333839417 -0.15358200669288635 0.2550608515739441 0 0 255
0.4740125238895416 -0.16211166977882385 0.2706983983516693 0 0 255
0.4804665148258209 -0.15192535519599915 0.2890581488609314 0 0 255
0.48512497544288635 -0.13555282354354858 0.2959311008453369 0 0 255
0.4814888834953308 -0.133117213845253 0.2975117564201355 0 0 255
0.4737744927406311 -0.14451134204864502 0.30286306142807007 0 0 255
0.4693085551261902 -0.1492314338684082 0.3138716518878937 0 0 255
0.46120214462280273 -0.1481577306985855 0.3273178040981293 0 0 255
0.4629068076610565 -0.14559705555438995 0.3270886540412903 0 0 255
0.4695175886154175 -0.14132501184940338 0.33191776275634766 0 0 255
0.4630480408668518 -0.14339667558670044 0.3417956531047821 0 0 255
0.45031535625457764 -0.14458997547626495 0.34256497025489807 0 0 255
0.43537819385528564 -0.15197229385375977 0.35366934537887573 0 0 255
0.4313318431377411 -0.1512882560491562 0.37103158235549927 0 0 255
0.4285080134868622 -0.14879845082759857 0.3884774148464203 0 0 255
0.43487706780433655 -0.14344514906406403 0.3867191970348358 0 0 255
0.4264797866344452 -0.14075767993927002 0.39216917753219604 0 0 255
0.42089781165122986 -0.14236313104629517 0.4010315239429474 0 0 255
0.4216085970401764 -0.13936644792556763 0.40801429748535156 0 0 255
0.41911810636520386 -0.13222146034240723 0.4182015061378479 0 0 255
0.4229778051376343 -0.13036435842514038 0.4118606150150299 0 0 255
0.43940478563308716 -0.1430654227733612 0.39609861373901367 0 0 255
0.44050341844558716 -0.15221907198429108 0.38502237200737 0 0 255
0.4641477167606354 -0.1531604677438736 0.3425421714782715 0 0 255
0.4932916462421417 -0.13191017508506775 0.303904265165329 0 0 255
0.5100511312484741 -0.12315750122070312 0.22798338532447815 0 0 255
0.5186702013015747 -0.12827357649803162 0.14117832481861115 0 0 255
0.5304943323135376 -0.12484971433877945 0.07303136587142944 0 0 255
0.5339862704277039 -0.08609925955533981 -0.008812755346298218 0 0 255
0.5344270467758179 -0.07653234153985977 -0.05211551487445831 0 0 255
0.5306122303009033 -0.08977099508047104 -0.07143072783946991 0 0 255
0.5195605754852295 -0.07659805566072464 -0.10473529994487762 0 0 255
0.5121737718582153 -0.05958247184753418 -0.14143358170986176 0 0 255
0.48141974210739136 -0.07567671686410904 -0.18607865273952484 0 0 255
0.48096200823783875 -0.03805781528353691 -0.2207641452550888 0 0 255
0.47550180554389954 -0.04844258353114128 -0.2608742415904999 0 0 255
0.4633343517780304 -0.0009896594565361738 -0.29716941714286804 0 0 255
0.4651277959346771 0.008095839060842991 -0.30827003717422485 0 0 255
0.4664466679096222 0.017771340906620026 -0.31332501769065857 0 0 255
0.45357468724250793 0.01986916922032833 -0.32869261503219604 0 0 255
0.4546763300895691 0.012924568727612495 -0.3206143379211426 0 0 255
0.45776888728141785 0.0035046276170760393 -0.30943629145622253 0 0 255
0.46101292967796326 -0.01116118859499693 -0.292551726102829 0 0 255
0.4581697881221771 -0.02417346090078354 -0.28462761640548706 0 0 255
0.46490582823753357 -0.02440224029123783 -0.26327866315841675 0 0 255
0.46045202016830444 -0.04154718294739723 -0.2554945647716522 0 0 255
0.4635379910469055 -0.049768298864364624 -0.25633513927459717 0 0 255
0.46145495772361755 -0.023973098024725914 -0.28382810950279236 0 0 255
0.4538608491420746 -0.004156817216426134 -0.29574263095855713 0 0 255
0.4426315724849701 -0.016642477363348007 -0.30278316140174866 0 0 255
0.4665699303150177 -0.010183333419263363 -0.2670694887638092 0 0 255
0.4631020724773407 -0.02179320901632309 -0.26140859723091125 0 0 255
0.4474938213825226 0.027000948786735535 -0.28441321849823 0 0 255
0.47614556550979614 0.03983217477798462 -0.28131750226020813 0 0 255
0.49087217450141907 0.0441955141723156 -0.26647213101387024 0 0 255
0.528018057346344 0.04715516045689583 -0.21406297385692596 0 0 255
0.4831172227859497 0.08276064693927765 -0.25732457637786865 0 0 255
0.4537235498428345 0.08833429962396622 -0.30968064069747925 0 0 255
0.4538857936859131 0.049730971455574036 -0.30171114206314087 0 0 255
0.4259336292743683 0.07505932450294495 -0.32871848344802856 0 0 255
0.4136256277561188 0.083077572286129 -0.3838260769844055 0 0 255
0.38844701647758484 0.10703328996896744 -0.40853869915008545 0 0 255
0.3508045971393585 0.1365349292755127 -0.4392511248588562 0 0 255
0.330966979265213 0.1737847626209259 -0.47233566641807556 0 0 255
0.24867044389247894 0.20573440194129944 -0.5156139731407166 0 0 255
0.24372385442256927 0.22941961884498596 -0.5325514674186707 0 0 255
0.23278804123401642 0.21968986093997955 -0.5389543771743774 0 0 255
0.24957534670829773 0.20683667063713074 -0.5264744162559509 0 0 255
0.3581221103668213 0.1692584902048111 -0.5163773894309998 0 0 255
0.46793630719184875 0.11633248627185822 -0.4032498300075531 0 0 255
0.4819520115852356 0.0857318565249443 -0.35074275732040405 0 0 255
0.4331744611263275 0.07825235277414322 -0.25104281306266785 0 0 255
0.45730406045913696 0.10578004270792007 -0.22900816798210144 0 0 255
0.4316047430038452 0.16118988394737244 -0.2282630354166031 0 0 255
0.4418395459651947 0.13929538428783417 -0.24834395945072174 0 0 255
0.4860844612121582 0.14160120487213135 -0.18795514106750488 0 0 255
0.47072067856788635 0.16814839839935303 -0.17746704816818237 0 0 255
0.3944166302680969 0.1964031457901001 -0.18444199860095978 0 0 255
0.4559745490550995 0.18630675971508026 -0.13803496956825256 0 0 255
0.5172060132026672 0.15651147067546844 -0.0542941689491272 0 0 255
0.5045163631439209 0.15066006779670715 -0.044587671756744385 0 0 255
0.520817756652832 0.1269003003835678 0.008569476194679737 0 0 255
0.5122331976890564 0.10682357847690582 0.03235384449362755 0 0 255
0.4793756306171417 0.11420861631631851 0.0675540342926979 0 0 255
0.4741550385951996 0.11764120310544968 0.038580283522605896 0 0 255
0.4504963159561157 0.1323946714401245 0.043110527098178864 0 0 255
0.42307573556900024 0.16448548436164856 0.06868582218885422 0 0 255
0.32112598419189453 0.23849941790103912 -0.03512627258896828 0 0 255
0.3878951966762543 0.2124553620815277 -0.012812894769012928 0 0 255
0.4799940586090088 0.15424318611621857 -0.07375108450651169 0 0 255
0.5059524774551392 0.1460825502872467 -0.11701454222202301 0 0 255
0.5232177376747131 0.090335413813591 -0.1028200015425682 0 0 255
0.6175383925437927 0.0721370056271553 -0.016713475808501244 0 0 255
0.6393281817436218 0.06366433948278427 -0.06952567398548126 0 0 255
0.6252147555351257 -0.0037425991613417864 -0.06385748833417892 0 0 255
0.6526855230331421 -0.05021132901310921 -0.004104056395590305 0 0 255
0.6574930548667908 0.0118574108928442 -0.0295957550406456 0 0 255
0.6085731983184814 0.01642569713294506 -0.03910178318619728 0 0 255
0.6188327074050903 0.03758743032813072 -0.0248526930809021 0 0 255
0.6176199913024902 0.0013316662516444921 0.04575522616505623 0 0 255
0.6214179396629333 0.058970797806978226 -0.0015041286824271083 0 0 255
0.617938756942749 -6.155058508738875e-05 0.08375705033540726 0 0 255
0.6435869336128235 1.224105290020816e-05 0.1678066998720169 0 0 255
0.6293419599533081 -0.01548814307898283 0.22957542538642883 0 0 255
0.593319833278656 -0.03732893243432045 0.3258114457130432 0 0 255
0.5065711736679077 -0.048964280635118484 0.3823694884777069 0 0 255
0.42199403047561646 -0.07541541755199432 0.5243107676506042 0 0 255
0.3155461251735687 -0.055782247334718704 0.5525535345077515 0 0 255
0.13317643105983734 -0.017932957038283348 0.6686126589775085 0 0 255
0.08782248198986053 -0.045075446367263794 0.7076259851455688 0 0 255
0.08264938741922379 -0.07440820336341858 0.6543657779693604 0 0 255
0.13544557988643646 -0.1760772168636322 0.5961863994598389 0 0 255
0.06117504835128784 -0.14261594414710999 0.5838527679443359 0 0 255
0.011676539666950703 -0.17411714792251587 0.5776873826980591 0 0 255
-0.03457891568541527 -0.17440165579319 0.4471891522407532 0 0 255
-0.08234706521034241 -0.19481706619262695 0.4993109703063965 0 0 255
-0.0033528811763972044 -0.1872827410697937 0.5264893770217896 0 0 255
-0.010715294629335403 -0.20151251554489136 0.5811510682106018 0 0 255
-0.018099240958690643 -0.18263083696365356 0.6018585562705994 0 0 255
-0.1008664071559906 -0.1840568333864212 0.5685606598854065 0 0 255
-0.05409156158566475 -0.2182430475950241 0.5437466502189636 0 0 255
0.01937134750187397 -0.2585698366165161 0.5088934898376465 0 0 255
-0.0769398957490921 -0.25782373547554016 0.5122644305229187 0 0 255
-0.0452202633023262 -0.23252318799495697 0.4523884057998657 0 0 255
-0.059812989085912704 -0.25155025720596313 0.11194504052400589 0 0 255
-0.22932139039039612 -0.17368444800376892 -0.12009213119745255 0 0 255
-0.22145512700080872 -0.11250412464141846 -0.23277316987514496 0 0 255
-0.3512677848339081 0.038683533668518066 -0.21868376433849335 0 0 255
-0.4949254095554352 0.12150321900844574 -0.10550812631845474 0 0 255
-0.5000966787338257 0.09326726943254471 -0.051838744431734085 0 0 255
-0.46547994017601013 0.059345703572034836 -0.061349403113126755 0 0 255
-0.4330507814884186 0.11713604629039764 -0.14152942597866058 0 0 255
-0.4542171061038971 0.11612378805875778 -0.12372305989265442 0 0 255
-0.46333152055740356 0.09450363367795944 -0.06454066187143326 0 0 255
-0.4481070935726166 0.1612478494644165 -0.1493767946958542 0 0 255
-0.48243364691734314 0.14442652463912964 -0.1493726670742035 0 0 255
-0.39398232102394104 0.1704517900943756 -0.19451920688152313 0 0 255
-0.3282660245895386 0.21082384884357452 -0.32328104972839355 0 0 255
-0.17324654757976532 0.1771557778120041 -0.3886951804161072 0 0 255
-0.06963689625263214 0.1495160311460495 -0.47264719009399414 0 0 255
-0.09346992522478104 0.11336961388587952 -0.555968165397644 0 0 255
-0.09807832539081573 0.15198442339897156 -0.5493074655532837 0 0 255
-0.05297547206282616 0.1627357304096222 -0.5692762136459351 0 0 255
-0.01999041996896267 0.13486874103546143 -0.5371947288513184 0 0 255
-0.07341233640909195 0.15244467556476593 -0.5857582092285156 0 0 255
-0.12749814987182617 0.153287872672081 -0.5958037972450256 0 0 255
-0.2038714587688446 0.19180035591125488 -0.5645484328269958 0 0 255
-0.250175416469574 0.23494958877563477 -0.5389344096183777 0 0 255
-0.23696304857730865 0.2274494618177414 -0.5383115410804749 0 0 255
-0.2607920169830322 0.23132655024528503 -0.5100235342979431 0 0 255
-0.2818523347377777 0.23858751356601715 -0.5052030086517334 0 0 255
-0.2977019250392914 0.23400996625423431 -0.5023980736732483 0 0 255
-0.2961266040802002 0.21012288331985474 -0.5236021280288696 0 0 255
-0.3200331926345825 0.2148205190896988 -0.5341436266899109 0 0 255
-0.34052741527557373 0.21206894516944885 -0.5202722549438477 0 0 255
-0.3657635748386383 0.20878371596336365 -0.5042357444763184 0 0 255
-0.39133527874946594 0.1964394450187683 -0.4981170892715454 0 0 255
-0.4119897484779358 0.20921088755130768 -0.4734742045402527 0 0 255
-0.42586690187454224 0.18994714319705963 -0.45770910382270813 0 0 255
-0.4563591778278351 0.19917099177837372 -0.4434809982776642 0 0 255
-0.46401792764663696 0.19994044303894043 -0.41467446088790894 0 0 255
-0.4922771155834198 0.20117397606372833 -0.37021616101264954 0 0 255
-0.48955559730529785 0.2131182849407196 -0.3564724922180176 0 0 255
-0.4983704686164856 0.21459536254405975 -0.31168434023857117 0 0 255
-0.49932384490966797 0.21701915562152863 -0.2909650504589081 0 0 255
-0.5095693469047546 0.22207941114902496 -0.23976971209049225 0 0 255
-0.5037393569946289 0.23300053179264069 -0.20935653150081635 0 0 255
-0.5032162666320801 0.21899168193340302 -0.1602950245141983 0 0 255
-0.49810051918029785 0.20990020036697388 -0.11397546529769897 0 0 255
-0.497717022895813 0.2199307233095169 -0.11284419894218445 0 0 255
-0.4937534034252167 0.20774370431900024 -0.09681806713342667 0 0 255
-0.48467251658439636 0.20673315227031708 -0.08901416510343552 0 0 255
-0.4779803156852722 0.22629931569099426 -0.05417507514357567 0 0 255
-0.47530797123908997 0.212739035487175 -0.019248008728027344 0 0 255
-0.4788895547389984 0.21850591897964478 -0.06665918231010437 0 0 255
-0.47521185874938965 0.20177246630191803 -0.11158651113510132 0 0 255
-0.5039084553718567 0.18154504895210266 -0.133759543299675 0 0 255
-0.49518120288848877 0.19290807843208313 -0.17730823159217834 0 0 255
-0.49713900685310364 0.18993555009365082 -0.18461737036705017 0 0 255
-0.5115199685096741 0.1715141236782074 -0.19847962260246277 0 0 255
-0.5213338732719421 0.17074698209762573 -0.17049846053123474 0 0 255
-0.511222243309021 0.17984364926815033 -0.13102607429027557 0 0 255
-0.5040916800498962 0.1822987049818039 -0.10256177186965942 0 0 255
-0.5106539726257324 0.18072591722011566 -0.13792996108531952 0 0 255
-0.5183718800544739 0.21089531481266022 -0.12467272579669952 0 0 255
-0.5153871774673462 0.20901338756084442 -0.09914441406726837 0 0 255
-0.5072629451751709 0.2276046723127365 -0.03177890554070473 0 0 255
-0.484438419342041 0.22370432317256927 0.0017264502821490169 0 0 255
-0.4723759889602661 0.226211279630661 0.08468952029943466 0 0 255
-0.42930105328559875 0.2542099952697754 0.14835189282894135 0 0 255
-0.42055952548980713 0.2189573496580124 0.19467367231845856 0 0 255
-0.4323905110359192 0.2269403040409088 0.19749192893505096 0 0 255
-0.42900606989860535 0.21751925349235535 0.2121066004037857 0 0 255
-0.4125010371208191 0.21215787529945374 0.23652227222919464 0 0 255
-0.40155863761901855 0.20723079144954681 0.2661381959915161 0 0 255
-0.33457693457603455 0.18733011186122894 0.3536105453968048 0 0 255
-0.1811128854751587 0.13980959355831146 0.4105571210384369 0 0 255
-0.04486770182847977 0.13430751860141754 0.4560994505882263 0 0 255
-0.17350181937217712 0.21018123626708984 0.500863254070282 0 0 255
0.15489359200000763 0.0724133849143982 0.646223783493042 0 0 255
0.3189135789871216 0.09680937230587006 0.5235582590103149 0 0 255
0.23351122438907623 0.015509936027228832 0.5900676846504211 0 0 255
0.16318604350090027 0.03797057271003723 0.5973082780838013 0 0 255
0.09772893041372299 0.04107639566063881 0.6099039316177368 0 0 255
0.09796321392059326 0.04287033900618553 0.6069803833961487 0 0 255
0.09406076371669769 0.030521772801876068 0.6050809025764465 0 0 255
0.0975802019238472 0.010752161033451557 0.6053412556648254 0 0 255
0.061981409788131714 0.04368603229522705 0.6093271970748901 0 0 255
0.05856724828481674 0.03775574266910553 0.619221031665802 0 0 255
0.062282804399728775 0.027268946170806885 0.6212887167930603 0 0 255
0.061043985188007355 0.022006692364811897 0.6165634393692017 0 0 255
0.043595485389232635 0.04530935361981392 0.6178308725357056 0 0 255
0.04454268142580986 0.04140045866370201 0.6057169437408447 0 0 255
0.027163507416844368 0.03666819632053375 0.5974640846252441 0 0 255
0.0663815587759018 0.02901506796479225 0.5825868844985962 0 0 255
0.07454782724380493 0.02421336993575096 0.5885425209999084 0 0 255
0.10080026835203171 0.02747366949915886 0.5895317196846008 0 0 255
0.08972478657960892 0.040509700775146484 0.6057858467102051 0 0 255
0.07538778334856033 0.0253424234688282 0.6113277673721313 0 0 255
0.09248600900173187 -0.008948983624577522 0.6335405707359314 0 0 255
0.06552983820438385 0.03312555328011513 0.6047578454017639 0 0 255
0.16885696351528168 0.026493167504668236 0.5944135785102844 0 0 255
0.18033264577388763 -0.02947508729994297 0.5934730768203735 0 0 255
0.2573869526386261 -0.08111625164747238 0.6247632503509521 0 0 255
0.4336327314376831 -0.0185957383364439 0.501205563545227 0 0 255
0.4153599143028259 -0.02889091521501541 0.5227376222610474 0 0 255
0.37966153025627136 -0.15157553553581238 0.5852798223495483 0 0 255
0.2918601930141449 -0.12026423215866089 0.5402372479438782 0 0 255
0.24260766804218292 -0.09472064673900604 0.522240936756134 0 0 255
0.2552053928375244 -0.11483579874038696 0.518574059009552 0 0 255
0.22353310883045197 -0.1944287270307541 0.5512292981147766 0 0 255
0.1925523281097412 -0.13276395201683044 0.5361303687095642 0 0 255
0.20698890089988708 -0.07590921223163605 0.5096938610076904 0 0 255
0.2558484673500061 -0.11408182978630066 0.4941430985927582 0 0 255
0.28088706731796265 -0.12091383337974548 0.4350544810295105 0 0 255
0.37379592657089233 -0.13081063330173492 0.38876786828041077 0 0 255
0.506110429763794 -0.03492347151041031 0.43369099497795105 0 0 255
0.46507570147514343 0.00020663203031290323 0.29597559571266174 0 0 255
0.37487995624542236 -0.18985897302627563 0.568651556968689 0 0 255
0.30160799622535706 -0.2417764812707901 0.6467507481575012 0 0 255
0.28890305757522583 -0.03733733668923378 0.6736255884170532 0 0 255
0.2904130220413208 -0.057907670736312866 0.7141029834747314 0 0 255
0.3026677966117859 -0.05750873684883118 0.691344141960144 0 0 255
0.3453449010848999 -0.06989475339651108 0.6924582123756409 0 0 255
0.32342708110809326 -0.1600002646446228 0.6905997395515442 0 0 255
-0.008784372359514236 0.30656617879867554 0.26723620295524597 0 0 255
-0.3638532757759094 0.38980525732040405 0.3694446384906769 0 0 255
-0.3042314350605011 0.20945286750793457 0.6700354218482971 0 0 255
-0.18800346553325653 0.39209088683128357 0.43556132912635803 0 0 255
0.03557664155960083 0.26220616698265076 0.41125720739364624 0 0 255
0.03166016563773155 0.3374262750148773 0.4107743799686432 0 0 255
-0.05008438974618912 0.3041115999221802 0.4619790315628052 0 0 255
-0.004580530803650618 0.3181237280368805 0.5025336742401123 0 0 255
0.06647763401269913 0.3326829969882965 0.5170589089393616 0 0 255
0.11922603845596313 0.2892453372478485 0.5155193209648132 0 0 255
0.15149620175361633 0.32061952352523804 0.47339391708374023 0 0 255
0.13614793121814728 0.35704076290130615 0.48431095480918884 0 0 255
-0.025138752534985542 0.4143974781036377 0.36432600021362305 0 0 255
-0.06313985586166382 0.44006213545799255 0.3800656795501709 0 0 255
-0.26218417286872864 0.3073136508464813 0.4396257996559143 0 0 255
-0.2283676564693451 0.22709687054157257 0.5002437829971313 0 0 255
-0.21198569238185883 0.13535314798355103 0.45925775170326233 0 0 255
-0.23234929144382477 0.21223190426826477 0.5329227447509766 0 0 255
-0.12555015087127686 0.23719309270381927 0.565828800201416 0 0 255
-0.13821886479854584 0.21341195702552795 0.569617509841919 0 0 255
-0.11621519923210144 0.20021991431713104 0.5806010961532593 0 0 255
-0.09915231913328171 0.19842880964279175 0.5897332429885864 0 0 255
-0.1045902743935585 0.2003241926431656 0.5693838000297546 0 0 255
-0.10473135113716125 0.22188769280910492 0.5599657297134399 0 0 255
-0.10882557928562164 0.2307591736316681 0.5451698899269104 0 0 255
-0.1373075246810913 0.23593062162399292 0.5570314526557922 0 0 255
-0.11084972321987152 0.2533157765865326 0.5566826462745667 0 0 255
-0.08616670221090317 0.2544509768486023 0.5627954006195068 0 0 255
-0.11280066519975662 0.26335975527763367 0.5145866870880127 0 0 255
-0.09158670157194138 0.3202335238456726 0.5037679672241211 0 0 255
-0.11872154474258423 0.34978705644607544 0.42151346802711487 0 0 255
-0.15084438025951385 0.33079877495765686 0.35063380002975464 0 0 255
-0.11940168589353561 0.40057265758514404 0.24755169451236725 0 0 255
-0.18404649198055267 0.4212605357170105 0.10476682335138321 0 0 255
-0.20689362287521362 0.40936005115509033 0.03069031424820423 0 0 255
-0.12585297226905823 0.40801680088043213 -0.06833101809024811 0 0 255
-0.16907255351543427 0.3514462113380432 -0.07234383374452591 0 0 255
-0.12001451104879379 0.39248114824295044 -0.09994427114725113 0 0 255
-0.08188775926828384 0.44019603729248047 -0.14355646073818207 0 0 255
-0.06711091846227646 0.39382991194725037 -0.10930642485618591 0 0 255
-0.002518294146284461 0.3959682583808899 -0.053266797214746475 0 0 255
0.02164515107870102 0.367101788520813 -0.07452446967363358 0 0 255
-0.05578538775444031 0.37785229086875916 -0.10979989916086197 0 0 255
-0.16434094309806824 0.3865842819213867 -0.08454518765211105 0 0 255
-0.21444188058376312 0.41759225726127625 -0.006112213712185621 0 0 255
-0.2278829962015152 0.38889968395233154 0.0718170553445816 0 0 255
-0.22766490280628204 0.34594446420669556 0.13626569509506226 0 0 255
-0.2399979531764984 0.35106414556503296 0.17208321392536163 0 0 255
-0.24573086202144623 0.3785971701145172 0.21229305863380432 0 0 255
-0.2373868227005005 0.39991986751556396 0.24855908751487732 0 0 255
-0.24919311702251434 0.3949303925037384 0.26721519231796265 0 0 255
-0.24183471500873566 0.38633134961128235 0.25828099250793457 0 0 255
-0.424681693315506 0.25514668226242065 0.06473662704229355 0 0 255
-0.4135964810848236 0.44994381070137024 -0.12511278688907623 0 0 255
-0.4487501084804535 0.3790174126625061 -0.026797134429216385 0 0 255
-0.6297441720962524 0.07308241724967957 -0.13522401452064514 0 0 255
-0.4143456220626831 0.1879066526889801 -0.1756240576505661 0 0 255
-0.15991012752056122 0.28021150827407837 -0.1088559702038765 0 0 255
-0.137687548995018 0.30117177963256836 -0.09688004106283188 0 0 255
-0.10278517752885818 0.2952909469604492 -0.12199964374303818 0 0 255
-0.10250809043645859 0.29367610812187195 -0.13408465683460236 0 0 255
-0.12104223668575287 0.29366534948349 -0.17730233073234558 0 0 255
-0.19367749989032745 0.3079417049884796 -0.22784702479839325 0 0 255
-0.2039201855659485 0.3000360429286957 -0.26513397693634033 0 0 255
-0.2148941457271576 0.26730021834373474 -0.2813242971897125 0 0 255
-0.2021457403898239 0.28622573614120483 -0.24809078872203827 0 0 255
-0.17395266890525818 0.3198641538619995 -0.22449913620948792 0 0 255
-0.19943813979625702 0.32873547077178955 -0.18083703517913818 0 0 255
-0.15781313180923462 0.30288389325141907 -0.2039959877729416 0 0 255
-0.11619759351015091 0.30812573432922363 -0.18604251742362976 0 0 255
-0.08852633088827133 0.31695544719696045 -0.16393150389194489 0 0 255
-0.11825719475746155 0.33882763981819153 -0.14981792867183685 0 0 255
-0.12469837069511414 0.3244437575340271 -0.1051359549164772 0 0 255
-0.0935119092464447 0.31379833817481995 -0.05305157229304314 0 0 255
-0.12951798737049103 0.31280383467674255 -0.07132557779550552 0 0 255
-0.09276733547449112 0.320019006729126 -0.040613289922475815 0 0 255
-0.07910558581352234 0.32541924715042114 -0.0010329686338081956 0 0 255
-0.022529080510139465 0.3547109365463257 0.039365679025650024 0 0 255
-0.011541510932147503 0.332060843706131 0.01950058341026306 0 0 255
-0.04353005066514015 0.3019634187221527 0.0035765599459409714 0 0 255
-0.044509731233119965 0.31179100275039673 -0.04335688054561615 0 0 255
-0.06719642132520676 0.30757367610931396 0.009471869096159935 0 0 255
-0.07364540547132492 0.3111376464366913 0.015291452407836914 0 0 255
-0.15014785528182983 0.3436408042907715 0.025860082358121872 0 0 255
-0.11157266050577164 0.3458155691623688 0.01506087463349104 0 0 255
-0.10489461570978165 0.3525944948196411 0.037641122937202454 0 0 255
-0.13464002311229706 0.3545122444629669 0.02831229567527771 0 0 255
-0.17695632576942444 0.3376658260822296 0.0659535601735115 0 0 255
-0.1253759264945984 0.3443750739097595 0.1287265121936798 0 0 255
-0.1155044436454773 0.34817269444465637 0.2208179235458374 0 0 255
-0.06522620469331741 0.3419339656829834 0.2935534417629242 0 0 255
-0.03161247819662094 0.30631187558174133 0.34446635842323303 0 0 255
0.003525671549141407 0.3246577978134155 0.48077502846717834 0 0 255
0.08061123639345169 0.2550627589225769 0.6024238467216492 0 0 255
0.11626887321472168 0.1216316819190979 0.6524519920349121 0 0 255
0.0704139694571495 0.06329113990068436 0.6628782749176025 0 0 255
0.0729576125741005 0.03061346709728241 0.6616357564926147 0 0 255
0.01636858657002449 0.030464215204119682 0.6485983729362488 0 0 255
0.002040236722677946 0.001956748077645898 0.6194852590560913 0 0 255
-0.016996435821056366 -0.015752237290143967 0.6139770150184631 0 0 255
-0.026059530675411224 0.0060889688320457935 0.6028183102607727 0 0 255
-0.04514317214488983 -0.005490926560014486 0.6092961430549622 0 0 255
-0.06703711301088333 -0.00782637670636177 0.5971983671188354 0 0 255
-0.09824097156524658 0.018023252487182617 0.5977079272270203 0 0 255
-0.12255613505840302 0.00564776174724102 0.6038830876350403 0 0 255
-0.13576732575893402 0.013434032909572124 0.5994426012039185 0 0 255
-0.13684046268463135 0.04129519686102867 0.5869582295417786 0 0 255
-0.13742054998874664 0.024957647547125816 0.6017134189605713 0 0 255
-0.14217695593833923 0.016797229647636414 0.6086547374725342 0 0 255
-0.11272130906581879 0.012803644873201847 0.5912390947341919 0 0 255
-0.13300079107284546 0.010621796362102032 0.5760886073112488 0 0 255
-0.14745508134365082 -0.0018159181345254183 0.5712703466415405 0 0 255
-0.1151578277349472 -0.0004087318084202707 0.5687280893325806 0 0 255
-0.07752617448568344 -0.007119068875908852 0.5902900099754333 0 0 255
-0.03569376841187477 -0.02195378579199314 0.6070641279220581 0 0 255
-0.005708947312086821 -0.03795547038316727 0.6141477823257446 0 0 255
-0.017929160967469215 -0.018038004636764526 0.6236882209777832 0 0 255
-0.04171673208475113 0.019047128036618233 0.6613727807998657 0 0 255
-0.07046308368444443 0.10417664796113968 0.6450932025909424 0 0 255
-0.168296217918396 0.19697421789169312 0.5775695443153381 0 0 255
-0.19613495469093323 0.28211310505867004 0.5977720618247986 0 0 255
-0.2262517809867859 0.3067804276943207 0.5446107387542725 0 0 255
-0.2882682979106903 0.28410494327545166 0.43029579520225525 0 0 255
-0.4051383137702942 0.3037498891353607 0.2949671447277069 0 0 255
-0.4827076196670532 0.32778996229171753 0.20605772733688354 0 0 255
-0.5261978507041931 0.26246851682662964 0.22352243959903717 0 0 255
-0.4943123459815979 0.24360999464988708 0.26170462369918823 0 0 255
-0.44884535670280457 0.232224702835083 0.3092450499534607 0 0 255
-0.4390774965286255 0.17047666013240814 0.3359338045120239 0 0 255
-0.43009433150291443 0.1677839457988739 0.36169901490211487 0 0 255
-0.4291847348213196 0.17843876779079437 0.3715296685695648 0 0 255
-0.3870346248149872 0.14879098534584045 0.3978554904460907 0 0 255
-0.37008136510849 0.14877690374851227 0.3945551812648773 0 0 255
-0.3550894558429718 0.14289282262325287 0.43861836194992065 0 0 255
-0.3466428518295288 0.12909165024757385 0.44301819801330566 0 0 255
-0.33965879678726196 0.12586188316345215 0.4280867278575897 0 0 255
-0.37055763602256775 0.11157830059528351 0.39556869864463806 0 0 255
-0.4271417558193207 0.12687718868255615 0.3321228623390198 0 0 255
-0.4282989203929901 0.13274796307086945 0.3568676710128784 0 0 255
-0.40411728620529175 0.1392391473054886 0.34519609808921814 0 0 255
-0.40327662229537964 0.14378194510936737 0.3534185290336609 0 0 255
-0.44576379656791687 0.14483116567134857 0.3665595054626465 0 0 255
-0.44510117173194885 0.11812020093202591 0.3432527184486389 0 0 255
-0.43481966853141785 0.15453185141086578 0.3618375062942505 0 0 255
-0.419543981552124 0.15224838256835938 0.3606370687484741 0 0 255
-0.41100504994392395 0.14473794400691986 0.3570844531059265 0 0 255
-0.411186546087265 0.14318694174289703 0.3615669012069702 0 0 255
-0.40496352314949036 0.1270085871219635 0.37133684754371643 0 0 255
-0.4164865016937256 0.1421772539615631 0.33536750078201294 0 0 255
-0.45780205726623535 0.17901411652565002 0.3033483326435089 0 0 255
-0.48085349798202515 0.1943446397781372 0.2937981188297272 0 0 255
-0.4702906012535095 0.18877622485160828 0.26862892508506775 0 0 255
-0.49087706208229065 0.21273621916770935 0.21023695170879364 0 0 255
-0.5092425346374512 0.19356848299503326 0.2407779097557068 0 0 255
-0.4730154871940613 0.20288482308387756 0.2779078185558319 0 0 255
-0.4705316424369812 0.1802208125591278 0.3055013120174408 0 0 255
-0.4274911880493164 0.1790497601032257 0.3489600121974945 0 0 255
-0.394136905670166 0.19792503118515015 0.3336089253425598 0 0 255
-0.4018457233905792 0.21272633969783783 0.32833343744277954 0 0 255
-0.40997985005378723 0.1949685513973236 0.30508747696876526 0 0 255
-0.43435871601104736 0.21223191916942596 0.29820576310157776 0 0 255
-0.36454400420188904 0.21672235429286957 0.3324895203113556 0 0 255
-0.18586336076259613 0.14405688643455505 0.4013121426105499 0 0 255
0.10049467533826828 -0.10281747579574585 0.3653470575809479 0 0 255
0.1537005752325058 -0.24932411313056946 0.25376471877098083 0 0 255
-0.07100339233875275 -0.1277981400489807 0.40493133664131165 0 0 255
0.07217632979154587 -0.21670077741146088 0.39618542790412903 0 0 255
0.08383232355117798 -0.22523176670074463 0.2981770634651184 0 0 255
0.12173756957054138 -0.211636483669281 0.29702264070510864 0 0 255
0.165414497256279 -0.18391115963459015 0.2413114458322525 0 0 255
0.22322462499141693 -0.23917578160762787 0.22470471262931824 0 0 255
0.2336115688085556 -0.3369923532009125 0.10139192640781403 0 0 255
0.17075112462043762 -0.2106640636920929 0.13935332000255585 0 0 255
0.18081757426261902 -0.11282934993505478 0.3397439122200012 0 0 255
0.2341485172510147 -0.23901225626468658 0.5335062146186829 0 0 255
0.1983538717031479 -0.369334876537323 0.5281676054000854 0 0 255
0.17156052589416504 -0.23798708617687225 0.5408812761306763 0 0 255
0.2215111255645752 -0.1075950413942337 0.570830762386322 0 0 255
0.35477516055107117 -0.13990837335586548 0.559832751750946 0 0 255
0.47002148628234863 -0.15379178524017334 0.3982963562011719 0 0 255
0.38852089643478394 0.3685409426689148 0.1574629694223404 0 0 255
0.5132275819778442 0.013769793324172497 0.3092811703681946 0 0 255
0.46638625860214233 -0.2492731660604477 0.44053003191947937 0 0 255
0.4492189884185791 -0.14012177288532257 0.42579445242881775 0 0 255
0.41875460743904114 -0.17851603031158447 0.3844136893749237 0 0 255
0.3724678158760071 -0.1842045933008194 0.39929965138435364 0 0 255
0.3980705738067627 -0.19850781559944153 0.36206576228141785 0 0 255
0.34302258491516113 -0.26633450388908386 0.32609260082244873 0 0 255
0.3444252014160156 -0.26691052317619324 0.29636502265930176 0 0 255
0.3525395691394806 -0.2548031210899353 0.34447842836380005 0 0 255
0.36429110169410706 -0.24934740364551544 0.30338379740715027 0 0 255
0.2819289565086365 -0.2919403910636902 0.23788626492023468 0 0 255
-0.016022177413105965 -0.10536088794469833 0.025687845423817635 0 0 255
-0.2554021179676056 -0.06137465685606003 -0.28199610114097595 0 0 255
-0.22288864850997925 0.16452062129974365 0.13256068527698517 0 0 255
-0.5032120943069458 0.1858505755662918 0.2966260015964508 0 0 255
-0.2287113517522812 0.2232717126607895 0.5478463768959045 0 0 255
-0.21302823722362518 0.23986689746379852 0.5790350437164307 0 0 255
-0.24384285509586334 0.2511550486087799 0.5394748449325562 0 0 255
-0.2456967532634735 0.263330340385437 0.4650050401687622 0 0 255
-0.31936460733413696 0.2693632245063782 0.4267961084842682 0 0 255
-0.345126211643219 0.26841092109680176 0.3690453767776489 0 0 255
-0.3585594594478607 0.2611066401004791 0.3515130281448364 0 0 255
-0.3847234547138214 0.2130429893732071 0.3637600541114807 0 0 255
-0.4302426278591156 0.11707752197980881 0.3441196084022522 0 0 255
-0.4824109971523285 0.07218077778816223 0.33690503239631653 0 0 255
-0.5387808680534363 0.08662813156843185 0.29434940218925476 0 0 255
-0.5489323139190674 0.04375787079334259 0.3053015470504761 0 0 255
-0.551060140132904 0.038018323481082916 0.267328679561615 0 0 255
-0.6565978527069092 0.12511229515075684 0.01389757078140974 0 0 255
-0.6116843819618225 0.18124467134475708 -0.24822628498077393 0 0 255
-0.4273764193058014 0.21907708048820496 -0.42369523644447327 0 0 255
-0.2130851000547409 0.36609774827957153 -0.33073121309280396 0 0 255
0.06762639433145523 0.4698545038700104 -0.39969968795776367 0 0 255
-0.1532135009765625 0.2827944755554199 -0.1771095246076584 0 0 255
-0.04557797312736511 0.13403120636940002 -0.34013494849205017 0 0 255
-0.09109745919704437 0.5069168210029602 -0.2639210820198059 0 0 255
