ply
format ascii 1.0
element vertex 677
property float x
property float y
property float z
property uchar red
property uchar green
property uchar blue
end_header
-0.17233093082904816 0.07965167611837387 0.4135540723800659 255 127 0
-0.17997898161411285 0.08030955493450165 0.4114914834499359 255 127 0
-0.18355309963226318 0.08300875127315521 0.4314204156398773 255 127 0
-0.19316329061985016 0.08567900955677032 0.4440578520298004 255 127 0
-0.1915741264820099 0.08832768350839615 0.458601176738739 255 127 0
-0.15642285346984863 0.0920887216925621 0.4394303262233734 255 127 0
-0.12989340722560883 0.11630306392908096 0.4243617653846741 255 127 0
-0.14990225434303284 0.12364928424358368 0.3960372507572174 255 127 0
-0.13478726148605347 0.0805196687579155 0.34704065322875977 255 127 0
-0.11484617739915848 0.07377772778272629 0.2942599654197693 255 127 0
-0.079014852643013 0.07677029818296432 0.22331419587135315 255 127 0
-0.08191563189029694 0.07734545320272446 0.19512774050235748 255 127 0
-0.08796505630016327 0.07210422307252884 0.22468134760856628 255 127 0
-0.09246775507926941 0.08732404559850693 0.24761638045310974 255 127 0
-0.07531128078699112 0.08346723020076752 0.25337183475494385 255 127 0
-0.10436442494392395 0.11141732335090637 0.29219838976860046 255 127 0
-0.10464736819267273 0.09418551623821259 0.29636484384536743 255 127 0
-0.12863893806934357 0.09594038873910904 0.30701395869255066 255 127 0
-0.12439477443695068 0.11474552750587463 0.2999684810638428 255 127 0
-0.11521586775779724 0.10204745084047318 0.3497927784919739 255 127 0
-0.1457132250070572 0.082211934030056 0.35057011246681213 255 127 0
-0.16582752764225006 0.0999724268913269 0.38724204897880554 255 127 0
-0.16578499972820282 0.11493522673845291 0.40535837411880493 255 127 0
-0.16884474456310272 0.10998637974262238 0.40192458033561707 255 127 0
-0.1458452343940735 0.11183331161737442 0.3850233554840088 255 127 0
-0.13049396872520447 0.1239626333117485 0.3664114773273468 255 127 0
-0.13425837457180023 0.12855692207813263 0.3640504777431488 255 127 0
-0.16460929811000824 0.10579270124435425 0.3877026438713074 255 127 0
-0.18449841439723969 0.10609942674636841 0.3975162208080292 255 127 0
-0.18034610152244568 0.10872255265712738 0.42575475573539734 255 127 0
-0.1667533814907074 0.11368276923894882 0.42032498121261597 255 127 0
-0.16494929790496826 0.11557162553071976 0.4340191185474396 255 127 0
-0.18127404153347015 0.10884649306535721 0.41954222321510315 255 127 0
-0.19224436581134796 0.10826292634010315 0.4755328893661499 255 127 0
-0.18882130086421967 0.10461258888244629 0.4327872097492218 255 127 0
-0.17049509286880493 0.09807656705379486 0.45845237374305725 255 127 0
-0.19376641511917114 0.10220607370138168 0.4386756122112274 255 127 0
-0.19070693850517273 0.10910657793283463 0.43115124106407166 255 127 0
-0.2120458036661148 0.11727117002010345 0.4430738687515259 255 127 0
-0.1554432213306427 0.06770435720682144 0.37449148297309875 255 127 0
-0.19050540030002594 0.07713720947504044 0.4260331392288208 255 127 0
-0.16590940952301025 0.11900510638952255 0.42846208810806274 255 127 0
-0.20007646083831787 0.15900549292564392 0.38161399960517883 255 127 0
-0.1599513441324234 0.14383067190647125 0.3812214732170105 255 127 0
-0.16009360551834106 0.12923753261566162 0.3963071405887604 255 127 0
-0.14105865359306335 0.10008817166090012 0.4014752507209778 255 127 0
0.1070718765258789 0.03774324804544449 0.3671293258666992 255 127 0
0.3805910646915436 0.05409904941916466 -0.6178301572799683 255 127 0
0.10425681620836258 0.11087395995855331 -0.6164064407348633 255 127 0
0.1640009731054306 0.03649822622537613 -0.665317952632904 255 127 0
0.14605168998241425 0.07039912045001984 -0.6893399357795715 255 127 0
0.11729691922664642 0.02728154882788658 -0.6627151966094971 255 127 0
0.10263825207948685 0.0035147995222359896 -0.6037622094154358 255 127 0
0.1091909110546112 -3.5306959034642205e-05 -0.561627209186554 255 127 0
0.09247175604104996 -0.007030168082565069 -0.5435276031494141 255 127 0
0.08413514494895935 -0.01619720831513405 -0.528072714805603 255 127 0
0.064803346991539 -0.0263851098716259 -0.5304090976715088 255 127 0
0.08426398783922195 -0.045910678803920746 -0.5027217864990234 255 127 0
0.11650092899799347 -0.013869574293494225 -0.5014144778251648 255 127 0
0.11042708903551102 -0.018492039293050766 -0.49768513441085815 255 127 0
0.11791491508483887 -0.033441998064517975 -0.48672768473625183 255 127 0
0.1296609789133072 -0.034632738679647446 -0.4881966710090637 255 127 0
0.11988525092601776 -0.04846988245844841 -0.4992541968822479 255 127 0
0.09174663573503494 -0.03587416559457779 -0.4806007444858551 255 127 0
0.10732759535312653 -0.060133498162031174 -0.4435942769050598 255 127 0
0.07540828734636307 -0.07646702229976654 -0.41005122661590576 255 127 0
0.07620174437761307 -0.02708389051258564 -0.38774335384368896 255 127 0
0.07669799029827118 0.0025734531227499247 -0.37155893445014954 255 127 0
0.05369751527905464 -0.062267594039440155 -0.3669202923774719 255 127 0
0.08264531940221786 -0.03395785763859749 -0.3937452435493469 255 127 0
0.12403794378042221 -0.04668974503874779 -0.4207386374473572 255 127 0
0.11251229047775269 -0.05241381376981735 -0.367447167634964 255 127 0
0.06589857488870621 -0.003883942263200879 -0.40778443217277527 255 127 0
0.11500652879476547 0.013771315105259418 -0.37008556723594666 255 127 0
0.05829480290412903 0.00739130238071084 -0.3180038034915924 255 127 0
0.048100974410772324 -0.043281108140945435 -0.30102136731147766 255 127 0
0.027923494577407837 -0.030816489830613136 -0.2561602294445038 255 127 0
0.018740838393568993 -0.06534945219755173 -0.23556949198246002 255 127 0
0.01492384448647499 -0.07663208991289139 -0.2551978826522827 255 127 0
0.0790027529001236 -0.027024542912840843 -0.3819465935230255 255 127 0
0.10384787619113922 -0.030379576608538628 -0.3939541280269623 255 127 0
0.0734633058309555 -0.017394328489899635 -0.42391082644462585 255 127 0
0.10201118886470795 0.00071216985816136 -0.4617188572883606 255 127 0
0.09103578329086304 -0.03972158208489418 -0.4406718909740448 255 127 0
0.06864341348409653 -0.04674680158495903 -0.39016127586364746 255 127 0
0.11558479070663452 0.0024410211481153965 -0.4158841073513031 255 127 0
0.05808943137526512 -0.007986923679709435 -0.3613269031047821 255 127 0
0.08831092715263367 -0.014865325763821602 -0.33589789271354675 255 127 0
0.09229667484760284 -0.040065255016088486 -0.3328733444213867 255 127 0
0.09958267211914062 -0.03824903443455696 -0.3680480718612671 255 127 0
0.07439623028039932 -0.04454725980758667 -0.41131705045700073 255 127 0
0.13213422894477844 -0.030712589621543884 -0.4452448785305023 255 127 0
0.1368703544139862 -0.0480402372777462 -0.4689502716064453 255 127 0
0.14017567038536072 -0.049001917243003845 -0.4780135154724121 255 127 0
0.1270940899848938 -0.05567391961812973 -0.5130016803741455 255 127 0
0.14551055431365967 -0.08070544898509979 -0.5234377980232239 255 127 0
0.1412983387708664 -0.06110948696732521 -0.5234995484352112 255 127 0
0.16230474412441254 -0.05388064309954643 -0.5192282795906067 255 127 0
0.16049829125404358 -0.043318115174770355 -0.5328951478004456 255 127 0
0.14456193149089813 -0.044705770909786224 -0.5334007740020752 255 127 0
0.14149367809295654 -0.04165404662489891 -0.5401777625083923 255 127 0
0.17497552931308746 -0.05132207274436951 -0.5071448087692261 255 127 0
0.14750652015209198 -0.05820499360561371 -0.5347697138786316 255 127 0
0.09066719561815262 -0.0737515389919281 -0.5066763162612915 255 127 0
0.17214205861091614 -0.029275568202137947 -0.5870233774185181 255 127 0
0.22179073095321655 0.011640633456408978 -0.5412245988845825 255 127 0
0.15094883739948273 0.010803807526826859 -0.593056857585907 255 127 0
0.11975143104791641 -0.06466355174779892 -0.5611223578453064 255 127 0
0.14259681105613708 -0.06808096170425415 -0.488969087600708 255 127 0
0.13013127446174622 -0.052607640624046326 -0.5246767401695251 255 127 0
0.1941135823726654 -0.01457818690687418 -0.5239831805229187 255 127 0
0.16837896406650543 0.015976671129465103 -0.4954121708869934 255 127 0
0.11260076612234116 -0.007983759976923466 -0.4409831464290619 255 127 0
0.13560815155506134 -0.041303426027297974 -0.4233935475349426 255 127 0
0.055853527039289474 -0.022888395935297012 -0.5376285314559937 255 127 0
0.16866880655288696 -0.035520583391189575 -0.5661676526069641 255 127 0
0.19965144991874695 0.011442023329436779 -0.6405044198036194 255 127 0
0.18597830832004547 -0.06879357248544693 -0.6496828198432922 255 127 0
0.17916294932365417 -0.050291188061237335 -0.6198364496231079 255 127 0
0.14582395553588867 0.1304263323545456 -0.6870366930961609 255 127 0
0.02451534941792488 -0.03884388133883476 -0.7752166986465454 255 127 0
0.027098888531327248 -0.15364132821559906 -0.666739284992218 255 127 0
0.1404392570257187 -0.04815613478422165 -0.649776816368103 255 127 0
0.0966247022151947 -0.0301225408911705 -0.6575239896774292 255 127 0
0.138138085603714 -0.08646000176668167 -0.6463313698768616 255 127 0
0.11443407088518143 -0.09728008508682251 -0.5912424921989441 255 127 0
0.15599694848060608 0.024357805028557777 -0.5891973972320557 255 127 0
0.23229339718818665 -0.0098054688423872 -0.5381816029548645 255 127 0
0.1894240826368332 -0.009137075394392014 -0.5621187090873718 255 127 0
0.1873825341463089 -0.014533424749970436 -0.4861023426055908 255 127 0
0.14935041964054108 -0.011793775483965874 -0.3975851237773895 255 127 0
0.11107417941093445 0.014930104836821556 -0.3015590012073517 255 127 0
0.07804396003484726 -0.06312473863363266 -0.18113237619400024 255 127 0
-0.010822989046573639 -0.07084469497203827 -0.13973823189735413 255 127 0
0.05712736397981644 -0.11457984149456024 -0.09413109719753265 255 127 0
0.016364309936761856 -0.11175309121608734 -0.16453641653060913 255 127 0
-0.017505887895822525 -0.07762836664915085 -0.2711057662963867 255 127 0
0.012153872288763523 -0.1250491887331009 -0.3194049894809723 255 127 0
0.11410059034824371 -0.07316562533378601 -0.2981373071670532 255 127 0
0.06351311504840851 -0.13894887268543243 -0.32560646533966064 255 127 0
0.07017301768064499 -0.14037948846817017 -0.31879448890686035 255 127 0
0.1139209121465683 -0.12310206890106201 -0.4066111743450165 255 127 0
0.12498550862073898 -0.09666711837053299 -0.3833600580692291 255 127 0
0.13205468654632568 -0.11151346564292908 -0.3717666566371918 255 127 0
0.12029469013214111 -0.11229301244020462 -0.3420303463935852 255 127 0
0.11625076830387115 -0.1364259421825409 -0.3274805545806885 255 127 0
0.10996493697166443 -0.1312665045261383 -0.30072736740112305 255 127 0
0.12086082249879837 -0.10462036728858948 -0.33804747462272644 255 127 0
0.12523195147514343 -0.1064884290099144 -0.3571770489215851 255 127 0
0.11704742908477783 -0.09725207090377808 -0.3604830801486969 255 127 0
0.10825903713703156 -0.11640513688325882 -0.34869277477264404 255 127 0
0.09350208193063736 -0.12170751392841339 -0.3301071524620056 255 127 0
0.06654071807861328 -0.14232900738716125 -0.33191901445388794 255 127 0
0.07849498093128204 -0.12048043310642242 -0.3220740258693695 255 127 0
0.08870463818311691 -0.14269715547561646 -0.29736462235450745 255 127 0
0.09147220104932785 -0.13598746061325073 -0.2936301827430725 255 127 0
0.0903329998254776 -0.15714097023010254 -0.30771154165267944 255 127 0
0.08027419447898865 -0.1553092896938324 -0.31551191210746765 255 127 0
0.08659151941537857 -0.15418857336044312 -0.29996973276138306 255 127 0
0.10252126306295395 -0.16833145916461945 -0.3262479305267334 255 127 0
0.10577370226383209 -0.15526311099529266 -0.34304291009902954 255 127 0
0.10139260441064835 -0.15224948525428772 -0.35622042417526245 255 127 0
0.1231403723359108 -0.15089547634124756 -0.3683081865310669 255 127 0
0.12936483323574066 -0.16842007637023926 -0.37154778838157654 255 127 0
0.1281384825706482 -0.15674450993537903 -0.38858070969581604 255 127 0
0.1269536316394806 -0.16771440207958221 -0.3933035731315613 255 127 0
0.12391889095306396 -0.14938198029994965 -0.40535038709640503 255 127 0
0.13008229434490204 -0.14684687554836273 -0.40928730368614197 255 127 0
0.13185402750968933 -0.15191777050495148 -0.4230574071407318 255 127 0
0.12184655666351318 -0.15115444362163544 -0.42217278480529785 255 127 0
0.13416843116283417 -0.16056318581104279 -0.41118618845939636 255 127 0
0.1277485489845276 -0.15691019594669342 -0.37721797823905945 255 127 0
0.14083774387836456 -0.15596823394298553 -0.36406129598617554 255 127 0
0.12961509823799133 -0.16405875980854034 -0.36564576625823975 255 127 0
0.10368883609771729 -0.1534646451473236 -0.34492000937461853 255 127 0
0.11638553440570831 -0.1645919680595398 -0.33942747116088867 255 127 0
0.14302958548069 -0.14111098647117615 -0.3598681092262268 255 127 0
0.144239142537117 -0.1281338930130005 -0.3863901197910309 255 127 0
0.1215524971485138 -0.1565626859664917 -0.4013146162033081 255 127 0
0.13772383332252502 -0.16141876578330994 -0.37186989188194275 255 127 0
0.134279265999794 -0.1499481052160263 -0.39495354890823364 255 127 0
0.13413883745670319 -0.16352488100528717 -0.3546748161315918 255 127 0
0.11606231331825256 -0.178806334733963 -0.3557901680469513 255 127 0
0.11759082227945328 -0.16962459683418274 -0.3452748656272888 255 127 0
0.11631254851818085 -0.18026626110076904 -0.34944602847099304 255 127 0
0.13551515340805054 -0.1606285721063614 -0.3791104853153229 255 127 0
0.14504772424697876 -0.1452954262495041 -0.39980730414390564 255 127 0
0.15678860247135162 -0.16011089086532593 -0.3991091847419739 255 127 0
0.17262649536132812 -0.12772274017333984 -0.40294861793518066 255 127 0
0.1938689798116684 -0.11834967136383057 -0.42682239413261414 255 127 0
0.20083729922771454 -0.1329476237297058 -0.4447753131389618 255 127 0
0.21451729536056519 -0.1112673357129097 -0.44371622800827026 255 127 0
0.2344830185174942 -0.07965228706598282 -0.48422276973724365 255 127 0
0.2446337342262268 -0.09427851438522339 -0.4916848838329315 255 127 0
0.22672782838344574 -0.07477059960365295 -0.515245795249939 255 127 0
0.21724236011505127 -0.1095321998000145 -0.5100942254066467 255 127 0
0.23439623415470123 -0.10297331213951111 -0.4753994047641754 255 127 0
0.23484213650226593 -0.11676385998725891 -0.45206302404403687 255 127 0
0.2590009570121765 -0.12756285071372986 -0.41654226183891296 255 127 0
0.13418903946876526 -0.12904030084609985 -0.35366567969322205 255 127 0
0.13494624197483063 -0.13279719650745392 -0.3199445605278015 255 127 0
0.15714170038700104 -0.16787941753864288 -0.2992843985557556 255 127 0
0.1808452606201172 -0.17259608209133148 -0.37818610668182373 255 127 0
0.1473776400089264 -0.15128549933433533 -0.39580586552619934 255 127 0
0.1745881587266922 -0.15829768776893616 -0.43826133012771606 255 127 0
0.18355077505111694 -0.13954350352287292 -0.43018725514411926 255 127 0
0.1924131214618683 -0.11582065373659134 -0.4472697675228119 255 127 0
0.17594127357006073 -0.15009185671806335 -0.4222446382045746 255 127 0
0.17470747232437134 -0.14848221838474274 -0.4149908125400543 255 127 0
0.15377070009708405 -0.16645264625549316 -0.38548558950424194 255 127 0
0.1487094908952713 -0.1976376473903656 -0.3872958719730377 255 127 0
0.1635691076517105 -0.20403370261192322 -0.3608412444591522 255 127 0
0.14730829000473022 -0.20754395425319672 -0.37864965200424194 255 127 0
0.13714559376239777 -0.21584713459014893 -0.34997010231018066 255 127 0
0.18436750769615173 -0.20999374985694885 -0.3750494420528412 255 127 0
0.18614806234836578 -0.21926471590995789 -0.35503965616226196 255 127 0
0.17811527848243713 -0.2236621230840683 -0.3285428583621979 255 127 0
0.16011275351047516 -0.24538464844226837 -0.2869187295436859 255 127 0
0.14967080950737 -0.22934040427207947 -0.25074851512908936 255 127 0
0.16308419406414032 -0.21962587535381317 -0.2753205895423889 255 127 0
0.1546991616487503 -0.20777848362922668 -0.29681840538978577 255 127 0
0.19205591082572937 -0.19011914730072021 -0.3268711268901825 255 127 0
0.20558464527130127 -0.18377141654491425 -0.3533158004283905 255 127 0
0.21259059011936188 -0.16174708306789398 -0.37468183040618896 255 127 0
0.20339268445968628 -0.1568116545677185 -0.40143826603889465 255 127 0
0.2105484902858734 -0.14994856715202332 -0.39645031094551086 255 127 0
0.22126510739326477 -0.14135807752609253 -0.39437684416770935 255 127 0
0.2141219526529312 -0.14995858073234558 -0.38606417179107666 255 127 0
0.2044133096933365 -0.14863267540931702 -0.35860151052474976 255 127 0
0.19833503663539886 -0.14550182223320007 -0.33533522486686707 255 127 0
0.1792740821838379 -0.17338047921657562 -0.2943534851074219 255 127 0
0.15851393342018127 -0.1683303713798523 -0.2648439109325409 255 127 0
0.14088863134384155 -0.15959776937961578 -0.23456072807312012 255 127 0
0.13134561479091644 -0.1807134598493576 -0.22138164937496185 255 127 0
0.1256987303495407 -0.19161419570446014 -0.20552201569080353 255 127 0
0.14079251885414124 -0.18794673681259155 -0.22798128426074982 255 127 0
0.1467919647693634 -0.17659150063991547 -0.22612833976745605 255 127 0
0.17224393784999847 -0.1885707527399063 -0.263725221157074 255 127 0
0.15821386873722076 -0.19087156653404236 -0.24864043295383453 255 127 0
0.15284773707389832 -0.16803213953971863 -0.27977898716926575 255 127 0
0.182378888130188 -0.1849486231803894 -0.2872418165206909 255 127 0
0.19195154309272766 -0.18473613262176514 -0.353525310754776 255 127 0
0.20127692818641663 -0.16249963641166687 -0.38448095321655273 255 127 0
0.2214931845664978 -0.1696161925792694 -0.4142462909221649 255 127 0
0.212448388338089 -0.16353380680084229 -0.39907991886138916 255 127 0
0.20942255854606628 -0.160492405295372 -0.41542181372642517 255 127 0
0.20883378386497498 -0.17778275907039642 -0.3976367712020874 255 127 0
0.1975473165512085 -0.17763745784759521 -0.39002931118011475 255 127 0
0.19383922219276428 -0.17808237671852112 -0.3825993537902832 255 127 0
0.1967850625514984 -0.1743350625038147 -0.37511202692985535 255 127 0
0.19996389746665955 -0.17708435654640198 -0.39177921414375305 255 127 0
0.21750156581401825 -0.15915624797344208 -0.39010709524154663 255 127 0
0.23079226911067963 -0.14794787764549255 -0.4136398136615753 255 127 0
0.23801696300506592 -0.14546313881874084 -0.42652592062950134 255 127 0
0.24890077114105225 -0.1406814604997635 -0.4429209530353546 255 127 0
0.26191380620002747 -0.14299634099006653 -0.4589853584766388 255 127 0
0.24638640880584717 -0.12276645004749298 -0.42312192916870117 255 127 0
0.26984167098999023 -0.12887972593307495 -0.44329071044921875 255 127 0
0.18609584867954254 -0.1618691235780716 -0.3436964452266693 255 127 0
0.18543741106987 -0.12704935669898987 -0.3575756847858429 255 127 0
0.16645817458629608 -0.13762061297893524 -0.32174110412597656 255 127 0
0.16247066855430603 -0.14035804569721222 -0.32115626335144043 255 127 0
0.1703241914510727 -0.1381237506866455 -0.32968226075172424 255 127 0
0.16878657042980194 -0.1390109807252884 -0.32770442962646484 255 127 0
0.15808454155921936 -0.15155114233493805 -0.3245185315608978 255 127 0
0.1629350632429123 -0.16120213270187378 -0.31916600465774536 255 127 0
0.16516359150409698 -0.15729941427707672 -0.3144322633743286 255 127 0
0.1648339033126831 -0.15362727642059326 -0.32485246658325195 255 127 0
0.16426025331020355 -0.15486609935760498 -0.30576449632644653 255 127 0
0.15922608971595764 -0.15090547502040863 -0.31381338834762573 255 127 0
0.15462887287139893 -0.14968593418598175 -0.3040475845336914 255 127 0
0.1636386513710022 -0.1545395851135254 -0.3112085461616516 255 127 0
0.16000382602214813 -0.1472875326871872 -0.3081459403038025 255 127 0
0.16892249882221222 -0.15242859721183777 -0.3267749547958374 255 127 0
0.16698281466960907 -0.1617724448442459 -0.3216285705566406 255 127 0
0.16254320740699768 -0.15433040261268616 -0.33429333567619324 255 127 0
0.16968946158885956 -0.14655964076519012 -0.33654120564460754 255 127 0
0.16378740966320038 -0.16232948005199432 -0.33046767115592957 255 127 0
0.16209366917610168 -0.15832258760929108 -0.34099557995796204 255 127 0
0.17380422353744507 -0.1475837528705597 -0.36037057638168335 255 127 0
0.17109186947345734 -0.13953207433223724 -0.37464022636413574 255 127 0
0.16484114527702332 -0.17710040509700775 -0.3854081630706787 255 127 0
0.16141222417354584 -0.15245060622692108 -0.37303197383880615 255 127 0
0.19219504296779633 -0.1466340273618698 -0.41964736580848694 255 127 0
0.19051668047904968 -0.14728912711143494 -0.4390438199043274 255 127 0
0.1894267052412033 -0.1486254334449768 -0.4369354546070099 255 127 0
0.19218644499778748 -0.14676719903945923 -0.4247934818267822 255 127 0
0.19499553740024567 -0.1478154957294464 -0.4264618158340454 255 127 0
0.17314018309116364 -0.15544092655181885 -0.4117788076400757 255 127 0
0.1883775293827057 -0.15350927412509918 -0.40991511940956116 255 127 0
0.18767909705638885 -0.1389450877904892 -0.41508129239082336 255 127 0
0.19179697334766388 -0.14374370872974396 -0.42278748750686646 255 127 0
0.19809511303901672 -0.15078261494636536 -0.43080082535743713 255 127 0
0.1933632642030716 -0.15982501208782196 -0.43660590052604675 255 127 0
0.18232107162475586 -0.16421611607074738 -0.41550198197364807 255 127 0
0.2068699151277542 -0.14155761897563934 -0.43526691198349 255 127 0
0.21276922523975372 -0.12278816848993301 -0.45019611716270447 255 127 0
0.20899908244609833 -0.150810107588768 -0.43279513716697693 255 127 0
0.2500843107700348 -0.05879117175936699 -0.4882488548755646 255 127 0
0.2532273828983307 -0.0810435563325882 -0.5325499773025513 255 127 0
0.22740544378757477 -0.11339140683412552 -0.5163396596908569 255 127 0
0.2257179468870163 -0.09805313497781754 -0.515322744846344 255 127 0
0.2312501072883606 -0.10153979808092117 -0.5107070803642273 255 127 0
0.227017343044281 -0.09521227329969406 -0.5089865326881409 255 127 0
0.23568297922611237 -0.08154627680778503 -0.516884446144104 255 127 0
0.22267431020736694 -0.10676461458206177 -0.5056955218315125 255 127 0
0.21795561909675598 -0.13363681733608246 -0.5144822597503662 255 127 0
0.21759581565856934 -0.13639052212238312 -0.5250316262245178 255 127 0
0.22011901438236237 -0.14125752449035645 -0.5388680696487427 255 127 0
0.22978061437606812 -0.13318805396556854 -0.5451201796531677 255 127 0
0.23704029619693756 -0.09528988599777222 -0.5760010480880737 255 127 0
0.23293788731098175 -0.14170320332050323 -0.5785340666770935 255 127 0
0.23601754009723663 -0.13205638527870178 -0.5761091709136963 255 127 0
0.268619179725647 -0.13740313053131104 -0.5849243998527527 255 127 0
0.1692599356174469 -0.15466342866420746 -0.5982401967048645 255 127 0
0.18546757102012634 -0.17103160917758942 -0.5824308395385742 255 127 0
0.20973514020442963 -0.10931756347417831 -0.5747154355049133 255 127 0
0.25923532247543335 -0.07468000799417496 -0.6051782369613647 255 127 0
0.2493409365415573 -0.05743485689163208 -0.6083952784538269 255 127 0
0.2589152753353119 -0.03799379989504814 -0.6150544285774231 255 127 0
0.262863427400589 -0.04144128039479256 -0.6150180697441101 255 127 0
0.2604409456253052 -0.044665832072496414 -0.6237749457359314 255 127 0
0.2691977024078369 -0.048381906002759933 -0.6285274624824524 255 127 0
0.2606331408023834 -0.037519633769989014 -0.6352758407592773 255 127 0
0.2534217834472656 -0.0502115935087204 -0.652418851852417 255 127 0
0.26251527667045593 -0.054046664386987686 -0.64410799741745 255 127 0
0.25364190340042114 -0.060203488916158676 -0.6395865678787231 255 127 0
0.26944825053215027 -0.048092469573020935 -0.6394749879837036 255 127 0
0.2487587183713913 -0.047041308134794235 -0.6572697162628174 255 127 0
0.24401766061782837 -0.04975593835115433 -0.6489829421043396 255 127 0
0.24265506863594055 -0.04697103798389435 -0.6421673893928528 255 127 0
0.23201236128807068 -0.06119343638420105 -0.6436982750892639 255 127 0
0.2248024344444275 -0.05378931015729904 -0.6326475739479065 255 127 0
0.23226076364517212 -0.03623085096478462 -0.6149073243141174 255 127 0
0.22419732809066772 -0.013171524740755558 -0.6050649881362915 255 127 0
0.23086586594581604 -0.016587011516094208 -0.5879192352294922 255 127 0
0.22453036904335022 0.01313478872179985 -0.5987831354141235 255 127 0
0.21855053305625916 0.0029605915769934654 -0.5967285633087158 255 127 0
0.20765560865402222 -0.012316271662712097 -0.5979409217834473 255 127 0
0.21034406125545502 -0.022513946518301964 -0.5979101657867432 255 127 0
0.22118186950683594 -0.03205583989620209 -0.6004403233528137 255 127 0
0.23004063963890076 -0.028553323820233345 -0.6154428720474243 255 127 0
0.22846361994743347 -0.034585997462272644 -0.6125182509422302 255 127 0
0.23395076394081116 -0.018988505005836487 -0.6114466786384583 255 127 0
0.23143628239631653 -0.024484507739543915 -0.6085293889045715 255 127 0
0.21972176432609558 -0.02374490350484848 -0.6055694818496704 255 127 0
0.2352757304906845 -0.012739748694002628 -0.5985884666442871 255 127 0
0.20526117086410522 -0.002453744178637862 -0.5790361166000366 255 127 0
0.20763784646987915 -0.03269968181848526 -0.5828675031661987 255 127 0
0.21403859555721283 -0.005890719126909971 -0.5812674760818481 255 127 0
0.22416432201862335 0.006483215373009443 -0.5854336023330688 255 127 0
0.20594878494739532 0.013096744194626808 -0.5751159191131592 255 127 0
0.23298649489879608 -0.0011727707460522652 -0.5766298770904541 255 127 0
0.21103599667549133 0.050129178911447525 -0.5456624031066895 255 127 0
0.2265833467245102 0.0455489419400692 -0.509315550327301 255 127 0
0.21919646859169006 0.06040265038609505 -0.5052229166030884 255 127 0
0.17724201083183289 0.05719875916838646 -0.4778099060058594 255 127 0
0.15800228714942932 0.020931288599967957 -0.4412192404270172 255 127 0
0.17719072103500366 -0.002257335465401411 -0.4437902867794037 255 127 0
0.1745505928993225 0.01634964533150196 -0.45185890793800354 255 127 0
0.22294719517230988 -0.0032233151141554117 -0.45667511224746704 255 127 0
0.18609213829040527 0.011078563518822193 -0.44629964232444763 255 127 0
0.21248310804367065 0.05652421712875366 -0.42469847202301025 255 127 0
0.1674671322107315 0.07342758774757385 -0.40407001972198486 255 127 0
0.17191047966480255 0.020351748913526535 -0.4299774467945099 255 127 0
0.19902341067790985 0.011903339065611362 -0.4960094094276428 255 127 0
0.18990764021873474 -0.00666810991242528 -0.5089789032936096 255 127 0
0.21377836167812347 0.020309120416641235 -0.48356977105140686 255 127 0
0.21339963376522064 0.04952629655599594 -0.4587426781654358 255 127 0
0.2289162129163742 0.020207222551107407 -0.4848957061767578 255 127 0
0.22575312852859497 0.010774290189146996 -0.4897870421409607 255 127 0
0.1867476850748062 0.060275524854660034 -0.4044720530509949 255 127 0
0.17751756310462952 0.09997087717056274 -0.3243662416934967 255 127 0
0.11499907821416855 0.12625864148139954 -0.19995898008346558 255 127 0
0.09880193322896957 0.1204022690653801 -0.05275566130876541 255 127 0
0.0035200745332986116 0.20931565761566162 -0.0009988952660933137 255 127 0
-0.08083008974790573 0.17766861617565155 0.11570074409246445 255 127 0
-0.10343323647975922 0.20414313673973083 0.2493211328983307 255 127 0
-0.14677134156227112 0.16722626984119415 0.2636798322200775 255 127 0
-0.12240545451641083 0.16742295026779175 0.2263677418231964 255 127 0
-0.12553191184997559 0.177002415060997 0.24262818694114685 255 127 0
-0.10523443669080734 0.16960369050502777 0.2127915918827057 255 127 0
-0.09995072335004807 0.154851034283638 0.2277844399213791 255 127 0
-0.09053031355142593 0.15750879049301147 0.21963849663734436 255 127 0
-0.07437225431203842 0.16478392481803894 0.23587210476398468 255 127 0
-0.09519493579864502 0.16832228004932404 0.2803971469402313 255 127 0
-0.09577066451311111 0.181820809841156 0.27318432927131653 255 127 0
-0.10117526352405548 0.1674152910709381 0.2983681857585907 255 127 0
-0.10940665006637573 0.16805894672870636 0.2949555516242981 255 127 0
-0.13089150190353394 0.15560196340084076 0.32725203037261963 255 127 0
-0.14541077613830566 0.14500874280929565 0.33464550971984863 255 127 0
-0.15479300916194916 0.1352260261774063 0.34412842988967896 255 127 0
-0.1364881545305252 0.1431555449962616 0.3367178738117218 255 127 0
-0.1236734390258789 0.14706753194332123 0.3351977467536926 255 127 0
-0.1189480870962143 0.16294023394584656 0.32386255264282227 255 127 0
-0.1315300613641739 0.1617807149887085 0.33468717336654663 255 127 0
-0.13414061069488525 0.14497701823711395 0.3304601013660431 255 127 0
-0.15397921204566956 0.13724979758262634 0.35037440061569214 255 127 0
-0.1413538008928299 0.1392158418893814 0.34428736567497253 255 127 0
-0.15349110960960388 0.14742125570774078 0.3459462523460388 255 127 0
-0.15805472433567047 0.14051726460456848 0.3479470908641815 255 127 0
-0.16036871075630188 0.1316949725151062 0.3458952307701111 255 127 0
-0.17068122327327728 0.1351303905248642 0.3635976314544678 255 127 0
-0.18275892734527588 0.14735481142997742 0.3645480275154114 255 127 0
-0.173546701669693 0.14660312235355377 0.3913394808769226 255 127 0
-0.1981067955493927 0.14410927891731262 0.3569302260875702 255 127 0
-0.20609529316425323 0.13968700170516968 0.35564860701560974 255 127 0
-0.20393557846546173 0.14546816051006317 0.3662474751472473 255 127 0
-0.1759473979473114 0.14236319065093994 0.3442090153694153 255 127 0
-0.1796102523803711 0.14236432313919067 0.32712024450302124 255 127 0
-0.17792774736881256 0.1267131268978119 0.29879051446914673 255 127 0
-0.15981291234493256 0.11048170924186707 0.32678452134132385 255 127 0
-0.17391091585159302 0.11883345246315002 0.34082165360450745 255 127 0
-0.099297434091568 0.16221904754638672 0.2905403673648834 255 127 0
-0.12339851260185242 0.1529066115617752 0.2939423620700836 255 127 0
-0.10289709270000458 0.1293283998966217 0.28519418835639954 255 127 0
-0.10749851167201996 0.15051034092903137 0.287167489528656 255 127 0
-0.14414751529693604 0.13514959812164307 0.29622673988342285 255 127 0
-0.15827760100364685 0.15316936373710632 0.2621600031852722 255 127 0
-0.13840468227863312 0.1458912193775177 0.2833540141582489 255 127 0
-0.14160369336605072 0.11993912607431412 0.2984887659549713 255 127 0
-0.12610368430614471 0.14049582183361053 0.31099754571914673 255 127 0
-0.11676935106515884 0.13380782306194305 0.33785438537597656 255 127 0
-0.17806337773799896 0.1513315737247467 0.3758040964603424 255 127 0
-0.17917601764202118 0.14438487589359283 0.4017188251018524 255 127 0
-0.2284923940896988 0.10367390513420105 0.4390229880809784 255 127 0
-0.21108190715312958 0.10783453285694122 0.4187491834163666 255 127 0
-0.19728322327136993 0.109080471098423 0.4594549238681793 255 127 0
-0.1953067183494568 0.08101304620504379 0.4845234453678131 255 127 0
-0.1671113520860672 0.0827544555068016 0.4510723948478699 255 127 0
-0.2178097367286682 0.11560091376304626 0.3964743912220001 255 127 0
-0.1900554895401001 0.10774828493595123 0.3955966532230377 255 127 0
-0.1979292631149292 0.09690124541521072 0.4722021818161011 255 127 0
-0.2275453358888626 0.10024158656597137 0.45599573850631714 255 127 0
-0.19667881727218628 0.11091265082359314 0.44557449221611023 255 127 0
-0.18896974623203278 0.1118263378739357 0.42891913652420044 255 127 0
-0.18959589302539825 0.060820385813713074 0.43148624897003174 255 127 0
-0.18905438482761383 0.06713422387838364 0.44900643825531006 255 127 0
-0.21567924320697784 0.07732046395540237 0.46093836426734924 255 127 0
-0.1590988039970398 0.07114459574222565 0.4835360050201416 255 127 0
-0.14194802939891815 0.1380508542060852 0.45404815673828125 255 127 0
-0.14463122189044952 0.19487206637859344 0.42077720165252686 255 127 0
-0.12087849527597427 0.19375315308570862 0.3886255621910095 255 127 0
-0.11839278787374496 0.17151492834091187 0.3951387107372284 255 127 0
-0.15485796332359314 0.18709273636341095 0.40049049258232117 255 127 0
-0.14571139216423035 0.1953093260526657 0.39199262857437134 255 127 0
-0.17347197234630585 0.1820671558380127 0.4091390073299408 255 127 0
-0.15630914270877838 0.19108103215694427 0.3886328935623169 255 127 0
-0.1747867912054062 0.18576334416866302 0.4012376368045807 255 127 0
-0.18456490337848663 0.18266867101192474 0.3943893015384674 255 127 0
-0.17933984100818634 0.19993063807487488 0.384478896856308 255 127 0
-0.2084508091211319 0.19116638600826263 0.3630378544330597 255 127 0
-0.18574149906635284 0.18916156888008118 0.33876797556877136 255 127 0
-0.17815321683883667 0.18017403781414032 0.3048771023750305 255 127 0
-0.18224281072616577 0.1822557896375656 0.2554766535758972 255 127 0
-0.19043521583080292 0.20474258065223694 0.2173096239566803 255 127 0
-0.19528056681156158 0.18606634438037872 0.18616271018981934 255 127 0
-0.21511133015155792 0.1687648892402649 0.2139047533273697 255 127 0
-0.23143693804740906 0.1794721633195877 0.19935645163059235 255 127 0
-0.24829034507274628 0.19489438831806183 0.25040489435195923 255 127 0
-0.23064368963241577 0.1753997951745987 0.28171321749687195 255 127 0
-0.2276303619146347 0.1851903349161148 0.31704989075660706 255 127 0
-0.232157364487648 0.15911740064620972 0.3525009751319885 255 127 0
-0.2341066598892212 0.1611468642950058 0.40824392437934875 255 127 0
-0.23174872994422913 0.15587063133716583 0.45602571964263916 255 127 0
-0.2308342307806015 0.14612004160881042 0.47374844551086426 255 127 0
-0.22261030972003937 0.14414891600608826 0.4806094169616699 255 127 0
-0.22073359787464142 0.14508455991744995 0.47094863653182983 255 127 0
-0.225505992770195 0.14740024507045746 0.4626229703426361 255 127 0
-0.24383562803268433 0.12396151572465897 0.4699610769748688 255 127 0
-0.2428876757621765 0.12187355756759644 0.473359614610672 255 127 0
-0.2396203875541687 0.12079604715108871 0.47660088539123535 255 127 0
-0.22901886701583862 0.14152944087982178 0.45631200075149536 255 127 0
-0.21713119745254517 0.1352563500404358 0.46608489751815796 255 127 0
-0.20699375867843628 0.15355752408504486 0.4491601288318634 255 127 0
-0.20040957629680634 0.14117781817913055 0.4356354773044586 255 127 0
-0.19327737390995026 0.1489274501800537 0.4304868280887604 255 127 0
-0.19599871337413788 0.15159781277179718 0.4095686972141266 255 127 0
-0.19418799877166748 0.13628998398780823 0.389731764793396 255 127 0
-0.19573749601840973 0.13167567551136017 0.3773406445980072 255 127 0
-0.17429687082767487 0.13918793201446533 0.36098554730415344 255 127 0
-0.15722690522670746 0.1414831280708313 0.34444814920425415 255 127 0
-0.16060791909694672 0.1478828489780426 0.3177838921546936 255 127 0
-0.1348719447851181 0.14235255122184753 0.29434719681739807 255 127 0
-0.1340341866016388 0.14227673411369324 0.2642520070075989 255 127 0
-0.12006093561649323 0.13961286842823029 0.24368460476398468 255 127 0
-0.1088363379240036 0.151505708694458 0.22211849689483643 255 127 0
-0.10428399592638016 0.14263933897018433 0.21867085993289948 255 127 0
-0.10638689249753952 0.14028257131576538 0.22075390815734863 255 127 0
-0.11045334488153458 0.1474418044090271 0.23588861525058746 255 127 0
-0.10997212678194046 0.14639312028884888 0.24564562737941742 255 127 0
-0.10935578495264053 0.15370459854602814 0.2582569718360901 255 127 0
-0.12211272865533829 0.14906100928783417 0.26853910088539124 255 127 0
-0.12286482751369476 0.14820881187915802 0.2697088122367859 255 127 0
-0.11314795911312103 0.1463860273361206 0.26673412322998047 255 127 0
-0.1205340176820755 0.15048225224018097 0.25147923827171326 255 127 0
-0.11594755202531815 0.1486748903989792 0.2552204728126526 255 127 0
-0.11586643010377884 0.1623639166355133 0.2526363730430603 255 127 0
-0.12735086679458618 0.15886855125427246 0.2627768814563751 255 127 0
-0.1305687576532364 0.15812447667121887 0.2716388702392578 255 127 0
-0.14959847927093506 0.15035578608512878 0.27665987610816956 255 127 0
-0.1548999696969986 0.14356271922588348 0.2825143039226532 255 127 0
-0.15446095168590546 0.1386839896440506 0.2887857258319855 255 127 0
-0.16279415786266327 0.13921111822128296 0.2979458272457123 255 127 0
-0.1673528403043747 0.13571107387542725 0.315255731344223 255 127 0
-0.17257073521614075 0.1393418312072754 0.3355747163295746 255 127 0
-0.1800110936164856 0.1402721107006073 0.36188334226608276 255 127 0
-0.1847541332244873 0.16500814259052277 0.38562679290771484 255 127 0
-0.2040005326271057 0.1575385332107544 0.40830549597740173 255 127 0
-0.21230697631835938 0.13703970611095428 0.42697057127952576 255 127 0
-0.1930706948041916 0.1446998417377472 0.41893094778060913 255 127 0
-0.1627999097108841 0.18966169655323029 0.40298280119895935 255 127 0
-0.1716127246618271 0.19668647646903992 0.3948550224304199 255 127 0
-0.2081993818283081 0.16044098138809204 0.39780130982398987 255 127 0
-0.21273194253444672 0.15511807799339294 0.4095301330089569 255 127 0
-0.20286902785301208 0.1505090445280075 0.42274782061576843 255 127 0
-0.24984301626682281 0.12098544836044312 0.5100650787353516 255 127 0
-0.2998811602592468 0.07263121008872986 0.5760636329650879 255 127 0
-0.2576049864292145 0.0353999137878418 0.5019729733467102 255 127 0
-0.24781954288482666 -0.06436126679182053 0.5211748480796814 255 127 0
-0.21844179928302765 -0.029371140524744987 0.5359579920768738 255 127 0
-0.2214440554380417 -0.000636681797914207 0.5596050024032593 255 127 0
-0.2339899241924286 0.00387641042470932 0.5500631928443909 255 127 0
-0.230033278465271 -0.001895660301670432 0.5387735366821289 255 127 0
-0.23070910573005676 -0.0028955063316971064 0.5352193713188171 255 127 0
-0.22651134431362152 -0.00568676833063364 0.534024178981781 255 127 0
-0.2293318659067154 -0.006395396776497364 0.5373777151107788 255 127 0
-0.22961784899234772 -0.0077193076722323895 0.5361035466194153 255 127 0
-0.23116286098957062 -0.006768566556274891 0.526650071144104 255 127 0
-0.22445248067378998 -0.010185660794377327 0.5176683664321899 255 127 0
-0.22117175161838531 -0.019739864394068718 0.5148079991340637 255 127 0
-0.22593404352664948 -0.012711933813989162 0.5143691301345825 255 127 0
-0.22487719357013702 -0.007591827306896448 0.5142118334770203 255 127 0
-0.22182662785053253 -0.013569344766438007 0.5135461688041687 255 127 0
-0.2272748202085495 -0.01827113889157772 0.5155684947967529 255 127 0
-0.2272057682275772 -0.01847470924258232 0.5145779848098755 255 127 0
-0.22721503674983978 -0.01608755998313427 0.51377272605896 255 127 0
-0.22872112691402435 -0.01011840533465147 0.5205647349357605 255 127 0
-0.23636388778686523 -0.0015721966046839952 0.5275312662124634 255 127 0
-0.2313741147518158 -0.011168333701789379 0.5268820524215698 255 127 0
-0.23291076719760895 -0.018939170986413956 0.5279882550239563 255 127 0
-0.2347114533185959 -0.016433551907539368 0.5286216139793396 255 127 0
-0.23228229582309723 -0.010283137671649456 0.5240805149078369 255 127 0
-0.23512688279151917 -0.00556756928563118 0.5211243033409119 255 127 0
-0.23184671998023987 -0.005882317665964365 0.528911828994751 255 127 0
-0.24180850386619568 0.004639890044927597 0.5323700308799744 255 127 0
-0.23372773826122284 0.0009705703123472631 0.5306439399719238 255 127 0
-0.24064315855503082 -0.007469451520591974 0.5341829061508179 255 127 0
-0.24349193274974823 -0.0021182165946811438 0.5315682291984558 255 127 0
-0.24149279296398163 -0.0006243748357519507 0.53300940990448 255 127 0
-0.23459002375602722 -0.006868258118629456 0.5310779213905334 255 127 0
-0.24824762344360352 0.0025677818339318037 0.5286027789115906 255 127 0
-0.24274158477783203 -0.00034146851976402104 0.5376997590065002 255 127 0
-0.2465450018644333 0.0010006185621023178 0.5517336130142212 255 127 0
-0.2494821697473526 0.01050831563770771 0.5532188415527344 255 127 0
-0.25350725650787354 0.013747243210673332 0.5542502999305725 255 127 0
-0.25174522399902344 0.01650814525783062 0.5586509108543396 255 127 0
-0.2385968714952469 0.002848899457603693 0.5487155914306641 255 127 0
-0.24995656311511993 0.0042588128708302975 0.5409532785415649 255 127 0
-0.2324369102716446 -0.009880643337965012 0.5435759425163269 255 127 0
-0.2451278120279312 -0.0015679310308769345 0.5403083562850952 255 127 0
-0.23548629879951477 -0.0029299352318048477 0.5319919586181641 255 127 0
-0.23874320089817047 -0.0031097556930035353 0.538571834564209 255 127 0
-0.2362050861120224 -0.0027302210219204426 0.5356559157371521 255 127 0
-0.25036975741386414 0.004786991979926825 0.5341445803642273 255 127 0
-0.24019962549209595 0.0024947260972112417 0.5301251411437988 255 127 0
-0.24231000244617462 0.0024539257865399122 0.5303196907043457 255 127 0
-0.23773448169231415 -0.0015398395480588078 0.5321000814437866 255 127 0
-0.2367303967475891 -0.0033048216719180346 0.5212657451629639 255 127 0
-0.2363273650407791 -0.008823955431580544 0.5156005024909973 255 127 0
-0.2295127511024475 -0.021281937137246132 0.5163730382919312 255 127 0
-0.23106203973293304 -0.012034456245601177 0.5203816890716553 255 127 0
-0.23201528191566467 -0.010406156070530415 0.5162704586982727 255 127 0
-0.22516383230686188 -0.029979510232806206 0.5126724243164062 255 127 0
-0.22256697714328766 -0.02805362641811371 0.49368423223495483 255 127 0
-0.14676618576049805 -0.09851139783859253 0.41018667817115784 255 127 0
-0.05278388410806656 -0.14863993227481842 0.26647865772247314 255 127 0
-0.1329946666955948 -0.13417164981365204 0.18762384355068207 255 127 0
-0.1365620642900467 -0.11889159679412842 0.23898690938949585 255 127 0
-0.1037210151553154 -0.10235874354839325 0.2715075612068176 255 127 0
-0.1601545512676239 -0.10178376734256744 0.2804037630558014 255 127 0
-0.11577142030000687 -0.12342780828475952 0.30154576897621155 255 127 0
-0.13134939968585968 -0.09802018851041794 0.30439016222953796 255 127 0
-0.13012556731700897 -0.08651892840862274 0.3199760317802429 255 127 0
-0.1544172465801239 -0.07971980422735214 0.35228580236434937 255 127 0
-0.17263376712799072 -0.08474466949701309 0.39621999859809875 255 127 0
-0.17316320538520813 -0.07927145063877106 0.4300081729888916 255 127 0
-0.18436911702156067 -0.058164965361356735 0.46063104271888733 255 127 0
-0.213165745139122 -0.03796286880970001 0.49589964747428894 255 127 0
-0.2198590636253357 -0.03952513635158539 0.5171792507171631 255 127 0
-0.21329481899738312 -0.03992355614900589 0.5235111117362976 255 127 0
-0.21595601737499237 -0.03495484218001366 0.5260015726089478 255 127 0
-0.20519457757472992 -0.059759434312582016 0.5252342224121094 255 127 0
-0.196210578083992 -0.060951925814151764 0.5510952472686768 255 127 0
-0.2056828886270523 -0.04842977970838547 0.5479018092155457 255 127 0
-0.24088449776172638 -0.015693865716457367 0.5709367990493774 255 127 0
-0.23008322715759277 -0.022547386586666107 0.5794884562492371 255 127 0
-0.2225562483072281 -0.019573405385017395 0.5936909317970276 255 127 0
-0.21586477756500244 0.008871559984982014 0.6142305135726929 255 127 0
-0.20841947197914124 0.0020057789515703917 0.6322315335273743 255 127 0
-0.21771931648254395 0.008201155811548233 0.6367660164833069 255 127 0
-0.20568539202213287 0.009981533512473106 0.642081081867218 255 127 0
-0.2265906184911728 0.02207690291106701 0.6556385159492493 255 127 0
-0.2163413017988205 0.03928361088037491 0.650290310382843 255 127 0
-0.215451180934906 0.04433753713965416 0.6430080533027649 255 127 0
-0.22089515626430511 0.007360807154327631 0.642838180065155 255 127 0
-0.23243659734725952 0.002978716976940632 0.635313868522644 255 127 0
-0.20655544102191925 -0.03601356968283653 0.6257002949714661 255 127 0
-0.21544699370861053 -0.009094403125345707 0.6421144008636475 255 127 0
-0.17794260382652283 -0.002047114074230194 0.6496508717536926 255 127 0
-0.18106195330619812 0.036953896284103394 0.6437888741493225 255 127 0
-0.21118749678134918 0.03592745214700699 0.654921293258667 255 127 0
-0.20617800951004028 0.0586094856262207 0.6428561210632324 255 127 0
-0.21550343930721283 0.05652345344424248 0.6630620956420898 255 127 0
-0.2095540463924408 0.02593318000435829 0.6459555625915527 255 127 0
-0.23674438893795013 0.01692946068942547 0.6316496133804321 255 127 0
-0.2301226109266281 0.013033045455813408 0.6273849010467529 255 127 0
-0.2337431013584137 0.022590909153223038 0.6191737651824951 255 127 0
-0.22794538736343384 0.006668600253760815 0.5894864201545715 255 127 0
-0.2481987625360489 0.010410657152533531 0.5847746133804321 255 127 0
-0.21388348937034607 -0.014095938764512539 0.5690209865570068 255 127 0
-0.2315124124288559 -0.015551741234958172 0.5582550764083862 255 127 0
-0.23408837616443634 -0.01792873814702034 0.5349758267402649 255 127 0
-0.2555837035179138 -0.021043187007308006 0.531061589717865 255 127 0
-0.22550439834594727 -0.03671182692050934 0.5374059677124023 255 127 0
-0.2116660326719284 -0.04961663484573364 0.5403004288673401 255 127 0
-0.21745191514492035 -0.05687841400504112 0.5335991978645325 255 127 0
-0.20434902608394623 -0.06489861756563187 0.5123815536499023 255 127 0
-0.18942353129386902 -0.07661807537078857 0.4948216378688812 255 127 0
-0.19012507796287537 -0.04780203849077225 0.5053114891052246 255 127 0
-0.19888894259929657 -0.04707326740026474 0.4985438883304596 255 127 0
-0.1703626662492752 -0.09415781497955322 0.47231990098953247 255 127 0
-0.17735043168067932 -0.08981665223836899 0.4278745949268341 255 127 0
-0.16817885637283325 -0.11661022901535034 0.379500150680542 255 127 0
-0.1361333429813385 -0.13940662145614624 0.3531431257724762 255 127 0
-0.12707926332950592 -0.12407605350017548 0.3753723204135895 255 127 0
-0.1252536177635193 -0.10451402515172958 0.4301707148551941 255 127 0
-0.18217413127422333 -0.06068151071667671 0.5255576968193054 255 127 0
-0.20907267928123474 -0.027054479345679283 0.5980312824249268 255 127 0
-0.2115444540977478 -0.008303361013531685 0.6311118602752686 255 127 0
-0.18975569307804108 0.02464887499809265 0.6814131140708923 255 127 0
-0.18836325407028198 0.04241519048810005 0.6707329154014587 255 127 0
-0.18217407166957855 0.052813123911619186 0.6501299142837524 255 127 0
-0.18828952312469482 0.06898040324449539 0.6164860725402832 255 127 0
-0.18001611530780792 0.08436165750026703 0.6209141612052917 255 127 0
-0.17978106439113617 0.0948389396071434 0.6329308152198792 255 127 0
-0.25385037064552307 0.04291566461324692 0.6571150422096252 255 127 0
-0.20871762931346893 -0.10789778083562851 0.6023272275924683 255 127 0
0.007320874836295843 -0.27571478486061096 0.2250184416770935 255 127 0
-0.033688344061374664 -0.1735672503709793 0.0749230682849884 255 127 0
-0.14353616535663605 -0.1157645508646965 0.5342764258384705 255 127 0
-0.22348026931285858 0.0874391496181488 0.6606384515762329 255 127 0
-0.19799059629440308 0.16205459833145142 0.4908340275287628 255 127 0
-0.14960339665412903 0.15694378316402435 0.41342782974243164 255 127 0
-0.12565064430236816 0.16137199103832245 0.37008148431777954 255 127 0
-0.1484510600566864 0.13998058438301086 0.3430112302303314 255 127 0
-0.14977510273456573 0.14967940747737885 0.3326709270477295 255 127 0
-0.1297164261341095 0.15784086287021637 0.33980679512023926 255 127 0
-0.11386334896087646 0.15074416995048523 0.3482837378978729 255 127 0
-0.11338935792446136 0.13053560256958008 0.3351703882217407 255 127 0
-0.11460250616073608 0.13434767723083496 0.3342328369617462 255 127 0
-0.0994146540760994 0.13241882622241974 0.3143000304698944 255 127 0
-0.09455360472202301 0.12429451942443848 0.31698721647262573 255 127 0
-0.09540341049432755 0.12212058156728745 0.32502269744873047 255 127 0
-0.09937921911478043 0.11880585551261902 0.33418190479278564 255 127 0
-0.10820974409580231 0.124691903591156 0.3438989520072937 255 127 0
-0.11301635205745697 0.12621958553791046 0.344825804233551 255 127 0
-0.10533536970615387 0.11287342756986618 0.339123398065567 255 127 0
-0.10607395321130753 0.1262260228395462 0.33284318447113037 255 127 0
-0.10861789435148239 0.12578852474689484 0.32800009846687317 255 127 0
-0.10504816472530365 0.1278008073568344 0.3172083795070648 255 127 0
-0.09873103350400925 0.13125298917293549 0.2912575602531433 255 127 0
-0.09379912167787552 0.1449982225894928 0.28244727849960327 255 127 0
-0.0929168090224266 0.12973526120185852 0.2792792022228241 255 127 0
-0.08656438440084457 0.13134311139583588 0.2671116292476654 255 127 0
-0.075921930372715 0.13745710253715515 0.2685653567314148 255 127 0
-0.08989284187555313 0.14230886101722717 0.2584246098995209 255 127 0
