ply
format ascii 1.0
element vertex 693
property float x
property float y
property float z
property uchar red
property uchar green
property uchar blue
end_header
0.10645101964473724 0.13048793375492096 0.5092738270759583 0 0 255
0.1181451752781868 0.10136347264051437 0.5175783634185791 0 0 255
0.09551927447319031 0.1432204246520996 0.48068398237228394 0 0 255
0.08325818926095963 0.14899399876594543 0.43760156631469727 0 0 255
0.10081004351377487 0.07692163437604904 0.40946945548057556 0 0 255
0.12007829546928406 0.11200013756752014 0.5349345207214355 0 0 255
0.09976982325315475 0.13724152743816376 0.5143599510192871 0 0 255
0.09801360219717026 0.13038894534111023 0.5194540023803711 0 0 255
0.0963810458779335 0.13389107584953308 0.521809458732605 0 0 255
0.09706180542707443 0.13315771520137787 0.5234904885292053 0 0 255
0.09137565642595291 0.12849223613739014 0.5265824198722839 0 0 255
0.1006341502070427 0.1302613615989685 0.5306485295295715 0 0 255
0.10874615609645844 0.13115231692790985 0.5315935611724854 0 0 255
0.10130947083234787 0.13182856142520905 0.5334803462028503 0 0 255
0.10210485011339188 0.13167104125022888 0.534753143787384 0 0 255
0.10110887140035629 0.12753170728683472 0.5373944640159607 0 0 255
0.10164881497621536 0.1290057748556137 0.5359822511672974 0 0 255
0.1031280979514122 0.12492385506629944 0.5368305444717407 0 0 255
0.10213125497102737 0.12213060259819031 0.5275883674621582 0 0 255
0.1020374745130539 0.12155807763338089 0.5424951910972595 0 0 255
0.10352641344070435 0.1346805989742279 0.5304303169250488 0 0 255
0.11405972391366959 0.1273479163646698 0.5124287605285645 0 0 255
0.11357325315475464 0.11692164838314056 0.507936954498291 0 0 255
0.11714977025985718 0.11563057452440262 0.5003055930137634 0 0 255
0.11717471480369568 0.11794780939817429 0.50761479139328 0 0 255
0.10934079438447952 0.11371329426765442 0.5235381126403809 0 0 255
0.10524347424507141 0.1384345293045044 0.5299362540245056 0 0 255
0.1113625094294548 0.13628824055194855 0.5276952385902405 0 0 255
0.09396760910749435 0.14049746096134186 0.5225492119789124 0 0 255
0.14763231575489044 0.1472216546535492 0.48720231652259827 0 0 255
0.10184697806835175 0.060423996299505234 0.23639452457427979 0 0 255
0.09174025803804398 -0.005540456157177687 0.14498622715473175 0 0 255
0.0808318704366684 -0.05666760355234146 0.15818265080451965 0 0 255
0.08732866495847702 -0.06251015514135361 0.14453504979610443 0 0 255
0.09141337871551514 -0.05872383341193199 0.14795035123825073 0 0 255
0.0912327989935875 -0.0577753484249115 0.15357549488544464 0 0 255
0.09718089550733566 -0.050861041992902756 0.15598292648792267 0 0 255
0.10112819075584412 -0.049587853252887726 0.16472402215003967 0 0 255
0.09816629439592361 -0.04422298073768616 0.16773605346679688 0 0 255
0.10347316414117813 -0.039217494428157806 0.18977230787277222 0 0 255
0.10753069818019867 -0.02942373976111412 0.22761335968971252 0 0 255
0.11286509782075882 -0.015430457890033722 0.27115100622177124 0 0 255
0.11739531904459 -0.009533779695630074 0.30417439341545105 0 0 255
0.11656258255243301 -0.006530064158141613 0.3266567289829254 0 0 255
0.11612290889024734 0.002083543222397566 0.34165289998054504 0 0 255
0.11946962028741837 0.004708546679466963 0.3441075086593628 0 0 255
0.12090741097927094 0.004211059305816889 0.34455710649490356 0 0 255
0.12268643081188202 0.01173118781298399 0.3451559245586395 0 0 255
0.12458553910255432 0.01728697493672371 0.3514139950275421 0 0 255
0.12486536800861359 0.0133334556594491 0.3530524671077728 0 0 255
0.12399763613939285 0.01244003139436245 0.3575948178768158 0 0 255
0.12282168865203857 0.00931907631456852 0.36150839924812317 0 0 255
0.12232546508312225 0.006192386150360107 0.3630750775337219 0 0 255
0.1260509043931961 0.012790395878255367 0.3716546595096588 0 0 255
0.12636291980743408 0.018924178555607796 0.38522061705589294 0 0 255
0.12817668914794922 0.01479919534176588 0.3928421437740326 0 0 255
0.12714481353759766 0.0110252620652318 0.390328973531723 0 0 255
0.12369537353515625 0.01403737161308527 0.3882073760032654 0 0 255
0.12410669028759003 0.014244205318391323 0.38393792510032654 0 0 255
0.12260608375072479 0.005170807708054781 0.375186026096344 0 0 255
0.12404939532279968 0.00047942926175892353 0.3708306849002838 0 0 255
0.12038958817720413 0.0034859038423746824 0.36543065309524536 0 0 255
0.1195765882730484 -0.0023864249233156443 0.3630673289299011 0 0 255
0.1166296973824501 -0.00724494643509388 0.34793204069137573 0 0 255
0.11480448395013809 -0.012134701944887638 0.3297610580921173 0 0 255
0.11595708131790161 -0.013333954848349094 0.32627731561660767 0 0 255
0.11809491366147995 -0.007055808790028095 0.3291267454624176 0 0 255
0.12577612698078156 -0.0015618804609403014 0.34287774562835693 0 0 255
0.12476974725723267 0.001196473021991551 0.35771527886390686 0 0 255
0.123796246945858 0.0025189139414578676 0.3670404851436615 0 0 255
0.12709484994411469 0.010086985304951668 0.374243825674057 0 0 255
0.1291050761938095 0.01712583191692829 0.37533077597618103 0 0 255
0.1307019293308258 0.019399691373109818 0.3744391202926636 0 0 255
0.13483574986457825 0.02403312735259533 0.3829449415206909 0 0 255
0.135378897190094 0.03417930006980896 0.3956207036972046 0 0 255
0.13432206213474274 0.03128286451101303 0.4062870442867279 0 0 255
0.13233953714370728 0.03564450144767761 0.4097067415714264 0 0 255
0.13734088838100433 0.037744708359241486 0.4296272397041321 0 0 255
0.13900551199913025 0.04205303266644478 0.44177818298339844 0 0 255
0.13813170790672302 0.054076988250017166 0.45261773467063904 0 0 255
0.136060893535614 0.061374545097351074 0.4651067852973938 0 0 255
0.13466739654541016 0.0717904269695282 0.4726841449737549 0 0 255
0.1297222226858139 0.06901279091835022 0.47662782669067383 0 0 255
0.1302884966135025 0.060618773102760315 0.46852269768714905 0 0 255
0.1333022266626358 0.053003326058387756 0.4693020284175873 0 0 255
0.13567332923412323 0.05980324745178223 0.4688422977924347 0 0 255
0.1343061923980713 0.06489410996437073 0.46981045603752136 0 0 255
0.13377352058887482 0.06735771149396896 0.4661112427711487 0 0 255
0.13028515875339508 0.06487780809402466 0.46666255593299866 0 0 255
0.13023631274700165 0.06328612565994263 0.4743594229221344 0 0 255
0.13106292486190796 0.062410712242126465 0.4753890633583069 0 0 255
0.131614550948143 0.064976766705513 0.47678953409194946 0 0 255
0.1323343813419342 0.06879159063100815 0.4744977653026581 0 0 255
0.13176967203617096 0.06648436933755875 0.47138142585754395 0 0 255
0.13334642350673676 0.06265489012002945 0.46811333298683167 0 0 255
0.13154113292694092 0.05803021788597107 0.4673885405063629 0 0 255
0.130950927734375 0.05873878300189972 0.468238890171051 0 0 255
0.1313256323337555 0.06883561611175537 0.47041386365890503 0 0 255
0.1312190741300583 0.0669793039560318 0.4696294665336609 0 0 255
0.13107936084270477 0.06121472641825676 0.474809855222702 0 0 255
0.12790429592132568 0.06313696503639221 0.4821825921535492 0 0 255
0.12904514372348785 0.06018419563770294 0.48759695887565613 0 0 255
0.12715400755405426 0.06290619820356369 0.48825979232788086 0 0 255
0.13074181973934174 0.06633458286523819 0.48838886618614197 0 0 255
0.13258756697177887 0.0724015161395073 0.49219244718551636 0 0 255
0.13047659397125244 0.07398057729005814 0.5012030601501465 0 0 255
0.12648430466651917 0.07642202079296112 0.5055404901504517 0 0 255
0.1273099184036255 0.07684861868619919 0.5051777362823486 0 0 255
0.1168452724814415 0.07106918096542358 0.5051760673522949 0 0 255
0.12360318750143051 0.04277506843209267 0.5068535804748535 0 0 255
0.0060365027748048306 0.08212326467037201 0.6430140137672424 0 0 255
-0.013353977352380753 0.09182582795619965 0.28276196122169495 0 0 255
-0.045038335025310516 0.055208172649145126 0.11701155453920364 0 0 255
-0.03042028658092022 0.09917157888412476 0.055051058530807495 0 0 255
-0.007309224456548691 0.11407704651355743 0.06470130383968353 0 0 255
0.011336076073348522 0.13527825474739075 0.11315968632698059 0 0 255
0.02695411629974842 0.14183320105075836 0.16435785591602325 0 0 255
0.02257624641060829 0.1438109278678894 0.22284886240959167 0 0 255
0.031183604151010513 0.14686740934848785 0.26662692427635193 0 0 255
0.045263614505529404 0.14692716300487518 0.2929319441318512 0 0 255
0.05444372445344925 0.15155918896198273 0.33838680386543274 0 0 255
0.060702528804540634 0.15920428931713104 0.3800133764743805 0 0 255
0.08048494905233383 0.15140436589717865 0.45054134726524353 0 0 255
0.0983051285147667 0.14927421510219574 0.47903335094451904 0 0 255
0.11278296262025833 0.14673879742622375 0.5156274437904358 0 0 255
0.12772729992866516 0.13678978383541107 0.5211606621742249 0 0 255
0.127985879778862 0.12211843580007553 0.5367530584335327 0 0 255
0.11884203553199768 0.12934663891792297 0.526678204536438 0 0 255
0.12006053328514099 0.1336037665605545 0.516326904296875 0 0 255
0.11819003522396088 0.14050614833831787 0.5095740556716919 0 0 255
0.11558501422405243 0.15584997832775116 0.51837158203125 0 0 255
0.10306142270565033 0.13043008744716644 0.5115788578987122 0 0 255
0.11587227135896683 0.1353704333305359 0.4816470444202423 0 0 255
0.15302646160125732 0.10047692805528641 0.4829558730125427 0 0 255
0.13123105466365814 0.09630010277032852 0.4867955446243286 0 0 255
0.13406267762184143 0.08987946063280106 0.4924466609954834 0 0 255
0.12883807718753815 0.08742178231477737 0.5029197335243225 0 0 255
0.12403904646635056 0.0870773047208786 0.509589672088623 0 0 255
0.12466219812631607 0.09055247157812119 0.5123171806335449 0 0 255
0.12788242101669312 0.09291943907737732 0.5175368189811707 0 0 255
0.12531445920467377 0.0964755117893219 0.5217013955116272 0 0 255
0.1168782114982605 0.10050833970308304 0.5169926881790161 0 0 255
0.11700471490621567 0.09538614004850388 0.522313117980957 0 0 255
0.1246446743607521 0.0889650359749794 0.5149516463279724 0 0 255
0.12863297760486603 0.08728860318660736 0.5119402408599854 0 0 255
0.1253170222043991 0.09428667277097702 0.5071356892585754 0 0 255
0.11391429603099823 0.09287720173597336 0.5087368488311768 0 0 255
0.12458299845457077 0.08937957137823105 0.5103455781936646 0 0 255
0.1239231750369072 0.10737337917089462 0.5112394094467163 0 0 255
0.11136142909526825 0.1078408733010292 0.5064207911491394 0 0 255
0.1249118223786354 0.09592930227518082 0.4962535500526428 0 0 255
0.13785012066364288 0.10768350213766098 0.47932446002960205 0 0 255
0.13713742792606354 0.11600171029567719 0.4858841300010681 0 0 255
0.14019332826137543 0.11567004024982452 0.5012068748474121 0 0 255
0.1492619663476944 0.12805166840553284 0.471101850271225 0 0 255
0.13107135891914368 0.11809565126895905 0.4829886555671692 0 0 255
0.14941070973873138 0.11044292151927948 0.48416265845298767 0 0 255
0.14109700918197632 0.12686896324157715 0.460186243057251 0 0 255
0.12747183442115784 0.1281871795654297 0.4642433822154999 0 0 255
0.12307832390069962 0.1309691220521927 0.4695836305618286 0 0 255
0.11683987081050873 0.13519631326198578 0.47379377484321594 0 0 255
0.10697003453969955 0.12918081879615784 0.4625927209854126 0 0 255
0.10708969086408615 0.12321627885103226 0.44919919967651367 0 0 255
0.11425371468067169 0.13931655883789062 0.45259732007980347 0 0 255
0.09384828060865402 0.1460699439048767 0.4485316276550293 0 0 255
0.09446795284748077 0.13805662095546722 0.44707930088043213 0 0 255
0.09219889342784882 0.12841005623340607 0.44649118185043335 0 0 255
0.0826149582862854 0.12604838609695435 0.43626299500465393 0 0 255
0.08387770503759384 0.12849800288677216 0.42681020498275757 0 0 255
0.08483016490936279 0.13088837265968323 0.41586893796920776 0 0 255
0.09026571363210678 0.1362876296043396 0.42545753717422485 0 0 255
0.08400074392557144 0.14180774986743927 0.41767922043800354 0 0 255
0.08647161722183228 0.13459978997707367 0.414438396692276 0 0 255
0.08542588353157043 0.13865138590335846 0.41588959097862244 0 0 255
0.0797005146741867 0.13873210549354553 0.4175856113433838 0 0 255
0.07211695611476898 0.13296592235565186 0.40215280652046204 0 0 255
0.080288365483284 0.13297387957572937 0.39795225858688354 0 0 255
0.0812717154622078 0.13826151192188263 0.41282910108566284 0 0 255
0.07456700503826141 0.136826291680336 0.4167362451553345 0 0 255
0.05729252099990845 0.1291414052248001 0.39733394980430603 0 0 255
0.05654990300536156 0.12854339182376862 0.3537833094596863 0 0 255
0.04497674107551575 0.13427381217479706 0.32047078013420105 0 0 255
0.027454975992441177 0.1377142369747162 0.27697157859802246 0 0 255
0.03135285526514053 0.13150638341903687 0.2531265616416931 0 0 255
0.03631275147199631 0.12373510003089905 0.24508334696292877 0 0 255
0.018324360251426697 0.11860837042331696 0.2287091761827469 0 0 255
0.021769454702734947 0.11242145299911499 0.19311733543872833 0 0 255
0.019190629944205284 0.11879877001047134 0.17777468264102936 0 0 255
0.02022324874997139 0.12438922375440598 0.18546955287456512 0 0 255
0.012861429713666439 0.11974887549877167 0.17831407487392426 0 0 255
0.010592172853648663 0.1225818321108818 0.177790105342865 0 0 255
0.027341293171048164 0.124776192009449 0.19701363146305084 0 0 255
0.02328340709209442 0.12664352357387543 0.22137601673603058 0 0 255
0.023430241271853447 0.12229432910680771 0.2244986593723297 0 0 255
0.02932935580611229 0.1216563880443573 0.21584893763065338 0 0 255
0.033607885241508484 0.12164391577243805 0.19482579827308655 0 0 255
0.010102232918143272 0.11240798979997635 0.17737513780593872 0 0 255
0.012182208709418774 0.10487303137779236 0.15285682678222656 0 0 255
-0.0013492635916918516 0.10062190145254135 0.1074180081486702 0 0 255
-0.01319157611578703 0.10408087074756622 0.08122356981039047 0 0 255
-0.0088673559948802 0.10586820542812347 0.0586516372859478 0 0 255
-0.0075395237654447556 0.0928906723856926 0.03691805154085159 0 0 255
-0.012786652892827988 0.08133586496114731 0.002473740605637431 0 0 255
-0.011635805480182171 0.0881798267364502 -0.013288559392094612 0 0 255
-0.009721076115965843 0.095345638692379 0.0004101170925423503 0 0 255
0.000940654834266752 0.09066914021968842 0.043070994317531586 0 0 255
0.0018264537211507559 0.08629712462425232 0.07788882404565811 0 0 255
0.002823830349370837 0.08066695183515549 0.07970527559518814 0 0 255
-0.013015024363994598 0.07756007462739944 0.06383829563856125 0 0 255
-0.028768224641680717 0.06218975782394409 -0.0057684010826051235 0 0 255
-0.035582177340984344 0.04264489561319351 -0.10963577777147293 0 0 255
-0.03960442543029785 0.05270365625619888 -0.12768608331680298 0 0 255
-0.04230111092329025 0.03675483167171478 -0.10506801307201385 0 0 255
-0.036328814923763275 0.05426681786775589 -0.07758152484893799 0 0 255
-0.05104837939143181 0.04790503531694412 -0.11889201402664185 0 0 255
-0.0757400318980217 0.03834117203950882 -0.18913640081882477 0 0 255
-0.09103963524103165 0.01607751101255417 -0.23609988391399384 0 0 255
-0.061209555715322495 -0.004580437205731869 -0.2780345380306244 0 0 255
-0.10239017754793167 0.011797050945460796 -0.30390265583992004 0 0 255
-0.10432303696870804 0.011379781179130077 -0.2776412069797516 0 0 255
-0.09930267184972763 -0.009003225713968277 -0.2571343779563904 0 0 255
-0.05699071288108826 0.005116683896631002 -0.22084064781665802 0 0 255
-0.05142448469996452 0.028301116079092026 -0.16947707533836365 0 0 255
-0.038875989615917206 0.0660223513841629 -0.07969028502702713 0 0 255
-0.035498566925525665 0.07477982342243195 -0.016857028007507324 0 0 255
-0.020059868693351746 0.07786814868450165 0.03800162672996521 0 0 255
-0.011808626353740692 0.1186695545911789 0.117618128657341 0 0 255
-0.019881267100572586 0.11045297235250473 0.14024318754673004 0 0 255
-0.005725605878978968 0.12790268659591675 0.19851629436016083 0 0 255
-0.00368137052282691 0.14364737272262573 0.22178778052330017 0 0 255
-0.0037791943177580833 0.13432762026786804 0.21671128273010254 0 0 255
-0.04372080788016319 0.12267526984214783 0.15025821328163147 0 0 255
-0.0738813579082489 0.07673831284046173 -0.008101877756416798 0 0 255
-0.10725539922714233 0.024350382387638092 -0.2817910611629486 0 0 255
-0.1493866890668869 -0.06947646290063858 -0.4641515016555786 0 0 255
-0.13432754576206207 -0.09455453604459763 -0.5037100315093994 0 0 255
-0.1276407539844513 -0.09013127535581589 -0.4980258643627167 0 0 255
-0.12580622732639313 -0.09822270274162292 -0.49602454900741577 0 0 255
-0.11331314593553543 -0.07950098812580109 -0.494419664144516 0 0 255
-0.11906498670578003 -0.05708751454949379 -0.4914991557598114 0 0 255
-0.1314712017774582 -0.05459507927298546 -0.4757438898086548 0 0 255
-0.12975218892097473 -0.0538269504904747 -0.44912227988243103 0 0 255
-0.11529778689146042 -0.03251102566719055 -0.43297135829925537 0 0 255
-0.11511596292257309 -0.02861785516142845 -0.42526936531066895 0 0 255
-0.12383729219436646 -0.028797712177038193 -0.4238220453262329 0 0 255
-0.11874965578317642 -0.03948003053665161 -0.4426933228969574 0 0 255
-0.11424961686134338 -0.056110531091690063 -0.47003239393234253 0 0 255
-0.12345655262470245 -0.053303513675928116 -0.4745478630065918 0 0 255
-0.12846411764621735 -0.05397546663880348 -0.4722614884376526 0 0 255
-0.1291569471359253 -0.06411422789096832 -0.4863235652446747 0 0 255
-0.12224452942609787 -0.0676790401339531 -0.49630245566368103 0 0 255
-0.12640292942523956 -0.06889389455318451 -0.5060778856277466 0 0 255
-0.13595061004161835 -0.09245632588863373 -0.519664466381073 0 0 255
-0.13032354414463043 -0.10226960480213165 -0.5340743660926819 0 0 255
-0.12458200007677078 -0.10996710509061813 -0.541170597076416 0 0 255
-0.1192094087600708 -0.11523447185754776 -0.5334120392799377 0 0 255
-0.1100144013762474 -0.12515009939670563 -0.5381379723548889 0 0 255
-0.10194503515958786 -0.12254700064659119 -0.5214362740516663 0 0 255
-0.10604340583086014 -0.13240155577659607 -0.506634533405304 0 0 255
-0.09479619562625885 -0.14356303215026855 -0.49032530188560486 0 0 255
-0.10100597143173218 -0.13837623596191406 -0.47524794936180115 0 0 255
-0.0980014055967331 -0.15144221484661102 -0.46021145582199097 0 0 255
-0.09578098356723785 -0.15315447747707367 -0.47345349192619324 0 0 255
-0.10014283657073975 -0.15329240262508392 -0.48934614658355713 0 0 255
-0.1064952090382576 -0.1502176821231842 -0.49766820669174194 0 0 255
-0.10272378474473953 -0.15403735637664795 -0.5077720880508423 0 0 255
-0.09942357987165451 -0.14731727540493011 -0.5063679814338684 0 0 255
-0.10307735204696655 -0.14027971029281616 -0.5038388967514038 0 0 255
-0.10630115866661072 -0.1470642387866974 -0.4994681179523468 0 0 255
-0.10185305029153824 -0.14959873259067535 -0.4980289340019226 0 0 255
-0.09750251471996307 -0.15001387894153595 -0.5030183792114258 0 0 255
-0.09646295011043549 -0.14818044006824493 -0.5069891214370728 0 0 255
-0.09465564787387848 -0.14832116663455963 -0.5050906538963318 0 0 255
-0.09798414260149002 -0.15127024054527283 -0.4980635941028595 0 0 255
-0.09355323016643524 -0.15328742563724518 -0.4908275306224823 0 0 255
-0.09269982576370239 -0.1496182382106781 -0.49089622497558594 0 0 255
-0.09016983956098557 -0.15274861454963684 -0.48303961753845215 0 0 255
-0.08708827942609787 -0.15166686475276947 -0.4742063879966736 0 0 255
-0.08860801160335541 -0.14719712734222412 -0.46206921339035034 0 0 255
-0.0920083150267601 -0.14421041309833527 -0.45369651913642883 0 0 255
-0.08354244381189346 -0.14809903502464294 -0.44650784134864807 0 0 255
-0.08374834060668945 -0.1538541615009308 -0.44435787200927734 0 0 255
-0.07838588953018188 -0.14911019802093506 -0.445584237575531 0 0 255
-0.07905860245227814 -0.14968827366828918 -0.43894994258880615 0 0 255
-0.07369781285524368 -0.15431083738803864 -0.4190124273300171 0 0 255
-0.06579034775495529 -0.14905568957328796 -0.4041239023208618 0 0 255
-0.06589404493570328 -0.14042863249778748 -0.38975808024406433 0 0 255
-0.06619042158126831 -0.1433698534965515 -0.38796675205230713 0 0 255
-0.05888757109642029 -0.13697047531604767 -0.39871686697006226 0 0 255
-0.06659573316574097 -0.145562082529068 -0.40887629985809326 0 0 255
-0.06141449883580208 -0.15120519697666168 -0.41292625665664673 0 0 255
-0.0718732476234436 -0.1574488878250122 -0.41630131006240845 0 0 255
-0.06698017567396164 -0.1608572006225586 -0.4223448634147644 0 0 255
-0.06313474476337433 -0.15786302089691162 -0.41334816813468933 0 0 255
-0.06695831567049026 -0.15910972654819489 -0.41713809967041016 0 0 255
-0.06266845762729645 -0.16145259141921997 -0.4286251366138458 0 0 255
-0.06786566972732544 -0.1656966507434845 -0.42467594146728516 0 0 255
-0.07441093772649765 -0.16268539428710938 -0.42450252175331116 0 0 255
-0.08413991332054138 -0.16210734844207764 -0.4374309480190277 0 0 255
-0.07681234925985336 -0.1563216596841812 -0.44972193241119385 0 0 255
-0.0861520990729332 -0.15412873029708862 -0.45544061064720154 0 0 255
-0.0924864336848259 -0.15805913507938385 -0.46625620126724243 0 0 255
-0.09093808382749557 -0.15319283306598663 -0.4775863289833069 0 0 255
-0.0969286784529686 -0.1490408480167389 -0.5026707053184509 0 0 255
-0.09800277650356293 -0.14788828790187836 -0.5169169902801514 0 0 255
-0.09735646098852158 -0.14075905084609985 -0.5239328145980835 0 0 255
-0.1072600781917572 -0.13508228957653046 -0.5336650013923645 0 0 255
-0.10482724010944366 -0.12469779700040817 -0.5356379747390747 0 0 255
-0.10093451291322708 -0.10815074294805527 -0.5516859889030457 0 0 255
-0.10680484026670456 -0.12130269408226013 -0.5449519157409668 0 0 255
-0.11156076192855835 -0.13997380435466766 -0.5315720438957214 0 0 255
-0.11158351600170135 -0.12493213266134262 -0.5094833374023438 0 0 255
-0.10383573174476624 -0.1453305184841156 -0.5470215678215027 0 0 255
-0.088358573615551 -0.13363544642925262 -0.5324751734733582 0 0 255
-0.09233412891626358 -0.12404148280620575 -0.5303382873535156 0 0 255
-0.094380222260952 -0.12399540841579437 -0.5323077440261841 0 0 255
-0.09759267419576645 -0.1240299865603447 -0.5327324867248535 0 0 255
-0.09583328664302826 -0.12503913044929504 -0.5301628112792969 0 0 255
-0.09595242887735367 -0.12497296184301376 -0.5319461822509766 0 0 255
-0.09379991888999939 -0.12839849293231964 -0.5323507785797119 0 0 255
-0.09205885231494904 -0.12521548569202423 -0.529146134853363 0 0 255
-0.09010587632656097 -0.12417648732662201 -0.5303080081939697 0 0 255
-0.08968605846166611 -0.12404639273881912 -0.5322569608688354 0 0 255
-0.0898953452706337 -0.12619662284851074 -0.5326201319694519 0 0 255
-0.09103699028491974 -0.12944984436035156 -0.5314128398895264 0 0 255
-0.09244471043348312 -0.13068898022174835 -0.5307835936546326 0 0 255
-0.09363918006420135 -0.13163429498672485 -0.5291398167610168 0 0 255
-0.09040230512619019 -0.13045798242092133 -0.5304195284843445 0 0 255
-0.09064918756484985 -0.12793730199337006 -0.5296816825866699 0 0 255
-0.08870825171470642 -0.12330534309148788 -0.5316759347915649 0 0 255
-0.08778366446495056 -0.12014389783143997 -0.5354806184768677 0 0 255
-0.09000257402658463 -0.11756881326436996 -0.5357127785682678 0 0 255
-0.09265930950641632 -0.11543445289134979 -0.5350940823554993 0 0 255
-0.09083981812000275 -0.1121351569890976 -0.5415149331092834 0 0 255
-0.08813673257827759 -0.11541029065847397 -0.545103132724762 0 0 255
-0.090748630464077 -0.11271914839744568 -0.5442934632301331 0 0 255
-0.09270110726356506 -0.11438235640525818 -0.5434695482254028 0 0 255
-0.08769140392541885 -0.11298462003469467 -0.5480058193206787 0 0 255
-0.08752347528934479 -0.1111585944890976 -0.5450525283813477 0 0 255
-0.08788993209600449 -0.11237234622240067 -0.544553279876709 0 0 255
-0.09227170050144196 -0.11584533751010895 -0.5410967469215393 0 0 255
-0.091202013194561 -0.1229543536901474 -0.5441470742225647 0 0 255
-0.08620937168598175 -0.12191105633974075 -0.5461630821228027 0 0 255
-0.08890233933925629 -0.10762437433004379 -0.5520346164703369 0 0 255
-0.0949133038520813 -0.10558915883302689 -0.5474752187728882 0 0 255
-0.101700060069561 -0.09587710350751877 -0.5462583899497986 0 0 255
-0.10419333726167679 -0.09915051609277725 -0.538982629776001 0 0 255
-0.10250835865736008 -0.10082995891571045 -0.5440114140510559 0 0 255
-0.10075157880783081 -0.0980798751115799 -0.5440924167633057 0 0 255
-0.09847420454025269 -0.0963691994547844 -0.5448418855667114 0 0 255
-0.09999166429042816 -0.09400103986263275 -0.5411375761032104 0 0 255
-0.09627475589513779 -0.09314873069524765 -0.5483587384223938 0 0 255
-0.09668197482824326 -0.08550725877285004 -0.5541278719902039 0 0 255
-0.09601838141679764 -0.08114074170589447 -0.5482376217842102 0 0 255
-0.09584584087133408 -0.07393604516983032 -0.5479792952537537 0 0 255
-0.09403302520513535 -0.06375712156295776 -0.5486526489257812 0 0 255
-0.0948447585105896 -0.052089087665081024 -0.539509117603302 0 0 255
-0.10213615000247955 -0.04264278709888458 -0.5349599123001099 0 0 255
-0.09753629565238953 -0.04168396070599556 -0.5381858348846436 0 0 255
-0.09951426088809967 -0.03635531663894653 -0.542079746723175 0 0 255
-0.1000041738152504 -0.04028467461466789 -0.5368620753288269 0 0 255
-0.10132905840873718 -0.04276513308286667 -0.5236575603485107 0 0 255
-0.10517934709787369 -0.03961297869682312 -0.5141125321388245 0 0 255
-0.10284122824668884 -0.039532970637083054 -0.5082722306251526 0 0 255
-0.10988041013479233 -0.04087473824620247 -0.5104273557662964 0 0 255
-0.10464610159397125 -0.043939512223005295 -0.5153343677520752 0 0 255
-0.10456731170415878 -0.03939664736390114 -0.5094912052154541 0 0 255
-0.10862190276384354 -0.03257482126355171 -0.5028401613235474 0 0 255
-0.10546693205833435 -0.028728662058711052 -0.4959731996059418 0 0 255
-0.10753242671489716 -0.02456272765994072 -0.4827403426170349 0 0 255
-0.10280031710863113 -0.019521133974194527 -0.4804753065109253 0 0 255
-0.1039901003241539 -0.008000660687685013 -0.4691160321235657 0 0 255
-0.10230102390050888 -2.3806542230886407e-05 -0.4453008472919464 0 0 255
-0.09805871546268463 0.010918011888861656 -0.42364490032196045 0 0 255
-0.09395868331193924 0.021647371351718903 -0.3974066376686096 0 0 255
-0.09594550728797913 0.02702852338552475 -0.3670715391635895 0 0 255
-0.09741346538066864 0.03003731742501259 -0.36693254113197327 0 0 255
-0.10256723314523697 0.015525373630225658 -0.3902640640735626 0 0 255
-0.10579298436641693 0.0021514412946999073 -0.42204514145851135 0 0 255
-0.10334404557943344 -0.004590971395373344 -0.43824777007102966 0 0 255
-0.10606980323791504 -0.00836059357970953 -0.43688884377479553 0 0 255
-0.10716671496629715 -0.006775106769055128 -0.4193406403064728 0 0 255
-0.10414402931928635 -0.004805529490113258 -0.4239741265773773 0 0 255
-0.10610822588205338 -0.001414401805959642 -0.42112022638320923 0 0 255
-0.10841764509677887 3.412359728827141e-05 -0.43143653869628906 0 0 255
-0.11226151883602142 -0.00504599092528224 -0.43857303261756897 0 0 255
-0.11408773809671402 -0.006374772638082504 -0.436069130897522 0 0 255
-0.10777408629655838 -0.007587669417262077 -0.4373406767845154 0 0 255
-0.10699725151062012 -0.0064313532784581184 -0.4390086233615875 0 0 255
-0.11063297837972641 0.0008135685347951949 -0.4515126645565033 0 0 255
-0.11120632290840149 -0.004978063981980085 -0.453401654958725 0 0 255
-0.12070473283529282 -0.00630822591483593 -0.4388781189918518 0 0 255
-0.11931125819683075 -0.008123342879116535 -0.44444555044174194 0 0 255
-0.12014756351709366 -0.014946850016713142 -0.4479478597640991 0 0 255
-0.1254669427871704 -0.016910649836063385 -0.4427686929702759 0 0 255
-0.12382389605045319 -0.01629575528204441 -0.44350528717041016 0 0 255
-0.11227916181087494 -0.017961470410227776 -0.44323840737342834 0 0 255
-0.11565510183572769 -0.006299327593296766 -0.43056535720825195 0 0 255
-0.10088124871253967 -0.009079176001250744 -0.42318281531333923 0 0 255
-0.09975343942642212 -0.0041345469653606415 -0.31551817059516907 0 0 255
-0.11556117981672287 -0.00013454235158860683 -0.2690076231956482 0 0 255
-0.10164473205804825 0.014168722555041313 -0.29308661818504333 0 0 255
-0.10308505594730377 -0.008592798374593258 -0.31616514921188354 0 0 255
-0.09668949991464615 -0.015477482229471207 -0.3208751380443573 0 0 255
-0.0996958389878273 -0.015638690441846848 -0.3145389258861542 0 0 255
-0.10399489104747772 -0.015447993762791157 -0.32073578238487244 0 0 255
-0.10285346955060959 -0.021157436072826385 -0.3347145915031433 0 0 255
-0.10160424560308456 -0.01771928369998932 -0.3302079737186432 0 0 255
-0.09411197155714035 -0.020610017701983452 -0.31646835803985596 0 0 255
-0.08422780781984329 -0.006759323179721832 -0.2993876039981842 0 0 255
-0.07557988166809082 0.009638980031013489 -0.2613156735897064 0 0 255
-0.07539570331573486 0.020776167511940002 -0.24091984331607819 0 0 255
-0.07545015215873718 0.02704879641532898 -0.26000547409057617 0 0 255
-0.07529209554195404 0.021097306162118912 -0.2850600481033325 0 0 255
-0.08557769656181335 0.0049920096062123775 -0.31250473856925964 0 0 255
-0.08661627024412155 -0.0042389449663460255 -0.33682772517204285 0 0 255
-0.10767259448766708 -0.016219589859247208 -0.3810785710811615 0 0 255
-0.1127423644065857 -0.03406368941068649 -0.4194582998752594 0 0 255
-0.10889405012130737 -0.05156869441270828 -0.441295325756073 0 0 255
-0.10793444514274597 -0.05699942260980606 -0.4604189395904541 0 0 255
-0.09745156764984131 -0.06525932252407074 -0.48098552227020264 0 0 255
-0.07886636257171631 -0.04996629059314728 -0.5055166482925415 0 0 255
-0.10486836731433868 -0.0406109057366848 -0.5093122720718384 0 0 255
-0.14330920577049255 -0.07654545456171036 -0.5039920806884766 0 0 255
-0.08539997786283493 -0.123735710978508 -0.4851674437522888 0 0 255
-0.0919938012957573 -0.12559325993061066 -0.46942922472953796 0 0 255
-0.09673669189214706 -0.11931884288787842 -0.4675416350364685 0 0 255
-0.07702990621328354 -0.11688004434108734 -0.4538364112377167 0 0 255
-0.07039808481931686 -0.12755611538887024 -0.4431133270263672 0 0 255
-0.07544789463281631 -0.14129313826560974 -0.43434351682662964 0 0 255
-0.07868455350399017 -0.1426185518503189 -0.4497590661048889 0 0 255
-0.07950784265995026 -0.14473561942577362 -0.46849000453948975 0 0 255
-0.08726242929697037 -0.13508228957653046 -0.48147717118263245 0 0 255
-0.08229425549507141 -0.12516099214553833 -0.49709025025367737 0 0 255
-0.09191261976957321 -0.12141996622085571 -0.4984419643878937 0 0 255
-0.08709593117237091 -0.11202574521303177 -0.5203193426132202 0 0 255
-0.08310467004776001 -0.11930783838033676 -0.527275800704956 0 0 255
-0.08702512085437775 -0.11495767533779144 -0.5234389901161194 0 0 255
-0.0820649191737175 -0.12051242589950562 -0.5245382785797119 0 0 255
-0.07521848380565643 -0.12241891026496887 -0.5208369493484497 0 0 255
-0.07961916923522949 -0.12764659523963928 -0.5153886675834656 0 0 255
-0.080556720495224 -0.13089263439178467 -0.508231520652771 0 0 255
-0.09336940944194794 -0.13187482953071594 -0.5236024856567383 0 0 255
-0.09889113157987595 -0.12506377696990967 -0.5481647253036499 0 0 255
-0.09986283630132675 -0.11734228581190109 -0.5482789874076843 0 0 255
-0.0981878936290741 -0.11737172305583954 -0.5501476526260376 0 0 255
-0.09760411828756332 -0.12199511379003525 -0.5497983694076538 0 0 255
-0.09228432923555374 -0.12656660377979279 -0.5474880337715149 0 0 255
-0.09560038894414902 -0.12617047131061554 -0.5424960255622864 0 0 255
-0.09310920536518097 -0.1267520636320114 -0.5428808331489563 0 0 255
-0.09379614144563675 -0.127122163772583 -0.5434614419937134 0 0 255
-0.09783676266670227 -0.12089548259973526 -0.542906641960144 0 0 255
-0.1005995124578476 -0.12683320045471191 -0.5440975427627563 0 0 255
-0.10013551265001297 -0.12321237474679947 -0.5545566082000732 0 0 255
-0.10617433488368988 -0.12091383337974548 -0.5554300546646118 0 0 255
-0.10839595645666122 -0.12566399574279785 -0.5610227584838867 0 0 255
-0.11536559462547302 -0.11867933720350266 -0.556401252746582 0 0 255
-0.10914306342601776 -0.11010944843292236 -0.5564978122711182 0 0 255
-0.11605491489171982 -0.09777466207742691 -0.5462252497673035 0 0 255
-0.12216342985630035 -0.09633586555719376 -0.5428770184516907 0 0 255
-0.12249728292226791 -0.09016864001750946 -0.5422107577323914 0 0 255
-0.11479008197784424 -0.09471898525953293 -0.5458461046218872 0 0 255
-0.11769329756498337 -0.090777687728405 -0.5423111915588379 0 0 255
-0.11983904987573624 -0.0970279723405838 -0.5492284893989563 0 0 255
-0.10989592224359512 -0.09267498552799225 -0.5594624876976013 0 0 255
-0.11485125124454498 -0.09918393939733505 -0.5618647933006287 0 0 255
-0.11455437541007996 -0.11001573503017426 -0.5637982487678528 0 0 255
-0.11686187982559204 -0.12240926921367645 -0.5600966811180115 0 0 255
-0.10325449705123901 -0.12510541081428528 -0.5566536784172058 0 0 255
-0.09932795912027359 -0.12405505776405334 -0.5514659881591797 0 0 255
-0.10944069176912308 -0.12977008521556854 -0.5432237386703491 0 0 255
-0.10159415751695633 -0.1391759067773819 -0.530463457107544 0 0 255
-0.10433214902877808 -0.1408364325761795 -0.5243813991546631 0 0 255
-0.10506709665060043 -0.14150622487068176 -0.5239223837852478 0 0 255
-0.10378734767436981 -0.14052829146385193 -0.5252602100372314 0 0 255
-0.1028612032532692 -0.13774529099464417 -0.5229201316833496 0 0 255
-0.10325683653354645 -0.13935764133930206 -0.5207321643829346 0 0 255
-0.10234320908784866 -0.13808608055114746 -0.5193032622337341 0 0 255
-0.10380107164382935 -0.141996830701828 -0.5205684900283813 0 0 255
-0.09909200668334961 -0.13496220111846924 -0.5253962278366089 0 0 255
-0.10142937302589417 -0.12822061777114868 -0.5234714150428772 0 0 255
-0.10148779302835464 -0.13550834357738495 -0.526309609413147 0 0 255
-0.09849289059638977 -0.1336987167596817 -0.5314277410507202 0 0 255
-0.10228604823350906 -0.13001801073551178 -0.529242217540741 0 0 255
-0.1045544371008873 -0.13487763702869415 -0.5378372073173523 0 0 255
-0.10241871327161789 -0.12795084714889526 -0.5405654907226562 0 0 255
-0.10900957882404327 -0.11963479965925217 -0.5468298196792603 0 0 255
-0.10973010212182999 -0.12427882850170135 -0.5508314371109009 0 0 255
-0.10858852416276932 -0.12469465285539627 -0.5519179105758667 0 0 255
-0.11030865460634232 -0.12612396478652954 -0.553692638874054 0 0 255
-0.10746656358242035 -0.12173217535018921 -0.5569021105766296 0 0 255
-0.1081523522734642 -0.11980737745761871 -0.5490130186080933 0 0 255
-0.10664662718772888 -0.13134971261024475 -0.5480342507362366 0 0 255
-0.1074969545006752 -0.1315799206495285 -0.5534721612930298 0 0 255
-0.06618689000606537 -0.12863413989543915 -0.5571615695953369 0 0 255
-0.08696835488080978 -0.14493566751480103 -0.5295484662055969 0 0 255
-0.08218680322170258 -0.1523403376340866 -0.5076866149902344 0 0 255
-0.07457775622606277 -0.15523643791675568 -0.503038763999939 0 0 255
-0.0778854638338089 -0.15520426630973816 -0.5085875391960144 0 0 255
-0.0871598869562149 -0.15343661606311798 -0.5095723867416382 0 0 255
-0.08193425089120865 -0.1491439789533615 -0.512256920337677 0 0 255
-0.08848042786121368 -0.1462196409702301 -0.5073227286338806 0 0 255
-0.09088482707738876 -0.14490415155887604 -0.5141410827636719 0 0 255
-0.09334824234247208 -0.1397983282804489 -0.5231096744537354 0 0 255
-0.09645496308803558 -0.13763749599456787 -0.5285397171974182 0 0 255
-0.0968203991651535 -0.13479550182819366 -0.5344703793525696 0 0 255
-0.10008862614631653 -0.133478581905365 -0.5409337878227234 0 0 255
-0.10218320786952972 -0.12576398253440857 -0.5427784323692322 0 0 255
-0.09930272400379181 -0.11760662496089935 -0.5473697781562805 0 0 255
-0.10430043935775757 -0.11577306687831879 -0.5510843992233276 0 0 255
-0.11055121570825577 -0.11376974731683731 -0.5576578974723816 0 0 255
-0.10561433434486389 -0.11075924336910248 -0.5581690073013306 0 0 255
-0.10362554341554642 -0.10306260734796524 -0.558447539806366 0 0 255
-0.10513085126876831 -0.10545340925455093 -0.5606238842010498 0 0 255
-0.10822802782058716 -0.09487392753362656 -0.5473107695579529 0 0 255
-0.11166507005691528 -0.08956495672464371 -0.5477412343025208 0 0 255
-0.11035221070051193 -0.0862722098827362 -0.5461705327033997 0 0 255
-0.10910757631063461 -0.08677106350660324 -0.5504698753356934 0 0 255
-0.1128493994474411 -0.08962520956993103 -0.5521057844161987 0 0 255
-0.11208350956439972 -0.09104353934526443 -0.552789032459259 0 0 255
-0.11510135978460312 -0.09404852986335754 -0.5460543036460876 0 0 255
-0.10745406150817871 -0.09107119590044022 -0.5488312840461731 0 0 255
-0.11235965043306351 -0.07614370435476303 -0.5310859680175781 0 0 255
-0.11543096601963043 -0.05979735776782036 -0.5197458267211914 0 0 255
-0.11565288156270981 -0.04911268502473831 -0.5084477066993713 0 0 255
-0.11833503097295761 -0.05031655728816986 -0.5011937618255615 0 0 255
-0.11732736229896545 -0.03433842957019806 -0.488801509141922 0 0 255
-0.11748374253511429 -0.04800388589501381 -0.49867677688598633 0 0 255
-0.12373235076665878 -0.058309320360422134 -0.5045112371444702 0 0 255
-0.12215011566877365 -0.06117812916636467 -0.5242129564285278 0 0 255
-0.11071351915597916 -0.04769575223326683 -0.5443645715713501 0 0 255
-0.09980563819408417 -0.024366116151213646 -0.5630488991737366 0 0 255
-0.09619919955730438 -0.02283530868589878 -0.5657383799552917 0 0 255
-0.0976429209113121 -0.014098992571234703 -0.5479897856712341 0 0 255
-0.09780354052782059 -0.031693235039711 -0.554918646812439 0 0 255
-0.0883399248123169 -0.04372730106115341 -0.5270541906356812 0 0 255
-0.07678082585334778 -0.04883226007223129 -0.48743659257888794 0 0 255
-0.06494288146495819 -0.07903631031513214 -0.4644431173801422 0 0 255
-0.07250431180000305 -0.08877061307430267 -0.44398635625839233 0 0 255
-0.06638894975185394 -0.1079651415348053 -0.465297132730484 0 0 255
-0.06547892838716507 -0.09539144486188889 -0.4386824369430542 0 0 255
-0.028547711670398712 -0.08085547387599945 -0.38157957792282104 0 0 255
-0.028368063271045685 -0.08950276672840118 -0.29820114374160767 0 0 255
-0.01855243183672428 -0.06494368612766266 -0.22639743983745575 0 0 255
0.014954173006117344 -0.03957603499293327 -0.12268771231174469 0 0 255
0.02670113369822502 -0.0512729175388813 -0.060347408056259155 0 0 255
0.04381069540977478 -0.04705354943871498 -0.033938243985176086 0 0 255
0.04121246933937073 -0.05540214106440544 -0.003712113481014967 0 0 255
0.018300235271453857 -0.051180895417928696 -0.04290958121418953 0 0 255
0.022886183112859726 -0.06932386010885239 -0.0845215767621994 0 0 255
0.01934647746384144 -0.06686507910490036 -0.09432980418205261 0 0 255
0.02049560472369194 -0.059272848069667816 -0.11041077971458435 0 0 255
0.017130881547927856 -0.06061001494526863 -0.10404428094625473 0 0 255
0.04394654184579849 -0.06063089892268181 -0.06944426149129868 0 0 255
0.05717586725950241 -0.051804184913635254 0.038203734904527664 0 0 255
0.09250239282846451 -0.025521812960505486 0.1518448144197464 0 0 255
0.1003253161907196 -0.00607635173946619 0.25852662324905396 0 0 255
0.10654415935277939 0.006995328236371279 0.334678590297699 0 0 255
0.11732985079288483 0.02054939977824688 0.3851272165775299 0 0 255
0.11485487222671509 0.03223150968551636 0.41947951912879944 0 0 255
0.11685770750045776 0.04150775074958801 0.44544553756713867 0 0 255
0.10944192111492157 0.04225711524486542 0.45105957984924316 0 0 255
0.10441477596759796 0.03695719316601753 0.42286521196365356 0 0 255
0.08582384139299393 0.007048918399959803 0.35009878873825073 0 0 255
0.07919140160083771 -0.030943389981985092 0.25730055570602417 0 0 255
0.07971328496932983 -0.043202802538871765 0.18047770857810974 0 0 255
0.07841604202985764 -0.06562130898237228 0.16098017990589142 0 0 255
0.0772930458188057 -0.06475076079368591 0.1547999531030655 0 0 255
0.08123985677957535 -0.03714221343398094 0.17316143214702606 0 0 255
0.060755275189876556 -0.042589571326971054 0.16864725947380066 0 0 255
0.05529271438717842 -0.06788600981235504 0.11447638273239136 0 0 255
0.05338466539978981 -0.09741529077291489 0.03794407099485397 0 0 255
0.004056531470268965 -0.1312970221042633 -0.10576777905225754 0 0 255
-0.05274420604109764 -0.16159974038600922 -0.3070048689842224 0 0 255
-0.07399923354387283 -0.1403038203716278 -0.4383673667907715 0 0 255
-0.061323534697294235 -0.10762400925159454 -0.45695605874061584 0 0 255
-0.05744759738445282 -0.1303161382675171 -0.45540285110473633 0 0 255
-0.04818344488739967 -0.1345001459121704 -0.4327821731567383 0 0 255
-0.04991002380847931 -0.1480165421962738 -0.4037174582481384 0 0 255
-0.03701898083090782 -0.14652352035045624 -0.3915329873561859 0 0 255
-0.03616888076066971 -0.14302173256874084 -0.35992947220802307 0 0 255
-0.03528997674584389 -0.1375514566898346 -0.3429536521434784 0 0 255
-0.02760566584765911 -0.14134837687015533 -0.34029287099838257 0 0 255
-0.02120010368525982 -0.13160109519958496 -0.32150372862815857 0 0 255
-0.03911794349551201 -0.1350346803665161 -0.33529970049858093 0 0 255
-0.03483818098902702 -0.1358240246772766 -0.37368103861808777 0 0 255
-0.05028112232685089 -0.1520610898733139 -0.407527357339859 0 0 255
-0.05870926007628441 -0.15016378462314606 -0.4374050498008728 0 0 255
-0.060484305024147034 -0.143159419298172 -0.4411691427230835 0 0 255
-0.06296701729297638 -0.1417909860610962 -0.4458029568195343 0 0 255
-0.06525512039661407 -0.15140223503112793 -0.44420474767684937 0 0 255
-0.06132365018129349 -0.1521349400281906 -0.44670528173446655 0 0 255
-0.060549475252628326 -0.15496593713760376 -0.43197163939476013 0 0 255
-0.058306608349084854 -0.15683357417583466 -0.42619967460632324 0 0 255
-0.05376489832997322 -0.15684480965137482 -0.4180503487586975 0 0 255
-0.053029388189315796 -0.156644806265831 -0.41108691692352295 0 0 255
-0.055667031556367874 -0.16106243431568146 -0.41271576285362244 0 0 255
-0.055517639964818954 -0.16627414524555206 -0.41320571303367615 0 0 255
-0.05072981119155884 -0.16417847573757172 -0.41686028242111206 0 0 255
-0.05437066778540611 -0.1588427871465683 -0.41748949885368347 0 0 255
-0.057948675006628036 -0.16214966773986816 -0.42534980177879333 0 0 255
-0.06218565255403519 -0.15966442227363586 -0.4305260479450226 0 0 255
-0.06429300457239151 -0.15417857468128204 -0.44215768575668335 0 0 255
-0.06359437108039856 -0.15281465649604797 -0.4519788920879364 0 0 255
-0.06180115416646004 -0.15318389236927032 -0.4479517340660095 0 0 255
-0.06103849411010742 -0.15196354687213898 -0.4359554350376129 0 0 255
-0.05982346087694168 -0.15291234850883484 -0.4294201731681824 0 0 255
-0.05509866029024124 -0.15087689459323883 -0.42641496658325195 0 0 255
-0.057706497609615326 -0.1514601707458496 -0.4247254729270935 0 0 255
-0.05695087090134621 -0.15242645144462585 -0.42801639437675476 0 0 255
-0.05111479386687279 -0.15060600638389587 -0.419083833694458 0 0 255
-0.044297125190496445 -0.14878743886947632 -0.3992716073989868 0 0 255
-0.0391557551920414 -0.1536710262298584 -0.38549983501434326 0 0 255
-0.040741533041000366 -0.1521395891904831 -0.3729853332042694 0 0 255
-0.04123746231198311 -0.15204700827598572 -0.3711429536342621 0 0 255
-0.035895489156246185 -0.15391066670417786 -0.3707413673400879 0 0 255
-0.039659615606069565 -0.1542198807001114 -0.3706649839878082 0 0 255
-0.04156684875488281 -0.1495787799358368 -0.3844553828239441 0 0 255
-0.046948593109846115 -0.1574021279811859 -0.38692763447761536 0 0 255
-0.048627156764268875 -0.1579955369234085 -0.39960986375808716 0 0 255
-0.04944895952939987 -0.15554597973823547 -0.4083150625228882 0 0 255
-0.0457591637969017 -0.15127333998680115 -0.40802788734436035 0 0 255
-0.043607670813798904 -0.1557503640651703 -0.4011342227458954 0 0 255
-0.0441596657037735 -0.15112724900245667 -0.39719998836517334 0 0 255
-0.04684905707836151 -0.14974412322044373 -0.3936707675457001 0 0 255
-0.04564838483929634 -0.14944492280483246 -0.3982476592063904 0 0 255
-0.04659175127744675 -0.1533880978822708 -0.3964320421218872 0 0 255
-0.04714685678482056 -0.15223608911037445 -0.40086138248443604 0 0 255
-0.047476381063461304 -0.15195968747138977 -0.41484370827674866 0 0 255
-0.05639667436480522 -0.14798569679260254 -0.4235042631626129 0 0 255
-0.04988345131278038 -0.1417246311903 -0.4253847301006317 0 0 255
-0.049469057470560074 -0.14854954183101654 -0.41545334458351135 0 0 255
-0.05415986478328705 -0.14958038926124573 -0.4119130074977875 0 0 255
-0.043644554913043976 -0.1439993679523468 -0.3996582329273224 0 0 255
-0.04088180139660835 -0.1489741951227188 -0.3878515362739563 0 0 255
-0.04134300351142883 -0.1382143497467041 -0.3757063150405884 0 0 255
-0.030816614627838135 -0.13236023485660553 -0.3675733208656311 0 0 255
-0.03265312314033508 -0.1403975933790207 -0.35080686211586 0 0 255
-0.021020999178290367 -0.14459015429019928 -0.3362158536911011 0 0 255
-0.0047678821720182896 -0.13562308251857758 -0.2908915877342224 0 0 255
0.0025628337170928717 -0.12692031264305115 -0.2405993789434433 0 0 255
0.015296773985028267 -0.10217754542827606 -0.12867887318134308 0 0 255
0.06395159661769867 -0.05136391520500183 0.0563843809068203 0 0 255
0.09302041679620743 -0.01174877304583788 0.29003632068634033 0 0 255
0.10729040205478668 0.02814808301627636 0.45427459478378296 0 0 255
0.12257693707942963 0.0831969603896141 0.5341748595237732 0 0 255
0.11975088715553284 0.09050129354000092 0.5600398182868958 0 0 255
0.10818950086832047 0.07563161849975586 0.5556144714355469 0 0 255
0.12041927129030228 0.09918376803398132 0.5474108457565308 0 0 255
0.10020480304956436 0.13225053250789642 0.5448578000068665 0 0 255
0.10426054149866104 0.15368567407131195 0.504770040512085 0 0 255
0.10131241381168365 0.16255910694599152 0.5083768367767334 0 0 255
0.09787822514772415 0.1641610860824585 0.49948588013648987 0 0 255
0.11750631034374237 0.14967696368694305 0.5167610049247742 0 0 255
0.10750564932823181 0.14206083118915558 0.521537184715271 0 0 255
0.10492328554391861 0.13689763844013214 0.5217053294181824 0 0 255
0.10286852717399597 0.13323496282100677 0.5305460691452026 0 0 255
0.10181993246078491 0.12776696681976318 0.5282397270202637 0 0 255
0.10396598279476166 0.132729172706604 0.5298227071762085 0 0 255
0.09768671542406082 0.12844234704971313 0.5340308547019958 0 0 255
0.10095624625682831 0.1322578489780426 0.5279309749603271 0 0 255
0.09825046360492706 0.1309375762939453 0.5311833620071411 0 0 255
0.10078786313533783 0.12550924718379974 0.5353903770446777 0 0 255
0.09912187606096268 0.12818865478038788 0.532314658164978 0 0 255
0.09764952957630157 0.13065528869628906 0.5362148880958557 0 0 255
0.09921103715896606 0.1310061812400818 0.5413550734519958 0 0 255
0.09406760334968567 0.1332535296678543 0.5403134822845459 0 0 255
0.09360665827989578 0.13438770174980164 0.53895503282547 0 0 255
0.09787066280841827 0.13229776918888092 0.5367302894592285 0 0 255
0.10158123821020126 0.12655144929885864 0.5387610197067261 0 0 255
0.1036962941288948 0.12809762358665466 0.5482198596000671 0 0 255
0.09669861942529678 0.12693247199058533 0.5490412712097168 0 0 255
0.09957434982061386 0.12825895845890045 0.5448034405708313 0 0 255
0.10377418249845505 0.12268678098917007 0.5492925643920898 0 0 255
0.10201459378004074 0.12274734675884247 0.5518708229064941 0 0 255
0.10151708871126175 0.11864210665225983 0.5542764067649841 0 0 255
0.10186159610748291 0.12043945491313934 0.553318977355957 0 0 255
0.10599980503320694 0.12062737345695496 0.5521332621574402 0 0 255
0.09863612800836563 0.11135245859622955 0.555571436882019 0 0 255
0.10357572138309479 0.11879848688840866 0.5478116869926453 0 0 255
0.09674787521362305 0.1224152222275734 0.5555649995803833 0 0 255
0.09764594584703445 0.12473609298467636 0.5470387935638428 0 0 255
0.09786947071552277 0.12226126343011856 0.5424007177352905 0 0 255
0.09969064593315125 0.12388794869184494 0.5420321822166443 0 0 255
0.09251204133033752 0.12616018950939178 0.5414561629295349 0 0 255
0.09228063374757767 0.13186264038085938 0.5339715480804443 0 0 255
0.09320630878210068 0.12997229397296906 0.5341477394104004 0 0 255
0.088568776845932 0.13209283351898193 0.5285875797271729 0 0 255
0.08127088099718094 0.1301899403333664 0.5179959535598755 0 0 255
0.08644010126590729 0.13835713267326355 0.5097919702529907 0 0 255
0.08546268194913864 0.1441783905029297 0.5109477639198303 0 0 255
0.08710581809282303 0.1420135498046875 0.5101670622825623 0 0 255
0.08132735639810562 0.14422959089279175 0.5035150051116943 0 0 255
