ply
format ascii 1.0
element vertex 684
property float x
property float y
property float z
property uchar red
property uchar green
property uchar blue
end_header
0.0955873653292656 0.4105093777179718 -0.06145055964589119 255 127 0
0.06002167612314224 0.37385791540145874 -0.09149592369794846 255 127 0
0.05157386139035225 0.3684673011302948 -0.09615281224250793 255 127 0
0.05137578770518303 0.3670487105846405 -0.09817128628492355 255 127 0
0.06509815901517868 0.3480357825756073 -0.11164120584726334 255 127 0
0.0592145211994648 0.35985249280929565 -0.10952167958021164 255 127 0
0.07630333304405212 0.38413217663764954 -0.11649031192064285 255 127 0
0.07904379069805145 0.38526079058647156 -0.10153477638959885 255 127 0
0.06699007749557495 0.4052555561065674 -0.09863263368606567 255 127 0
0.07267352938652039 0.4148559868335724 -0.09968644380569458 255 127 0
0.09338896721601486 0.4230233430862427 -0.0737137570977211 255 127 0
0.0998135507106781 0.43674907088279724 -0.06250554323196411 255 127 0
0.10491231828927994 0.4554716944694519 -0.05753486976027489 255 127 0
0.11658546328544617 0.46209147572517395 -0.06687542796134949 255 127 0
0.12558791041374207 0.4716644883155823 -0.04368498548865318 255 127 0
0.11282254755496979 0.4786608815193176 -0.05085877701640129 255 127 0
0.11254128813743591 0.47650980949401855 -0.0654803067445755 255 127 0
0.10102076083421707 0.46455875039100647 -0.06801046431064606 255 127 0
0.07838351279497147 0.4704701900482178 -0.06478578597307205 255 127 0
0.08392333984375 0.46363162994384766 -0.05994263291358948 255 127 0
0.09644056111574173 0.45099207758903503 -0.07755424082279205 255 127 0
0.06097552925348282 0.4125424921512604 -0.08270328491926193 255 127 0
0.04362412169575691 0.39985281229019165 -0.09674165397882462 255 127 0
0.07091225683689117 0.40517786145210266 -0.10885816067457199 255 127 0
0.09552698582410812 0.38357847929000854 -0.1262362152338028 255 127 0
0.08934817463159561 0.3716142773628235 -0.13461275398731232 255 127 0
0.10132035613059998 0.34930261969566345 -0.14769312739372253 255 127 0
0.11350259929895401 0.3279765546321869 -0.13262774050235748 255 127 0
0.12698101997375488 0.3219079375267029 -0.16112108528614044 255 127 0
0.08864600956439972 0.31250277161598206 -0.16381753981113434 255 127 0
0.06676719337701797 0.31065788865089417 -0.17619861662387848 255 127 0
0.10743267089128494 0.30455949902534485 -0.14273123443126678 255 127 0
0.0711277648806572 0.3361562490463257 -0.12355019897222519 255 127 0
0.09211943298578262 0.38145968317985535 -0.13146550953388214 255 127 0
0.11579973995685577 0.40631380677223206 -0.12744808197021484 255 127 0
0.12139023095369339 0.42196646332740784 -0.15305262804031372 255 127 0
0.12027022242546082 0.4207914173603058 -0.17978577315807343 255 127 0
0.1429053544998169 0.3875413239002228 -0.16908563673496246 255 127 0
0.16165369749069214 0.36173972487449646 -0.1463409662246704 255 127 0
0.15676012635231018 0.3805851936340332 -0.19842301309108734 255 127 0
0.1545657515525818 0.38649848103523254 -0.21058088541030884 255 127 0
0.18398544192314148 0.39129582047462463 -0.20963576436042786 255 127 0
0.19165173172950745 0.4042172431945801 -0.20182546973228455 255 127 0
0.18930254876613617 0.40515804290771484 -0.20755216479301453 255 127 0
0.18504571914672852 0.43539902567863464 -0.19198711216449738 255 127 0
0.19714272022247314 0.4298461377620697 -0.1685095578432083 255 127 0
0.21588733792304993 0.383881151676178 -0.20144321024417877 255 127 0
0.19384223222732544 0.2859848439693451 -0.26203280687332153 255 127 0
0.19145800173282623 0.24294635653495789 -0.3104937970638275 255 127 0
0.1827949434518814 0.21461883187294006 -0.28942814469337463 255 127 0
0.19324679672718048 0.19881728291511536 -0.2815658450126648 255 127 0
0.201619952917099 0.1640646755695343 -0.30814558267593384 255 127 0
0.22756268084049225 0.15504485368728638 -0.36444079875946045 255 127 0
0.24619536101818085 0.12250100076198578 -0.3631543517112732 255 127 0
0.22208188474178314 0.13268882036209106 -0.30259379744529724 255 127 0
0.20758260786533356 0.15640151500701904 -0.28112271428108215 255 127 0
0.20422521233558655 0.23302553594112396 -0.21229960024356842 255 127 0
0.191484734416008 0.2370402216911316 -0.27247363328933716 255 127 0
0.19134825468063354 0.20754140615463257 -0.2706472873687744 255 127 0
0.19054913520812988 0.19247031211853027 -0.2818037271499634 255 127 0
0.18398670852184296 0.19102758169174194 -0.27749601006507874 255 127 0
0.18191704154014587 0.20775699615478516 -0.247251957654953 255 127 0
0.15849225223064423 0.2419074922800064 -0.20651988685131073 255 127 0
0.16334180533885956 0.2783706486225128 -0.19152088463306427 255 127 0
0.1555851399898529 0.3039645254611969 -0.22471705079078674 255 127 0
0.1624731719493866 0.28814420104026794 -0.26064932346343994 255 127 0
0.16980178654193878 0.2590387761592865 -0.27690884470939636 255 127 0
0.17294159531593323 0.22978875041007996 -0.258203387260437 255 127 0
0.1942163109779358 0.2779701054096222 -0.22038471698760986 255 127 0
0.15329940617084503 0.27685311436653137 -0.19956204295158386 255 127 0
0.17005158960819244 0.3288635015487671 -0.13509082794189453 255 127 0
0.2238016426563263 0.3193106949329376 -0.12432029843330383 255 127 0
0.18836410343647003 0.3636127710342407 -0.09447254985570908 255 127 0
0.17518845200538635 0.40092790126800537 -0.06629408895969391 255 127 0
0.23324401676654816 0.41279980540275574 -0.08603326976299286 255 127 0
0.28350651264190674 0.42395085096359253 -0.1501169204711914 255 127 0
0.1880573183298111 0.3058561086654663 -0.11629365384578705 255 127 0
0.23176804184913635 0.2408866137266159 0.021329503506422043 255 127 0
0.2718181908130646 0.17363327741622925 -0.018362252041697502 255 127 0
0.2663104832172394 0.18420393764972687 -0.053370337933301926 255 127 0
0.2750680446624756 0.18952205777168274 -0.09100125730037689 255 127 0
0.2902660369873047 0.19724689424037933 -0.19614435732364655 255 127 0
0.3144814670085907 0.129618301987648 -0.21670393645763397 255 127 0
0.3022948205471039 0.09444616734981537 -0.11148574948310852 255 127 0
0.32964828610420227 0.04136257618665695 -0.2041396051645279 255 127 0
0.30125826597213745 -0.026119360700249672 -0.18274351954460144 255 127 0
0.21174238622188568 -0.07883754372596741 0.023151937872171402 255 127 0
0.22098499536514282 -0.10207980871200562 -0.04018988087773323 255 127 0
0.20953553915023804 -0.11607865989208221 0.04964824393391609 255 127 0
0.25326478481292725 -0.11415282636880875 0.07225372642278671 255 127 0
0.24549289047718048 -0.041902925819158554 0.0761992558836937 255 127 0
0.19425353407859802 -0.013550073839724064 0.1048305556178093 255 127 0
0.19593445956707 0.01301981508731842 0.15763548016548157 255 127 0
0.19026298820972443 0.030708011239767075 0.1847686469554901 255 127 0
0.18896761536598206 0.05834805592894554 0.1970115303993225 255 127 0
0.16318924725055695 0.09272328019142151 0.18770359456539154 255 127 0
0.14450784027576447 0.0968799740076065 0.22245638072490692 255 127 0
0.14170482754707336 0.10782361030578613 0.23177611827850342 255 127 0
0.157219797372818 0.12828034162521362 0.23365037143230438 255 127 0
0.15730491280555725 0.17064955830574036 0.22494471073150635 255 127 0
0.15873625874519348 0.23446494340896606 0.2107313573360443 255 127 0
0.20628121495246887 0.27163705229759216 0.18937677145004272 255 127 0
0.18057851493358612 0.2982740104198456 0.23541124165058136 255 127 0
0.17493443191051483 0.32979291677474976 0.26529285311698914 255 127 0
0.16068078577518463 0.3534010648727417 0.2461744099855423 255 127 0
0.1791999340057373 0.3840375244617462 0.20258812606334686 255 127 0
0.20979364216327667 0.411676287651062 0.17289961874485016 255 127 0
0.20511072874069214 0.3839046061038971 0.15889033675193787 255 127 0
0.18440034985542297 0.422432541847229 0.20757323503494263 255 127 0
0.19247585535049438 0.39011701941490173 0.2249922901391983 255 127 0
0.19822028279304504 0.317452996969223 0.23497885465621948 255 127 0
0.26862773299217224 0.3869532644748688 0.19585458934307098 255 127 0
0.2715296447277069 0.44108015298843384 0.15486834943294525 255 127 0
0.2721472382545471 0.45995840430259705 0.17873767018318176 255 127 0
0.26702284812927246 0.4667907655239105 0.188118577003479 255 127 0
0.23259881138801575 0.4720946252346039 0.2147517055273056 255 127 0
0.3000023066997528 0.4977980852127075 0.17963607609272003 255 127 0
0.22205406427383423 0.560179591178894 0.1932947039604187 255 127 0
0.2336551994085312 0.5823358297348022 0.15120519697666168 255 127 0
0.24261513352394104 0.5251705050468445 0.1717919409275055 255 127 0
0.2530395984649658 0.5112048983573914 0.2283150553703308 255 127 0
0.2404809594154358 0.5032849907875061 0.24207234382629395 255 127 0
0.2338988035917282 0.4959968626499176 0.265750527381897 255 127 0
0.1769355982542038 0.5097267031669617 0.31702446937561035 255 127 0
0.17312395572662354 0.5218802690505981 0.2623252272605896 255 127 0
0.19125846028327942 0.5281715989112854 0.26785168051719666 255 127 0
0.1565641611814499 0.5378173589706421 0.2766275703907013 255 127 0
0.18786944448947906 0.5406832098960876 0.23725780844688416 255 127 0
0.18748074769973755 0.5599216818809509 0.23214904963970184 255 127 0
0.2060251384973526 0.5644920468330383 0.229561448097229 255 127 0
0.22767722606658936 0.5788171291351318 0.24474897980690002 255 127 0
0.17788003385066986 0.581399142742157 0.2505885362625122 255 127 0
0.17798271775245667 0.5654288530349731 0.22539065778255463 255 127 0
0.21660275757312775 0.5466232895851135 0.2133326530456543 255 127 0
0.1980799287557602 0.5105587840080261 0.259426474571228 255 127 0
0.18620237708091736 0.4902493953704834 0.2749271094799042 255 127 0
0.16283021867275238 0.46146655082702637 0.285955548286438 255 127 0
0.15964239835739136 0.4503554701805115 0.2985946536064148 255 127 0
0.14526158571243286 0.4521978199481964 0.29904210567474365 255 127 0
0.13840816915035248 0.4481416642665863 0.3048478364944458 255 127 0
0.13652165234088898 0.45610085129737854 0.3117554783821106 255 127 0
0.1280355304479599 0.4577983319759369 0.3151038885116577 255 127 0
0.1410701721906662 0.45459750294685364 0.31474193930625916 255 127 0
0.13140365481376648 0.4464392364025116 0.3118162751197815 255 127 0
0.11435254663228989 0.44568371772766113 0.3187142014503479 255 127 0
0.12407742440700531 0.446946382522583 0.3259779214859009 255 127 0
0.13450504839420319 0.4403521716594696 0.3387356996536255 255 127 0
0.11765873432159424 0.46384841203689575 0.33270251750946045 255 127 0
0.12436092644929886 0.48403438925743103 0.32649171352386475 255 127 0
0.12355903536081314 0.4927749037742615 0.33452337980270386 255 127 0
0.1131753921508789 0.49594467878341675 0.3496474623680115 255 127 0
0.12491250038146973 0.4956779479980469 0.34553295373916626 255 127 0
0.14297251403331757 0.49662598967552185 0.3377852737903595 255 127 0
0.1385980248451233 0.5039199590682983 0.3358599841594696 255 127 0
0.14135348796844482 0.4942688047885895 0.32536032795906067 255 127 0
0.1712450534105301 0.4996564984321594 0.31223076581954956 255 127 0
0.17790347337722778 0.5069602727890015 0.3067280054092407 255 127 0
0.1817077398300171 0.5131343603134155 0.2898852825164795 255 127 0
0.16954785585403442 0.5000931620597839 0.2970145046710968 255 127 0
0.179128497838974 0.485331267118454 0.30051684379577637 255 127 0
0.19614556431770325 0.4726699888706207 0.2906644344329834 255 127 0
0.18585774302482605 0.47487515211105347 0.29205095767974854 255 127 0
0.19604580104351044 0.49313604831695557 0.2889603078365326 255 127 0
0.20191653072834015 0.5005025267601013 0.2760610282421112 255 127 0
0.19343094527721405 0.5083034038543701 0.27960941195487976 255 127 0
0.19737057387828827 0.5026978850364685 0.28917717933654785 255 127 0
0.1948273926973343 0.48823976516723633 0.30293506383895874 255 127 0
0.18224626779556274 0.48741474747657776 0.3043452203273773 255 127 0
0.1988523006439209 0.4856002628803253 0.2925100326538086 255 127 0
0.18924078345298767 0.48152801394462585 0.2817508280277252 255 127 0
0.2183588445186615 0.4851057231426239 0.27359291911125183 255 127 0
0.2271149754524231 0.48823121190071106 0.28408417105674744 255 127 0
0.20844964683055878 0.4918171465396881 0.28256770968437195 255 127 0
0.20946714282035828 0.4901488721370697 0.2927156388759613 255 127 0
0.2085394710302353 0.4889151155948639 0.3096725344657898 255 127 0
0.20831800997257233 0.5089158415794373 0.31188589334487915 255 127 0
0.2047961801290512 0.5271955132484436 0.30032944679260254 255 127 0
0.21409958600997925 0.5439050793647766 0.30338287353515625 255 127 0
0.20947670936584473 0.561277449131012 0.31538301706314087 255 127 0
0.2070278376340866 0.5545991659164429 0.3235766291618347 255 127 0
0.20082725584506989 0.5563398599624634 0.3253122568130493 255 127 0
0.18613554537296295 0.5494094491004944 0.3291997015476227 255 127 0
0.17786075174808502 0.5533246397972107 0.33637818694114685 255 127 0
0.1646103709936142 0.5763348340988159 0.3325541615486145 255 127 0
0.17053735256195068 0.6036468744277954 0.3277881145477295 255 127 0
0.1506728082895279 0.6233700513839722 0.33008694648742676 255 127 0
0.1253795176744461 0.6151270866394043 0.3441137373447418 255 127 0
0.12720158696174622 0.61175137758255 0.3380011022090912 255 127 0
0.10064484924077988 0.6001307368278503 0.3500175476074219 255 127 0
0.07764691859483719 0.6041609048843384 0.3659210205078125 255 127 0
0.06644764542579651 0.5961999893188477 0.37337255477905273 255 127 0
0.046023640781641006 0.5969405770301819 0.3748288154602051 255 127 0
0.035985417664051056 0.607537031173706 0.3771575093269348 255 127 0
0.04586299508810043 0.5997220873832703 0.3768071234226227 255 127 0
0.03783222660422325 0.5594781041145325 0.37621650099754333 255 127 0
0.04899711534380913 0.5392070412635803 0.3730704188346863 255 127 0
0.01642758399248123 0.5370660424232483 0.37861886620521545 255 127 0
0.011104825884103775 0.5315274000167847 0.3789164125919342 255 127 0
0.01126064918935299 0.5156994462013245 0.38340041041374207 255 127 0
0.019803941249847412 0.5095383524894714 0.36994293332099915 255 127 0
0.014172837138175964 0.5014259815216064 0.3575550317764282 255 127 0
0.006604003719985485 0.491552472114563 0.3548843264579773 255 127 0
0.009134785272181034 0.47757193446159363 0.3560429513454437 255 127 0
0.03399664908647537 0.46571606397628784 0.35493004322052 255 127 0
0.02079530991613865 0.46809837222099304 0.35497280955314636 255 127 0
0.019929664209485054 0.46643179655075073 0.3466188311576843 255 127 0
0.023897280916571617 0.45465222001075745 0.3453754782676697 255 127 0
0.030201073735952377 0.44835352897644043 0.3533138930797577 255 127 0
0.04239855334162712 0.43871915340423584 0.36178988218307495 255 127 0
0.04826897382736206 0.44047775864601135 0.35958391427993774 255 127 0
0.05930798500776291 0.455835223197937 0.35325199365615845 255 127 0
0.05873947590589523 0.4680737257003784 0.35092872381210327 255 127 0
0.07411908358335495 0.49060916900634766 0.34269946813583374 255 127 0
0.08906383812427521 0.5211714506149292 0.3300810754299164 255 127 0
0.09307869523763657 0.5257248282432556 0.3346228003501892 255 127 0
0.08307433128356934 0.5163968205451965 0.34813445806503296 255 127 0
0.10288730263710022 0.5193496346473694 0.3404776155948639 255 127 0
0.08846424520015717 0.502837061882019 0.3484988808631897 255 127 0
0.07860487699508667 0.4944457709789276 0.35404232144355774 255 127 0
0.07056784629821777 0.4970296025276184 0.34149107336997986 255 127 0
0.0626889020204544 0.49607083201408386 0.3568647503852844 255 127 0
0.0593184232711792 0.4930397868156433 0.3569125235080719 255 127 0
0.0507737472653389 0.4919619560241699 0.36661630868911743 255 127 0
0.036867063492536545 0.4900258481502533 0.3749067485332489 255 127 0
0.030612410977482796 0.4916918873786926 0.3774503469467163 255 127 0
0.019439850002527237 0.4926672875881195 0.36807289719581604 255 127 0
0.01309992466121912 0.4929787814617157 0.35936254262924194 255 127 0
0.014038346707820892 0.49859991669654846 0.3629886209964752 255 127 0
0.020748673006892204 0.49206244945526123 0.36066120862960815 255 127 0
0.034300971776247025 0.48139283061027527 0.36212268471717834 255 127 0
0.026667088270187378 0.47324785590171814 0.36329326033592224 255 127 0
0.03316015750169754 0.4716300666332245 0.3551226854324341 255 127 0
0.04487626999616623 0.4794774353504181 0.348601758480072 255 127 0
0.04351157695055008 0.48121124505996704 0.3645058572292328 255 127 0
0.03604844957590103 0.47471457719802856 0.3512055277824402 255 127 0
0.027441466227173805 0.459481418132782 0.3521827459335327 255 127 0
0.02911636419594288 0.45807698369026184 0.36132919788360596 255 127 0
0.023973481729626656 0.4599461257457733 0.3625713288784027 255 127 0
0.02298193983733654 0.4469754993915558 0.3526417911052704 255 127 0
0.013019134290516376 0.43638530373573303 0.3496353030204773 255 127 0
0.01024086493998766 0.4293152391910553 0.3362556993961334 255 127 0
0.022147631272673607 0.41702547669410706 0.34973329305648804 255 127 0
0.025539765134453773 0.4216122627258301 0.33474433422088623 255 127 0
0.03798495978116989 0.4137493073940277 0.3450717329978943 255 127 0
0.04515045881271362 0.4152527153491974 0.3418004512786865 255 127 0
0.03793460130691528 0.41120392084121704 0.33908528089523315 255 127 0
0.049430400133132935 0.40244415402412415 0.34545382857322693 255 127 0
0.07115133106708527 0.3829098641872406 0.33902278542518616 255 127 0
0.05235052853822708 0.3667101562023163 0.33600401878356934 255 127 0
0.06271656602621078 0.3700293004512787 0.3220091462135315 255 127 0
0.05763329938054085 0.3436761796474457 0.3304497003555298 255 127 0
0.04823342710733414 0.30235570669174194 0.34172576665878296 255 127 0
0.05739289149641991 0.23856361210346222 0.3402487337589264 255 127 0
0.0577031672000885 0.192774698138237 0.2876557409763336 255 127 0
0.07854625582695007 0.15748852491378784 0.25083431601524353 255 127 0
0.08548881113529205 0.09530865401029587 0.26553770899772644 255 127 0
0.08045680820941925 -0.003261267440393567 0.23203955590724945 255 127 0
0.0721166729927063 -0.07237588614225388 0.21543528139591217 255 127 0
0.0747140422463417 -0.10566148161888123 0.17258617281913757 255 127 0
0.12384923547506332 -0.14613144099712372 0.1150282621383667 255 127 0
0.1348026692867279 -0.20871366560459137 0.057275570929050446 255 127 0
0.12587890028953552 -0.2364167720079422 0.023835303261876106 255 127 0
0.11713908612728119 -0.23292958736419678 0.048204205930233 255 127 0
0.10807748883962631 -0.23576569557189941 0.09047006070613861 255 127 0
0.10903433710336685 -0.2710300087928772 0.07517736405134201 255 127 0
0.0856398418545723 -0.3074171543121338 0.049571674317121506 255 127 0
0.0515238493680954 -0.3054714500904083 0.05689770355820656 255 127 0
0.09911198168992996 -0.3489798307418823 0.04005098342895508 255 127 0
0.09613678604364395 -0.42581069469451904 0.01248419564217329 255 127 0
0.07522256672382355 -0.44276365637779236 -0.05232193320989609 255 127 0
0.05054881423711777 -0.4583360552787781 -0.10239672660827637 255 127 0
0.038276731967926025 -0.5055970549583435 -0.09064888209104538 255 127 0
0.05133457109332085 -0.576643705368042 -0.09044648706912994 255 127 0
0.02533118799328804 -0.5892956852912903 -0.1165071502327919 255 127 0
0.03842542693018913 -0.5328623056411743 -0.13964952528476715 255 127 0
0.0462537445127964 -0.5436415076255798 -0.17298175394535065 255 127 0
0.014683352783322334 -0.5767763257026672 -0.14505988359451294 255 127 0
0.027211444452404976 -0.5789414644241333 -0.18431657552719116 255 127 0
0.021856196224689484 -0.6521831750869751 -0.20694106817245483 255 127 0
0.00792353879660368 -0.6699953079223633 -0.25750958919525146 255 127 0
0.008546687662601471 -0.6275032758712769 -0.3078709840774536 255 127 0
-0.037982817739248276 -0.6635372638702393 -0.2493804693222046 255 127 0
-0.024837113916873932 -0.6872809529304504 -0.20328989624977112 255 127 0
-0.04296887293457985 -0.7204534411430359 -0.2070992887020111 255 127 0
-0.06653707474470139 -0.7158222198486328 -0.24254471063613892 255 127 0
-0.0724627822637558 -0.7080168128013611 -0.26788216829299927 255 127 0
-0.08860418945550919 -0.7193024158477783 -0.2722831070423126 255 127 0
-0.1076284646987915 -0.7317824959754944 -0.32608434557914734 255 127 0
-0.0723172053694725 -0.7016448974609375 -0.3464162051677704 255 127 0
-0.052560966461896896 -0.6858227849006653 -0.3103589713573456 255 127 0
-0.06218676641583443 -0.6991053223609924 -0.24966809153556824 255 127 0
-0.06365558505058289 -0.7205007076263428 -0.2158750295639038 255 127 0
-0.0594584196805954 -0.7449716925621033 -0.2205907553434372 255 127 0
-0.05092763155698776 -0.7500068545341492 -0.2302662432193756 255 127 0
-0.05623388662934303 -0.7419320940971375 -0.23004010319709778 255 127 0
-0.03831509128212929 -0.7023786902427673 -0.22379902005195618 255 127 0
-0.03396926820278168 -0.7023812532424927 -0.21344700455665588 255 127 0
-0.059785034507513046 -0.7397286295890808 -0.195717453956604 255 127 0
-0.05907268077135086 -0.7676133513450623 -0.24787020683288574 255 127 0
-0.05388249084353447 -0.7563403844833374 -0.2635952830314636 255 127 0
-0.03837890923023224 -0.7284685373306274 -0.23680464923381805 255 127 0
-0.03534315153956413 -0.6864533424377441 -0.3040345311164856 255 127 0
-0.029500041157007217 -0.6654297709465027 -0.2950827479362488 255 127 0
-0.018200401216745377 -0.6742228865623474 -0.23767860233783722 255 127 0
-0.0026493899058550596 -0.6880531311035156 -0.2226504385471344 255 127 0
-0.009045474231243134 -0.7005019187927246 -0.22253982722759247 255 127 0
0.03805657848715782 -0.700677752494812 -0.24076952040195465 255 127 0
-0.00014205908519215882 -0.6958596706390381 -0.31198403239250183 255 127 0
0.014898417517542839 -0.6501293182373047 -0.3493853509426117 255 127 0
0.005186642054468393 -0.6778503656387329 -0.33022135496139526 255 127 0
0.012479591183364391 -0.701779842376709 -0.3094862699508667 255 127 0
-0.03061644732952118 -0.7296566963195801 -0.3411746025085449 255 127 0
-0.024998730048537254 -0.6779015064239502 -0.3262385129928589 255 127 0
0.027470555156469345 -0.6890999674797058 -0.3070968687534332 255 127 0
0.018523521721363068 -0.679716944694519 -0.3391186594963074 255 127 0
0.039018623530864716 -0.6697549819946289 -0.39676377177238464 255 127 0
0.06928835809230804 -0.6812453269958496 -0.3791428804397583 255 127 0
0.08298427611589432 -0.6453892588615417 -0.3400227427482605 255 127 0
0.09613567590713501 -0.629460871219635 -0.27752575278282166 255 127 0
0.11072194576263428 -0.6376452445983887 -0.2605927288532257 255 127 0
0.10377348959445953 -0.6163316965103149 -0.2836010456085205 255 127 0
0.107806496322155 -0.6349250674247742 -0.2883046269416809 255 127 0
0.12112918496131897 -0.6592047810554504 -0.2750440835952759 255 127 0
0.13231322169303894 -0.6515645384788513 -0.3042270541191101 255 127 0
0.14685983955860138 -0.5980608463287354 -0.2937653958797455 255 127 0
0.154637411236763 -0.5800775289535522 -0.2925049066543579 255 127 0
0.1538151502609253 -0.5724124312400818 -0.2720329463481903 255 127 0
0.16824373602867126 -0.5640893578529358 -0.2813352942466736 255 127 0
0.15263862907886505 -0.56368088722229 -0.28466349840164185 255 127 0
0.17587316036224365 -0.5647303462028503 -0.277244508266449 255 127 0
0.1505194902420044 -0.5832732915878296 -0.2979225814342499 255 127 0
0.16528970003128052 -0.5525622963905334 -0.3065911531448364 255 127 0
0.17159992456436157 -0.5391545295715332 -0.293038010597229 255 127 0
0.20106001198291779 -0.4873904883861542 -0.29815036058425903 255 127 0
0.19059430062770844 -0.4195753335952759 -0.2737535536289215 255 127 0
0.1976979821920395 -0.37086933851242065 -0.24893470108509064 255 127 0
0.22034385800361633 -0.36806216835975647 -0.2004120647907257 255 127 0
0.21918903291225433 -0.2994216978549957 -0.18424852192401886 255 127 0
0.2310350388288498 -0.2703341245651245 -0.18588347733020782 255 127 0
0.21609695255756378 -0.2529606819152832 -0.13083234429359436 255 127 0
0.199436753988266 -0.20479536056518555 -0.07028184086084366 255 127 0
0.2021111100912094 -0.18644395470619202 -0.01740327849984169 255 127 0
0.20752795040607452 -0.1915639489889145 -0.015989461913704872 255 127 0
0.21794715523719788 -0.20427531003952026 -0.016367588192224503 255 127 0
0.2114117443561554 -0.19990362226963043 -0.04740377143025398 255 127 0
0.22885151207447052 -0.19581572711467743 -0.039121247828006744 255 127 0
0.2256622463464737 -0.22370851039886475 -0.015130401588976383 255 127 0
0.21792146563529968 -0.20866659283638 -0.010998002253472805 255 127 0
0.21197226643562317 -0.14946076273918152 -0.011698298156261444 255 127 0
0.2122170627117157 -0.08886434137821198 0.019344743341207504 255 127 0
0.208205908536911 -0.08761592209339142 0.0545693002641201 255 127 0
0.21382614970207214 -0.040588829666376114 0.09341929852962494 255 127 0
0.2010263055562973 -0.006320597603917122 0.08020824939012527 255 127 0
0.19832351803779602 0.01145168673247099 0.1021413803100586 255 127 0
0.2040306031703949 0.056347981095314026 0.128080353140831 255 127 0
0.20763462781906128 0.08305776864290237 0.14216116070747375 255 127 0
0.19271208345890045 0.1055942103266716 0.1542578786611557 255 127 0
0.205038920044899 0.10848408192396164 0.14298133552074432 255 127 0
0.18902510404586792 0.0977374017238617 0.15008769929409027 255 127 0
0.16345694661140442 0.10567616671323776 0.13273057341575623 255 127 0
0.15134969353675842 0.1391470581293106 0.16381306946277618 255 127 0
0.16909177601337433 0.1672029346227646 0.1713123321533203 255 127 0
0.14713160693645477 0.1927565336227417 0.21223245561122894 255 127 0
0.151309996843338 0.2064482569694519 0.24351276457309723 255 127 0
0.1527501493692398 0.2332858294248581 0.24646049737930298 255 127 0
0.1683102697134018 0.268659383058548 0.22220540046691895 255 127 0
0.16100047528743744 0.2965198755264282 0.23279471695423126 255 127 0
0.14465449750423431 0.3107922673225403 0.24958649277687073 255 127 0
0.14136485755443573 0.3205145597457886 0.2539372444152832 255 127 0
0.14941656589508057 0.31931355595588684 0.255233496427536 255 127 0
0.1589636653661728 0.30003172159194946 0.2714832127094269 255 127 0
0.16059185564517975 0.2620029151439667 0.2622775733470917 255 127 0
0.15227942168712616 0.2155299037694931 0.2426489293575287 255 127 0
0.14173588156700134 0.16083009541034698 0.2249683439731598 255 127 0
0.1603592187166214 0.1239120364189148 0.18267913162708282 255 127 0
0.16024884581565857 0.1126122698187828 0.17819134891033173 255 127 0
0.14107073843479156 0.0826864242553711 0.17061923444271088 255 127 0
0.15670081973075867 0.060943473130464554 0.1613292545080185 255 127 0
0.17016349732875824 0.09221849590539932 0.16574490070343018 255 127 0
0.1859688013792038 0.14105549454689026 0.21288421750068665 255 127 0
0.18755003809928894 0.17679940164089203 0.22899508476257324 255 127 0
0.18658502399921417 0.1789804846048355 0.22476929426193237 255 127 0
0.15938004851341248 0.17861416935920715 0.2759333848953247 255 127 0
0.13120786845684052 0.17518585920333862 0.27607980370521545 255 127 0
0.12458590418100357 0.15602287650108337 0.2685862183570862 255 127 0
0.12120366096496582 0.07976218312978745 0.23881389200687408 255 127 0
0.11136455833911896 -0.01856992579996586 0.2020435631275177 255 127 0
0.0922895222902298 -0.10468480736017227 0.18082097172737122 255 127 0
0.08332019299268723 -0.15864083170890808 0.15987786650657654 255 127 0
0.11660335212945938 -0.17199242115020752 0.12370611727237701 255 127 0
0.12079977989196777 -0.13697446882724762 0.12636275589466095 255 127 0
0.13908079266548157 -0.10305467993021011 0.1413855105638504 255 127 0
0.16886182129383087 -0.06691363453865051 0.1391880065202713 255 127 0
0.17857204377651215 -0.05872740224003792 0.123294398188591 255 127 0
0.18083466589450836 -0.04623975604772568 0.15823091566562653 255 127 0
0.20174001157283783 -0.012894432991743088 0.17631472647190094 255 127 0
0.1997596025466919 0.010684158653020859 0.19848200678825378 255 127 0
0.20883041620254517 0.042388319969177246 0.20835061371326447 255 127 0
0.19243089854717255 0.08445288985967636 0.21480393409729004 255 127 0
0.16657938063144684 0.09919663518667221 0.21453937888145447 255 127 0
0.1611250936985016 0.0996926799416542 0.20904985070228577 255 127 0
0.17126354575157166 0.10342933982610703 0.21520105004310608 255 127 0
0.15619856119155884 0.11220064759254456 0.21398337185382843 255 127 0
0.14116762578487396 0.12688659131526947 0.2374805212020874 255 127 0
0.14810095727443695 0.1195179894566536 0.25486698746681213 255 127 0
0.16097883880138397 0.12056861817836761 0.23746521770954132 255 127 0
0.13965803384780884 0.1304396092891693 0.25444671511650085 255 127 0
0.14869053661823273 0.12064967304468155 0.252613365650177 255 127 0
0.13844943046569824 0.12417814135551453 0.24316152930259705 255 127 0
0.14899398386478424 0.12938682734966278 0.24992035329341888 255 127 0
0.15853458642959595 0.1285390704870224 0.23734451830387115 255 127 0
0.16226142644882202 0.15076370537281036 0.23254528641700745 255 127 0
0.16447487473487854 0.16102299094200134 0.24004386365413666 255 127 0
0.16613243520259857 0.1674736589193344 0.23906660079956055 255 127 0
0.16055169701576233 0.16209426522254944 0.24284829199314117 255 127 0
0.17205671966075897 0.16257639229297638 0.22324220836162567 255 127 0
0.17198868095874786 0.17267270386219025 0.2357601374387741 255 127 0
0.18449068069458008 0.17495085299015045 0.22998659312725067 255 127 0
0.1852397620677948 0.16125333309173584 0.2393321543931961 255 127 0
0.17586858570575714 0.1636238843202591 0.24664002656936646 255 127 0
0.1716054230928421 0.16236717998981476 0.23535889387130737 255 127 0
0.16147153079509735 0.16629476845264435 0.230619877576828 255 127 0
0.1575513780117035 0.1546533703804016 0.2457013577222824 255 127 0
0.16319312155246735 0.1430768221616745 0.23223155736923218 255 127 0
0.16229969263076782 0.15069511532783508 0.2237960696220398 255 127 0
0.15081772208213806 0.14107869565486908 0.22654663026332855 255 127 0
0.1350267082452774 0.13503915071487427 0.24177515506744385 255 127 0
0.14208675920963287 0.12321092933416367 0.2444000542163849 255 127 0
0.12982746958732605 0.1321653127670288 0.2467326819896698 255 127 0
0.1339310258626938 0.14943045377731323 0.25682583451271057 255 127 0
0.14173386991024017 0.16631129384040833 0.2614727020263672 255 127 0
0.12509146332740784 0.179153710603714 0.286920964717865 255 127 0
0.10364886373281479 0.17173302173614502 0.2976137101650238 255 127 0
0.1034223660826683 0.16130168735980988 0.2800922989845276 255 127 0
0.11432178318500519 0.15431338548660278 0.26652291417121887 255 127 0
0.12414252758026123 0.1441313922405243 0.2550404667854309 255 127 0
0.1309797167778015 0.12065284699201584 0.23853375017642975 255 127 0
0.12846486270427704 0.10631966590881348 0.24605651199817657 255 127 0
0.1360904574394226 0.1263245940208435 0.23808933794498444 255 127 0
0.1490505188703537 0.1353645771741867 0.24411652982234955 255 127 0
0.14942282438278198 0.15112881362438202 0.2387455850839615 255 127 0
0.1311444193124771 0.15533919632434845 0.24166065454483032 255 127 0
0.1220553070306778 0.1484273225069046 0.26095327734947205 255 127 0
0.12943293154239655 0.15192456543445587 0.26233091950416565 255 127 0
0.13578712940216064 0.17393171787261963 0.2754579484462738 255 127 0
0.12057630717754364 0.17888203263282776 0.2741760313510895 255 127 0
0.11526983976364136 0.17075063288211823 0.2632136642932892 255 127 0
0.11714549362659454 0.16572770476341248 0.25051429867744446 255 127 0
0.09883828461170197 0.17104965448379517 0.2686413526535034 255 127 0
0.10374045372009277 0.18368104100227356 0.2665838599205017 255 127 0
0.1035422831773758 0.18612679839134216 0.2711971700191498 255 127 0
0.10162824392318726 0.1890716403722763 0.2889057993888855 255 127 0
0.08643464744091034 0.18822409212589264 0.2993033230304718 255 127 0
0.07827412337064743 0.19030970335006714 0.2832784652709961 255 127 0
0.06453707814216614 0.19637911021709442 0.2987753748893738 255 127 0
0.06768123805522919 0.2065589874982834 0.3114320933818817 255 127 0
0.05842973664402962 0.21306058764457703 0.31344547867774963 255 127 0
0.0550500750541687 0.22455920279026031 0.306071937084198 255 127 0
0.056961338967084885 0.22925597429275513 0.3139900267124176 255 127 0
0.04174843803048134 0.2250402718782425 0.33513039350509644 255 127 0
0.032643359154462814 0.2315424680709839 0.343142569065094 255 127 0
0.03601882979273796 0.2496953010559082 0.3435886800289154 255 127 0
0.026473119854927063 0.2780039608478546 0.3570284843444824 255 127 0
0.010906029492616653 0.26794418692588806 0.35469937324523926 255 127 0
0.016041824594140053 0.25949573516845703 0.3364136219024658 255 127 0
0.0059004053473472595 0.2597411572933197 0.33285972476005554 255 127 0
0.018355313688516617 0.25517991185188293 0.3433626592159271 255 127 0
0.04416729137301445 0.25227364897727966 0.32980161905288696 255 127 0
0.036260347813367844 0.23600445687770844 0.31891176104545593 255 127 0
0.037414759397506714 0.21290896832942963 0.3047793209552765 255 127 0
0.04760719835758209 0.1946525126695633 0.30668309330940247 255 127 0
0.043362464755773544 0.17957402765750885 0.2878044843673706 255 127 0
0.05404801666736603 0.17896084487438202 0.29852813482284546 255 127 0
0.06397755444049835 0.19586363434791565 0.3044292628765106 255 127 0
0.0697929635643959 0.1909017413854599 0.3040923476219177 255 127 0
0.06803567707538605 0.18194685876369476 0.2910098433494568 255 127 0
0.08505788445472717 0.18580900132656097 0.2812432646751404 255 127 0
0.09776005148887634 0.19075191020965576 0.28384923934936523 255 127 0
0.09136220067739487 0.1972750723361969 0.28093212842941284 255 127 0
0.09264868497848511 0.22253873944282532 0.3029734492301941 255 127 0
0.09032771736383438 0.23904620110988617 0.3145384192466736 255 127 0
0.06303873658180237 0.22169138491153717 0.34171396493911743 255 127 0
0.042933378368616104 0.16567769646644592 0.3573577105998993 255 127 0
0.03940068185329437 0.13636575639247894 0.3301098048686981 255 127 0
0.05395527556538582 0.1343361735343933 0.2992609441280365 255 127 0
0.07964218407869339 0.1517782211303711 0.29876863956451416 255 127 0
0.07741953432559967 0.13491420447826385 0.3061690330505371 255 127 0
0.07327941805124283 0.10619290918111801 0.28496333956718445 255 127 0
0.05632184073328972 0.09119202941656113 0.2886868417263031 255 127 0
0.0547526516020298 0.0706796795129776 0.2894497811794281 255 127 0
0.06822354346513748 -0.00639990484341979 0.2706058919429779 255 127 0
0.0744984969496727 -0.09695355594158173 0.2301071584224701 255 127 0
0.10232662409543991 -0.16294515132904053 0.15909680724143982 255 127 0
0.08176498860120773 -0.2400667816400528 0.13121482729911804 255 127 0
0.07157094776630402 -0.34208768606185913 0.03607192635536194 255 127 0
0.17555277049541473 -0.4003005027770996 -0.035898685455322266 255 127 0
0.16491010785102844 -0.3717058300971985 -0.05522695183753967 255 127 0
0.168583944439888 -0.3271961510181427 -0.06780887395143509 255 127 0
0.1673983484506607 -0.3615668714046478 -0.05311830714344978 255 127 0
0.1926095187664032 -0.3997352123260498 -0.06541361659765244 255 127 0
0.18896517157554626 -0.46764931082725525 -0.1048387736082077 255 127 0
0.1323736608028412 -0.47350794076919556 -0.09188257902860641 255 127 0
0.1129065528512001 -0.498363733291626 -0.12699785828590393 255 127 0
0.1152556836605072 -0.5211657881736755 -0.15638376772403717 255 127 0
0.12091086804866791 -0.5523937344551086 -0.1289309710264206 255 127 0
0.11542564630508423 -0.533656120300293 -0.09090452641248703 255 127 0
0.09205235540866852 -0.4586718678474426 -0.024039670825004578 255 127 0
0.0820060595870018 -0.44142481684684753 0.012670413590967655 255 127 0
0.08222399652004242 -0.4172091782093048 0.05621526762843132 255 127 0
0.10948365181684494 -0.3912641108036041 0.006438259966671467 255 127 0
0.10024232417345047 -0.3642403483390808 0.059479452669620514 255 127 0
0.06992271542549133 -0.35201048851013184 0.0810086652636528 255 127 0
0.08598212152719498 -0.37078553438186646 0.06450545787811279 255 127 0
0.06382717192173004 -0.39518341422080994 0.06467743963003159 255 127 0
0.0494813397526741 -0.39450758695602417 0.04979201406240463 255 127 0
0.05157674103975296 -0.3917364776134491 0.05640152096748352 255 127 0
0.06364340335130692 -0.3919198215007782 0.012305445037782192 255 127 0
0.06378579884767532 -0.44728583097457886 -0.03133624047040939 255 127 0
0.04425416886806488 -0.5321140885353088 -0.05659111216664314 255 127 0
0.02366677112877369 -0.5856269001960754 -0.11610142141580582 255 127 0
0.01658269390463829 -0.6054606437683105 -0.0953737199306488 255 127 0
-0.018186187371611595 -0.5746811628341675 -0.10343626886606216 255 127 0
-0.01119602657854557 -0.5702358484268188 -0.11456470936536789 255 127 0
0.030844029039144516 -0.579829752445221 -0.12431855499744415 255 127 0
0.017494620755314827 -0.5867176055908203 -0.0697920173406601 255 127 0
0.03217017650604248 -0.6068288683891296 -0.10865920037031174 255 127 0
0.0352562814950943 -0.5859379172325134 -0.11164848506450653 255 127 0
0.03453921526670456 -0.5656479597091675 -0.06166399270296097 255 127 0
0.054339416325092316 -0.5331525802612305 -0.03428416699171066 255 127 0
0.080726757645607 -0.4899866580963135 -0.014115209691226482 255 127 0
0.01750333234667778 -0.46574026346206665 -0.06539341807365417 255 127 0
0.0611969530582428 -0.5046634078025818 -0.0872090682387352 255 127 0
0.09329147636890411 -0.5803869962692261 -0.043922942131757736 255 127 0
0.10039269924163818 -0.65267413854599 -0.07110121101140976 255 127 0
0.07821453362703323 -0.6024807691574097 -0.088477224111557 255 127 0
0.02868141233921051 -0.5864832997322083 -0.07169277966022491 255 127 0
0.07419515401124954 -0.588554859161377 -0.09869338572025299 255 127 0
0.10481909662485123 -0.6014894247055054 -0.12715262174606323 255 127 0
0.09557182341814041 -0.5732039213180542 -0.20025134086608887 255 127 0
0.12390351295471191 -0.5421887636184692 -0.18633192777633667 255 127 0
0.14213883876800537 -0.5214887261390686 -0.2050558179616928 255 127 0
0.18274082243442535 -0.49130287766456604 -0.2158670276403427 255 127 0
0.13447502255439758 -0.5324865579605103 -0.1139417290687561 255 127 0
0.14535970985889435 -0.49704185128211975 -0.15846586227416992 255 127 0
0.15339826047420502 -0.5147539377212524 -0.18953834474086761 255 127 0
0.21474196016788483 -0.4691230356693268 -0.1633618026971817 255 127 0
0.2224101722240448 -0.4479343295097351 -0.1533527672290802 255 127 0
0.1781264692544937 -0.4453425705432892 -0.09971556067466736 255 127 0
0.13729912042617798 -0.529214084148407 -0.13321037590503693 255 127 0
0.09586365520954132 -0.5615333318710327 -0.08822088688611984 255 127 0
0.09510042518377304 -0.5824477076530457 -0.12239371985197067 255 127 0
0.060616400092840195 -0.5978851914405823 -0.16879841685295105 255 127 0
0.028560826554894447 -0.602165162563324 -0.16943031549453735 255 127 0
0.020099448040127754 -0.5957032442092896 -0.17402146756649017 255 127 0
0.0217457115650177 -0.5940755009651184 -0.17734776437282562 255 127 0
0.006628361064940691 -0.6360733509063721 -0.20362119376659393 255 127 0
0.020772898569703102 -0.6496583819389343 -0.23965796828269958 255 127 0
0.029808886349201202 -0.6802966594696045 -0.2268228977918625 255 127 0
0.008241202682256699 -0.6821510195732117 -0.22635146975517273 255 127 0
0.02887529693543911 -0.6676499247550964 -0.2246059626340866 255 127 0
0.02645961567759514 -0.6705126762390137 -0.21084453165531158 255 127 0
0.02070971019566059 -0.6725959181785583 -0.20278893411159515 255 127 0
0.053865063935518265 -0.6400523781776428 -0.19658410549163818 255 127 0
0.05880212411284447 -0.6144077777862549 -0.18236279487609863 255 127 0
0.03938516229391098 -0.5979965925216675 -0.16524310410022736 255 127 0
0.07216975837945938 -0.5694267153739929 -0.1539037674665451 255 127 0
0.07776255905628204 -0.5550817847251892 -0.13013850152492523 255 127 0
0.093440942466259 -0.5274543762207031 -0.11703289300203323 255 127 0
0.0826355516910553 -0.5201992988586426 -0.11382177472114563 255 127 0
0.06861255317926407 -0.4915785789489746 -0.1445160210132599 255 127 0
0.09295379370450974 -0.5177193284034729 -0.11604783684015274 255 127 0
0.08571965247392654 -0.5343459844589233 -0.11776729673147202 255 127 0
0.11181611567735672 -0.5209870934486389 -0.14485706388950348 255 127 0
0.09774481505155563 -0.5308600068092346 -0.10649556666612625 255 127 0
0.0985945388674736 -0.5224608182907104 -0.1192961111664772 255 127 0
0.09682949632406235 -0.5113131403923035 -0.11157246679067612 255 127 0
0.0899052768945694 -0.49655815958976746 -0.11699500679969788 255 127 0
0.10231836885213852 -0.5122954845428467 -0.10309915989637375 255 127 0
0.12252552062273026 -0.5101609826087952 -0.11045470088720322 255 127 0
0.1177038624882698 -0.4985005557537079 -0.08698832243680954 255 127 0
0.09077609330415726 -0.4759847819805145 -0.07779555767774582 255 127 0
0.1151830181479454 -0.4503253400325775 -0.06423955410718918 255 127 0
0.1407206803560257 -0.4346092641353607 -0.06382610648870468 255 127 0
0.11606977134943008 -0.4235436022281647 -0.04079681634902954 255 127 0
0.10472513735294342 -0.3946506679058075 -0.01818498596549034 255 127 0
0.09822200983762741 -0.41447845101356506 -0.04292793944478035 255 127 0
0.1179903894662857 -0.4215420186519623 -0.022062119096517563 255 127 0
0.1254168003797531 -0.40787699818611145 -0.011296337470412254 255 127 0
0.09575264900922775 -0.36878061294555664 0.017255865037441254 255 127 0
0.10313867032527924 -0.35197368264198303 0.013117428869009018 255 127 0
0.09446591883897781 -0.3526175022125244 0.03271843492984772 255 127 0
0.10713810473680496 -0.3364596962928772 0.04955782741308212 255 127 0
0.1065797358751297 -0.3553837835788727 0.05248185992240906 255 127 0
0.08785998076200485 -0.3341459333896637 0.07043228298425674 255 127 0
0.06390620023012161 -0.28908228874206543 0.09038160741329193 255 127 0
0.06065388396382332 -0.29958000779151917 0.09248124063014984 255 127 0
0.05178605392575264 -0.29972612857818604 0.10875295847654343 255 127 0
0.05398393049836159 -0.2704073488712311 0.10489175468683243 255 127 0
0.06399516016244888 -0.28836166858673096 0.10995633900165558 255 127 0
0.04308426007628441 -0.31677529215812683 0.11386889964342117 255 127 0
0.028621502220630646 -0.3070736825466156 0.1271093189716339 255 127 0
0.046356670558452606 -0.2750720977783203 0.1174265593290329 255 127 0
0.06316686421632767 -0.34312137961387634 0.12231500446796417 255 127 0
-0.006747132632881403 -0.35860830545425415 0.1390400528907776 255 127 0
0.028783228248357773 -0.2886623442173004 0.13683074712753296 255 127 0
0.06793422251939774 -0.2522960901260376 0.12732306122779846 255 127 0
0.06420169025659561 -0.25118833780288696 0.11817001551389694 255 127 0
0.05251794680953026 -0.24184617400169373 0.12312999367713928 255 127 0
0.057126544415950775 -0.25904372334480286 0.11077019572257996 255 127 0
0.04594184458255768 -0.279660701751709 0.11035540699958801 255 127 0
0.06276606768369675 -0.2662679851055145 0.09621761739253998 255 127 0
0.07948604971170425 -0.2523258626461029 0.11450688540935516 255 127 0
0.0649137794971466 -0.23850254714488983 0.10492778569459915 255 127 0
0.08060586452484131 -0.21304601430892944 0.0929822251200676 255 127 0
0.10514981299638748 -0.18281088769435883 0.11753777414560318 255 127 0
0.09384781122207642 -0.16263547539710999 0.12674371898174286 255 127 0
0.08114267885684967 -0.16284237802028656 0.12518402934074402 255 127 0
0.08159050345420837 -0.1623077541589737 0.11852598935365677 255 127 0
0.07618343830108643 -0.19588491320610046 0.11604125797748566 255 127 0
0.08733336627483368 -0.23131412267684937 0.09577024728059769 255 127 0
0.0886034145951271 -0.2586826980113983 0.0781027153134346 255 127 0
0.08455465734004974 -0.2492079883813858 0.09228657931089401 255 127 0
0.0636841356754303 -0.23705796897411346 0.13870006799697876 255 127 0
0.08804424852132797 -0.23851028084754944 0.09983303397893906 255 127 0
0.09923207014799118 -0.2481781244277954 0.1061040386557579 255 127 0
0.11275326460599899 -0.22923925518989563 0.08697251975536346 255 127 0
0.10667616873979568 -0.18246589601039886 0.11177424341440201 255 127 0
0.11849231272935867 -0.18122796714305878 0.06043862923979759 255 127 0
0.10135019570589066 -0.18766990303993225 0.051465295255184174 255 127 0
0.08091101050376892 -0.2585327625274658 0.017649464309215546 255 127 0
0.11863749474287033 -0.30667078495025635 0.04782698675990105 255 127 0
0.13555240631103516 -0.3040860593318939 0.011072556488215923 255 127 0
0.0973595380783081 -0.3285551965236664 -0.04429960995912552 255 127 0
0.12385718524456024 -0.3278026282787323 -0.08006392419338226 255 127 0
0.09387201070785522 -0.36062175035476685 -0.07148189842700958 255 127 0
0.1220233142375946 -0.3240022361278534 -0.044705621898174286 255 127 0
0.11484625935554504 -0.3026196360588074 -0.0480395071208477 255 127 0
0.0564749650657177 -0.3190344572067261 -0.0289958156645298 255 127 0
0.06637473404407501 -0.3009919822216034 0.008319598622620106 255 127 0
0.04133442044258118 -0.2898186147212982 0.021651839837431908 255 127 0
0.016858486458659172 -0.27676230669021606 0.025298452004790306 255 127 0
0.06544304639101028 -0.2814229726791382 0.013626138679683208 255 127 0
0.03393741697072983 -0.36320018768310547 0.04721681401133537 255 127 0
0.013407588936388493 -0.39712032675743103 0.016809023916721344 255 127 0
0.017035087570548058 -0.4812220633029938 -0.07567109167575836 255 127 0
-0.01162833720445633 -0.5047945380210876 -0.15604449808597565 255 127 0
-0.03953076899051666 -0.5630939602851868 -0.19773069024085999 255 127 0
-0.023396803066134453 -0.6150591373443604 -0.19837479293346405 255 127 0
-0.01677975431084633 -0.6424965262413025 -0.24114499986171722 255 127 0
-0.0252763032913208 -0.6230775713920593 -0.2546614408493042 255 127 0
-0.023403629660606384 -0.6029669642448425 -0.2513865828514099 255 127 0
-0.001996217528358102 -0.587679922580719 -0.25545769929885864 255 127 0
0.0397656112909317 -0.596433162689209 -0.1912219226360321 255 127 0
0.06360023468732834 -0.6256487369537354 -0.19906316697597504 255 127 0
0.056667983531951904 -0.6080539226531982 -0.2355489730834961 255 127 0
0.04477626830339432 -0.597308874130249 -0.19412367045879364 255 127 0
0.060163017362356186 -0.6198034286499023 -0.2436109036207199 255 127 0
0.03437728434801102 -0.6937538981437683 -0.2795089781284332 255 127 0
0.041769031435251236 -0.7004079818725586 -0.4115959405899048 255 127 0
-0.010814644396305084 -0.6913293600082397 -0.42677223682403564 255 127 0
-0.0640919953584671 -0.7165374755859375 -0.42304059863090515 255 127 0
-0.07029718905687332 -0.694484531879425 -0.4375467300415039 255 127 0
-0.03850302845239639 -0.7033650875091553 -0.3796684741973877 255 127 0
-0.028536228463053703 -0.6835764646530151 -0.3499124050140381 255 127 0
-0.09298427402973175 -0.6945831179618835 -0.3946969509124756 255 127 0
-0.05105731636285782 -0.7033074498176575 -0.3703401982784271 255 127 0
0.030559970065951347 -0.6805054545402527 -0.3630107343196869 255 127 0
-0.0076835788786411285 -0.6992273926734924 -0.3159853518009186 255 127 0
-0.011955958791077137 -0.6725289821624756 -0.3263642489910126 255 127 0
0.01611795462667942 -0.6630649566650391 -0.36344030499458313 255 127 0
-0.004400504287332296 -0.7056074142456055 -0.26448917388916016 255 127 0
-0.027063485234975815 -0.7268816232681274 -0.3586368262767792 255 127 0
0.00012616784079000354 -0.675245463848114 -0.346085786819458 255 127 0
-0.035812899470329285 -0.6818002462387085 -0.22606161236763 255 127 0
-0.047639213502407074 -0.6534590125083923 -0.25816118717193604 255 127 0
-0.023545479401946068 -0.6306782960891724 -0.19028735160827637 255 127 0
-0.031867723912000656 -0.5897501707077026 -0.1648786962032318 255 127 0
-0.05187247321009636 -0.5988073945045471 -0.12647898495197296 255 127 0
-0.0859181359410286 -0.6056074500083923 -0.1612691730260849 255 127 0
-0.07093743234872818 -0.589042067527771 -0.10747219622135162 255 127 0
-0.04176250100135803 -0.5678460001945496 -0.08711181581020355 255 127 0
-0.027517439797520638 -0.4983993470668793 -0.05105850100517273 255 127 0
-0.06501852720975876 -0.4333812892436981 -0.004647348541766405 255 127 0
-0.05903703346848488 -0.40272897481918335 0.040990523993968964 255 127 0
