ply
format ascii 1.0
element vertex 678
property float x
property float y
property float z
property uchar red
property uchar green
property uchar blue
end_header
-0.903741180896759 0.420396089553833 0.08074075728654861 240 129 77
-0.8796551823616028 0.4560481607913971 0.13500645756721497 239 125 79
-0.8240072727203369 0.418891042470932 0.3814999759197235 236 119 84
-0.7602440118789673 0.39716196060180664 0.5140928030014038 232 113 88
-0.6808964014053345 0.437610387802124 0.5872625112533569 231 110 90
-0.7088428139686584 0.3990136384963989 0.5816614627838135 229 108 91
-0.7230859398841858 0.29053762555122375 0.6266854405403137 231 110 90
-0.6588103175163269 0.22669833898544312 0.7173401117324829 231 110 90
-0.6056690216064453 0.25619441270828247 0.7533455491065979 232 112 89
-0.5992324352264404 0.3031950294971466 0.7409408688545227 228 106 93
-0.6048778891563416 0.2563929557800293 0.753913402557373 234 115 86
-0.5854677557945251 0.2008851021528244 0.7854124903678894 240 129 77
-0.5610465407371521 0.20638489723205566 0.8016433715820312 247 146 65
-0.4456852376461029 0.20995274186134338 0.870220959186554 250 160 57
-0.35724112391471863 0.27141913771629333 0.8937060236930847 252 170 51
-0.3056544363498688 0.37258201837539673 0.8762180209159851 252 173 49
-0.34163084626197815 0.4684070646762848 0.8147902488708496 253 176 48
-0.4415377676486969 0.5081851482391357 0.7394540905952454 252 172 50
-0.49762001633644104 0.5282526612281799 0.6879850029945374 252 169 52
-0.4900657832622528 0.532494843006134 0.6901338696479797 251 163 55
-0.523500382900238 0.5511259436607361 0.649774968624115 251 163 55
-0.5438125133514404 0.539749026298523 0.6426031589508057 252 166 53
-0.5258311629295349 0.5112740397453308 0.6797797083854675 252 167 53
-0.5481352806091309 0.4224860370159149 0.7218402028083801 252 169 52
-0.49770092964172363 0.4905228018760681 0.7153189182281494 252 172 50
-0.5127511620521545 0.4502784013748169 0.7309826612472534 252 167 53
-0.49864131212234497 0.4596937298774719 0.7348731160163879 252 166 53
-0.489091694355011 0.4647537171840668 0.7381012439727783 251 164 54
-0.47730013728141785 0.48156553506851196 0.7350369691848755 251 163 55
-0.4245317280292511 0.5081470012664795 0.7493727207183838 250 160 57
-0.3941270411014557 0.4958803951740265 0.7738000750541687 252 173 49
-0.3755389451980591 0.4992815852165222 0.7808254957199097 252 173 49
-0.3725018799304962 0.5522679090499878 0.7458165884017944 252 173 49
-0.3115229904651642 0.5650767683982849 0.7639644145965576 252 172 50
-0.26887455582618713 0.5994225144386292 0.7539224624633789 252 172 50
-0.24990443885326385 0.6200915575027466 0.7436626553535461 252 170 51
-0.20556600391864777 0.6558671593666077 0.7263476252555847 252 167 53
-0.22666007280349731 0.6633170247077942 0.7131869792938232 251 163 55
-0.19857865571975708 0.6782076358795166 0.7075316309928894 250 157 58
-0.20469193160533905 0.6826713681221008 0.7014706134796143 248 152 62
-0.20736414194107056 0.6920770406723022 0.6913968324661255 246 145 66
-0.21661143004894257 0.6910063624382019 0.6896300911903381 244 137 71
-0.2337881177663803 0.7012956142425537 0.6734445095062256 245 139 70
-0.24570871889591217 0.6936630606651306 0.677095890045166 245 141 69
-0.25241851806640625 0.6866446733474731 0.6817652583122253 242 132 75
-0.23504166305065155 0.7427230477333069 0.6269912123680115 244 137 71
-0.2284453809261322 0.7695093750953674 0.5963791012763977 245 139 70
-0.26868194341659546 0.7257952690124512 0.6332702040672302 248 149 64
-0.2292858511209488 0.7286797761917114 0.6453322768211365 248 150 63
-0.21500568091869354 0.7345173954963684 0.6436277627944946 248 152 62
-0.20457832515239716 0.7503702640533447 0.6285635828971863 248 150 63
-0.11804115772247314 0.7909946441650391 0.6003279685974121 246 143 67
-0.033993322402238846 0.7859156131744385 0.617398738861084 242 133 74
0.0006243741954676807 0.758340060710907 0.6518588066101074 239 125 79
0.07396595925092697 0.7210471630096436 0.6889266967773438 233 114 87
0.1631033718585968 0.7099086046218872 0.6851474642753601 229 107 92
0.22986653447151184 0.6872634887695312 0.6890792846679688 230 109 90
0.372546523809433 0.7215002179145813 0.5836493372917175 231 110 90
0.4648665189743042 0.717302680015564 0.5190144181251526 233 114 87
0.507113516330719 0.6904858350753784 0.5158150792121887 229 108 91
0.5777855515480042 0.6163432002067566 0.5350561141967773 224 100 97
0.6588975191116333 0.6159506440162659 0.4318089485168457 220 93 102
0.6829347610473633 0.6577396392822266 0.3177715241909027 213 83 109
0.693996787071228 0.6372742056846619 0.3350372612476349 211 81 111
0.7549466490745544 0.6033123135566711 0.25704044103622437 209 78 114
0.8346563577651978 0.4964446723461151 0.23851947486400604 205 73 117
0.8806909322738647 0.43641942739486694 0.18417797982692719 202 70 120
0.8637902140617371 0.45583876967430115 0.21465668082237244 203 71 119
0.9202769994735718 0.3737521469593048 0.11575664579868317 204 72 118
0.9621677994728088 0.27219170331954956 0.012031097896397114 207 75 116
0.9863739609718323 0.12595000863075256 -0.10584422200918198 214 85 109
0.9874641299247742 -0.0032145618461072445 -0.15781088173389435 216 88 106
0.9868974685668945 -0.06749822199344635 -0.14655128121376038 220 93 102
0.9567428231239319 -0.16666895151138306 -0.23846301436424255 222 96 100
0.9380311965942383 -0.20480506122112274 -0.27955758571624756 223 97 99
0.9043042063713074 -0.2636409103870392 -0.3357488512992859 225 101 96
0.9062564969062805 -0.28175118565559387 -0.31514352560043335 226 102 96
0.9216685891151428 -0.276811420917511 -0.2718501687049866 225 101 96
0.8990132808685303 -0.33495739102363586 -0.282096803188324 225 101 96
0.8825268149375916 -0.31719598174095154 -0.34717872738838196 224 100 97
0.8354096412658691 -0.3647999167442322 -0.41111040115356445 222 96 100
0.8240017890930176 -0.390535444021225 -0.41049131751060486 215 86 108
0.8414993286132812 -0.3740931749343872 -0.3897862732410431 214 85 109
0.8443389534950256 -0.39299115538597107 -0.36421117186546326 215 86 108
0.8716595768928528 -0.3989439308643341 -0.2846985161304474 215 86 108
0.8760932683944702 -0.43376320600509644 -0.21049973368644714 219 91 103
0.886008620262146 -0.42136141657829285 -0.1935027539730072 218 90 104
0.8517279624938965 -0.45719537138938904 -0.2559920847415924 218 90 104
0.7390714883804321 -0.5558913946151733 -0.38047096133232117 217 89 105
0.7055394053459167 -0.6076536774635315 -0.3646523058414459 217 89 105
0.6116191148757935 -0.7143234610557556 -0.34009405970573425 216 88 106
0.6598898768424988 -0.7412217259407043 -0.12302698940038681 212 82 110
0.5070593953132629 -0.861752450466156 0.016538526862859726 200 68 122
0.4121766984462738 -0.894941508769989 -0.17085090279579163 192 59 129
-0.11244756728410721 -0.9242001175880432 0.3649790585041046 170 36 148
-0.22480657696723938 -0.9614153504371643 0.15856356918811798 165 31 151
-0.4550676643848419 -0.8608903288841248 -0.22755464911460876 160 27 155
-0.7364885807037354 -0.36032935976982117 -0.5724923014640808 158 25 156
-0.8319346904754639 -0.13675597310066223 -0.5377568602561951 157 24 157
-0.852749764919281 0.008394229225814342 -0.5222521424293518 154 21 158
-0.7809659838676453 0.07949073612689972 -0.6194945573806763 153 20 159
-0.7539225816726685 0.13866974413394928 -0.64216148853302 157 24 157
-0.74819415807724 0.08915125578641891 -0.657463014125824 158 25 156
-0.697079062461853 0.0726272389292717 -0.7133064270019531 167 33 151
-0.6594260334968567 0.057050108909606934 -0.7496016025543213 177 43 143
-0.6642342805862427 0.04413863271474838 -0.7462201714515686 191 57 130
-0.6650210618972778 0.04916238412261009 -0.7452046275138855 198 65 124
-0.6727762818336487 0.005351149011403322 -0.7398266196250916 209 78 114
-0.7206587791442871 -0.042150843888521194 -0.6920073628425598 215 86 108
-0.7101856470108032 0.01506706140935421 -0.703853189945221 215 86 108
-0.7483207583427429 0.1350923478603363 -0.6494352221488953 214 85 109
-0.8463807702064514 0.07112935930490494 -0.5278068780899048 214 85 109
-0.8695909380912781 0.052980586886405945 -0.49092215299606323 214 85 109
-0.8869779109954834 -0.01475569512695074 -0.46157610416412354 214 85 109
-0.9712803363800049 -0.10537887364625931 -0.2133302241563797 217 89 105
-0.9942677021026611 -0.07026809453964233 -0.08058705925941467 217 89 105
-0.9572200179100037 -0.19398029148578644 -0.21471264958381653 216 88 106
-0.9548349380493164 -0.29343774914741516 -0.04673755541443825 215 86 108
-0.9731341004371643 -0.2064225822687149 -0.10197950899600983 211 81 111
-0.9768536686897278 -0.15272457897663116 -0.14977358281612396 209 79 113
-0.9895729422569275 -0.049618277698755264 -0.13521656394004822 209 79 113
-0.9746553301811218 0.012614848092198372 -0.2233555167913437 212 82 110
-0.9921106100082397 -0.03600805625319481 -0.12008264660835266 215 86 108
-0.9748163819313049 -0.08904705941677094 -0.20445933938026428 216 88 106
-0.9485171437263489 -0.08263882249593735 -0.30575481057167053 218 90 104
-0.909095048904419 -0.08281777054071426 -0.4082736372947693 218 90 104
-0.8808329701423645 -0.05014371499419212 -0.4707642197608948 218 90 104
-0.8663941621780396 -0.05532943457365036 -0.49628597497940063 215 87 107
-0.8949123024940491 -0.075359046459198 -0.4398328959941864 215 86 108
-0.9046387076377869 -0.0001467654074076563 -0.42617926001548767 214 85 109
-0.857587993144989 0.00496365362778306 -0.5143133401870728 214 85 109
-0.8552542924880981 0.05801365524530411 -0.5149509906768799 214 85 109
-0.8552783131599426 0.07016005367040634 -0.5133971571922302 215 87 107
-0.8473288416862488 0.07203993946313858 -0.5261596441268921 215 87 107
-0.8913818597793579 0.04211905971169472 -0.4512919485569 216 88 106
-0.9051889181137085 0.06056971848011017 -0.420671284198761 218 90 104
-0.9401696920394897 0.16966597735881805 -0.2954564392566681 219 91 103
-0.9482821822166443 0.23526902496814728 -0.2130945920944214 217 89 105
-0.9542036056518555 0.2136814445257187 -0.2093697488307953 216 88 106
-0.926188051700592 0.282425194978714 -0.24982348084449768 216 88 106
-0.9131273031234741 0.2737770080566406 -0.30206719040870667 215 87 107
-0.9265196919441223 0.3108236491680145 -0.2120138257741928 215 86 108
-0.9431972503662109 0.2737978398799896 -0.1881851851940155 214 85 109
-0.9038108587265015 0.2857750654220581 -0.31852567195892334 215 86 108
-0.861338198184967 0.34054121375083923 -0.37699881196022034 215 87 107
-0.9126001596450806 0.28312039375305176 -0.2949641942977905 215 86 108
-0.8757508397102356 0.34492695331573486 -0.3377658724784851 215 86 108
-0.8284366726875305 0.18952296674251556 -0.5270424485206604 211 81 111
-0.7380842566490173 0.060284316539764404 -0.6720098853111267 209 78 114
-0.7060975432395935 0.0702524334192276 -0.7046211361885071 206 74 117
-0.6440429091453552 0.5126029849052429 -0.567844033241272 198 65 124
-0.49322041869163513 0.29088419675827026 -0.8198291659355164 190 56 131
-0.23810914158821106 0.48342832922935486 -0.8423781991004944 186 52 135
-0.16393862664699554 0.3213116228580475 -0.9326751232147217 183 48 138
-0.19442877173423767 0.1129135861992836 -0.9743962287902832 182 47 139
-0.032283421605825424 0.1562427580356598 -0.9871909618377686 182 47 139
0.08699363470077515 0.09755439311265945 -0.9914208650588989 182 47 139
0.16746778786182404 0.019846683368086815 -0.9856777191162109 187 53 134
0.27657830715179443 -0.06123431399464607 -0.959038496017456 194 61 128
0.38343775272369385 0.035074733197689056 -0.9229004383087158 200 68 122
0.47620007395744324 -0.014443124644458294 -0.879218339920044 199 66 123
0.5663599371910095 -0.11287656426429749 -0.81639164686203 198 65 124
0.6106233596801758 -0.14461128413677216 -0.7786056399345398 197 64 125
0.6356903314590454 -0.1052900180220604 -0.764729917049408 207 75 116
0.6137673258781433 -0.07142435759305954 -0.7862495183944702 195 62 127
0.6102097630500793 -0.19794093072414398 -0.7671136260032654 196 63 126
0.6420666575431824 -0.17579694092273712 -0.7462210655212402 205 73 117
0.6555503010749817 -0.1479315310716629 -0.7405201196670532 214 85 109
0.7025200128555298 -0.20614612102508545 -0.6811529994010925 219 91 103
0.7336940765380859 -0.19338522851467133 -0.651379406452179 223 97 99
0.8373063802719116 -0.10144627839326859 -0.5372399091720581 225 101 96
0.834007203578949 -0.008676208555698395 -0.5516852736473083 226 102 96
0.8306429982185364 -0.05549415573477745 -0.5540329813957214 226 102 96
0.7399781346321106 -0.1838536411523819 -0.6470163464546204 222 96 100
0.8555224537849426 -0.11151839047670364 -0.5056134462356567 222 96 100
0.8693801760673523 -0.1295222043991089 -0.4768669605255127 222 96 100
0.8991918563842773 -0.17452320456504822 -0.40124258399009705 220 93 102
0.8522928953170776 -0.25708088278770447 -0.45552858710289 218 90 104
0.8747935891151428 -0.1612015664577484 -0.4568919241428375 217 89 105
0.8808632493019104 -0.1814478635787964 -0.4372146725654602 218 90 104
0.883969247341156 -0.22495071589946747 -0.4098726212978363 218 90 104
0.9255878329277039 -0.22166243195533752 -0.306843638420105 221 95 101
0.9226564168930054 -0.3016173243522644 -0.24027512967586517 222 96 100
0.8207061290740967 -0.4513169825077057 -0.35036325454711914 223 97 99
0.8493121862411499 -0.45382800698280334 -0.2696461081504822 221 95 101
0.8402138948440552 -0.5082745552062988 -0.18893808126449585 218 90 104
0.8283784985542297 -0.5291271805763245 -0.18388475477695465 215 87 107
0.8666289448738098 -0.4455748498439789 -0.22453811764717102 214 85 109
0.8623287677764893 -0.4358431100845337 -0.25773996114730835 212 82 110
0.8295834064483643 -0.4346230924129486 -0.35056251287460327 211 81 111
0.7639150023460388 -0.5170387625694275 -0.38614100217819214 209 79 113
0.8099890947341919 -0.5218571424484253 -0.26754969358444214 209 78 114
0.8027557134628296 -0.5718541741371155 -0.16901478171348572 208 77 115
0.7972224354743958 -0.5726111531257629 -0.19118787348270416 206 74 117
0.8174362778663635 -0.5759564638137817 0.008492948487401009 204 72 118
0.792158305644989 -0.5440971255302429 -0.2764843702316284 202 70 120
0.6848852634429932 -0.5969906449317932 -0.4177730679512024 200 68 122
0.7300369739532471 -0.6372488737106323 -0.24690069258213043 198 65 124
0.5716806054115295 -0.6759057641029358 -0.4651157855987549 196 63 126
0.8626057505607605 -0.416351854801178 -0.2873367965221405 196 63 126
0.833382248878479 -0.5256560444831848 0.1707620769739151 198 65 124
0.6638752222061157 -0.710595965385437 0.23307284712791443 244 138 71
0.5322214365005493 -0.8000836372375488 0.27677881717681885 243 134 73
0.5754971504211426 -0.8078032732009888 0.12750224769115448 244 137 71
0.6156952977180481 -0.7824946641921997 0.09285140037536621 245 139 70
0.6348425149917603 -0.7671847939491272 0.09166525304317474 245 139 70
0.6768787503242493 -0.7290443778038025 0.10163366049528122 244 138 71
0.6630325317382812 -0.7302765250205994 0.16457250714302063 244 138 71
0.6386833786964417 -0.7569379210472107 0.138306125998497 243 134 73
0.6607862114906311 -0.7425236105918884 0.10963668674230576 243 134 73
0.660106360912323 -0.7428638935089111 0.11141280084848404 244 137 71
0.6667032837867737 -0.7178270220756531 0.20057684183120728 244 138 71
0.6916703581809998 -0.6551486253738403 0.30392831563949585 244 138 71
0.6842469573020935 -0.6749066710472107 0.2762373685836792 244 138 71
0.7040502429008484 -0.6382225751876831 0.31142446398735046 246 145 66
0.6972934603691101 -0.6654776930809021 0.2663106322288513 244 138 71
0.6970319151878357 -0.678617537021637 0.23157024383544922 243 135 72
0.7271497249603271 -0.6510959267616272 0.21754854917526245 243 135 72
0.7526123523712158 -0.6218288540840149 0.2165723741054535 243 135 72
0.7638731598854065 -0.6244992613792419 0.16278354823589325 243 135 72
0.7644394636154175 -0.6214356422424316 0.1716102659702301 243 134 73
0.8159869909286499 -0.542376697063446 0.19998185336589813 243 135 72
0.8539226055145264 -0.4770887792110443 0.2078520804643631 243 135 72
0.8980947136878967 -0.40305688977241516 0.17598584294319153 243 135 72
0.8905395865440369 -0.3980880677700043 0.22014783322811127 243 134 73
0.9027101993560791 -0.3524027168750763 0.2468331754207611 243 135 72
0.9060513377189636 -0.3780791759490967 0.190071240067482 243 135 72
0.9230293035507202 -0.3433370292186737 0.17359906435012817 243 134 73
0.9275679588317871 -0.3278336822986603 0.17928381264209747 243 134 73
0.9146256446838379 -0.3737492263317108 0.15417997539043427 243 134 73
0.9186866283416748 -0.37159305810928345 0.13391613960266113 243 134 73
0.9154682159423828 -0.365780234336853 0.16769836843013763 243 134 73
0.9248948097229004 -0.35120120644569397 0.14569590985774994 242 133 74
0.9201749563217163 -0.3701918423175812 0.127421036362648 243 134 73
0.9255842566490173 -0.35852867364883423 0.12145383656024933 242 133 74
0.9223746657371521 -0.3506842255592346 0.16200456023216248 242 133 74
0.8982962965965271 -0.4056175649166107 0.16893258690834045 241 130 76
0.8959859609603882 -0.3718685507774353 0.24274030327796936 240 129 77
0.8629801869392395 -0.37829506397247314 0.3349002003669739 240 128 77
0.8550160527229309 -0.3716103732585907 0.3617364168167114 240 128 77
0.8349891901016235 -0.3803451955318451 0.39765647053718567 240 128 77
0.7863723635673523 -0.4022776782512665 0.4688190519809723 240 129 77
0.8277121186256409 -0.41473519802093506 0.37800437211990356 240 129 77
0.813435435295105 -0.40239688754081726 0.41999948024749756 240 129 77
0.802703857421875 -0.42027896642684937 0.4231218993663788 240 129 77
0.8341265320777893 -0.43717944622039795 0.3363138437271118 240 129 77
0.8507382869720459 -0.4652131497859955 0.2445835918188095 240 129 77
0.8386319279670715 -0.4548363983631134 0.29970043897628784 240 129 77
0.8227371573448181 -0.46970218420028687 0.32013052701950073 241 130 76
0.7913311123847961 -0.4365519881248474 0.428039014339447 241 130 76
0.779276430606842 -0.436481773853302 0.44967973232269287 241 130 76
0.7803425788879395 -0.36752527952194214 0.5059552192687988 241 130 76
0.7356371283531189 -0.4839819669723511 0.47391924262046814 241 130 76
0.5921204090118408 -0.7225977778434753 0.3567155599594116 241 130 76
0.6668270230293274 -0.7357236742973328 0.1185426190495491 241 130 76
0.5148418545722961 -0.7888533473014832 0.3356311023235321 211 81 111
0.43941032886505127 -0.843515157699585 0.3088701665401459 201 69 121
0.6379536986351013 -0.6289437413215637 0.4443475902080536 206 74 117
0.6616405844688416 -0.6257268190383911 0.41315576434135437 210 80 112
0.6815329790115356 -0.6791843771934509 0.2724359333515167 208 77 115
0.6783725023269653 -0.6988179087638855 0.22685740888118744 205 73 117
0.6730753183364868 -0.7256032824516296 0.1430717408657074 209 78 114
0.6314532160758972 -0.7709991931915283 0.08262592554092407 211 81 111
0.615132212638855 -0.7882373929023743 -0.017151163890957832 214 85 109
0.626824676990509 -0.7720339894294739 -0.10513990372419357 207 75 116
0.6531060934066772 -0.7361629009246826 -0.17752934992313385 205 73 117
0.6846324801445007 -0.6844416260719299 -0.2506353259086609 204 72 118
0.6951999068260193 -0.6549332141876221 -0.2962421774864197 205 73 117
0.677501380443573 -0.663905680179596 -0.31657737493515015 206 74 117
0.6752192378044128 -0.6739479899406433 -0.29978856444358826 202 70 120
0.675035834312439 -0.6790004968643188 -0.288591206073761 205 73 117
0.6609107255935669 -0.6758973598480225 -0.3261285424232483 207 75 116
0.6136678457260132 -0.6731923222541809 -0.41258201003074646 187 53 134
0.636211633682251 -0.6974490284919739 -0.32984787225723267 184 50 137
0.6566619873046875 -0.680944561958313 -0.32420599460601807 211 81 111
0.6457707285881042 -0.6772244572639465 -0.35262903571128845 214 85 109
0.6337443590164185 -0.7213655114173889 -0.27928462624549866 221 95 101
0.6419380903244019 -0.7410334348678589 -0.19693894684314728 220 93 102
0.6607741117477417 -0.7405851483345032 -0.12211140990257263 221 95 101
0.6931048631668091 -0.7176965475082397 -0.06721071898937225 222 96 100
0.731593906879425 -0.6804984211921692 -0.041135720908641815 222 96 100
0.7369624972343445 -0.6749321818351746 -0.036779891699552536 224 100 97
0.7357379198074341 -0.6751490235328674 -0.0535115972161293 226 102 96
0.7548582553863525 -0.6541376709938049 -0.04788503050804138 227 104 94
0.7518258094787598 -0.6569708585739136 -0.05610029026865959 231 110 90
0.7791619896888733 -0.6265919208526611 -0.01700560934841633 233 114 87
0.777084469795227 -0.6270199418067932 0.0546405129134655 235 118 84
0.7596682906150818 -0.6489037871360779 0.042755480855703354 237 121 82
0.747147262096405 -0.6646470427513123 -0.003901474876329303 237 123 81
0.752719521522522 -0.6583129167556763 0.006123763974756002 238 124 80
0.7519710063934326 -0.6548176407814026 0.07585147023200989 237 121 82
0.7919838428497314 -0.6004022359848022 0.11080983281135559 234 116 85
0.8149839043617249 -0.5485690236091614 0.18674372136592865 232 113 88
0.7895919680595398 -0.5890994668006897 0.17177388072013855 230 109 90
0.6715959906578064 -0.7346320748329163 0.09630408883094788 227 103 95
-0.7576562762260437 -0.3920735716819763 -0.5217617154121399 172 37 147
-0.8597260117530823 0.11711379140615463 -0.4971473813056946 172 37 147
-0.7127426862716675 -0.058741260319948196 -0.6989615559577942 170 36 148
-0.7108136415481567 -0.21165499091148376 -0.6707802414894104 170 36 148
-0.6481646299362183 -0.2245108038187027 -0.7276521325111389 172 37 147
-0.6324406862258911 -0.25904685258865356 -0.7300091981887817 172 37 147
-0.640631377696991 -0.29819580912590027 -0.7075808644294739 174 39 145
-0.622874915599823 -0.3755359649658203 -0.6862940788269043 174 39 145
-0.6215530037879944 -0.37765851616859436 -0.6863278746604919 173 38 146
-0.6037439107894897 -0.3996785581111908 -0.689746618270874 172 37 147
-0.6082079410552979 -0.4196070432662964 -0.6738048195838928 172 37 147
-0.6439892053604126 -0.4544225335121155 -0.6154494285583496 170 36 148
-0.6808178424835205 -0.46784934401512146 -0.5635637640953064 169 35 149
-0.6747400164604187 -0.44900041818618774 -0.5857683420181274 169 35 149
-0.6992301940917969 -0.3941121995449066 -0.5964500308036804 168 34 150
-0.7063010931015015 -0.3719538450241089 -0.6023197770118713 168 34 150
-0.6840523481369019 -0.39283597469329834 -0.6146155595779419 169 35 149
-0.7049217224121094 -0.4242204427719116 -0.5684385299682617 169 35 149
-0.7311686873435974 -0.4002815783023834 -0.5524191856384277 169 35 149
-0.7472581267356873 -0.4078295826911926 -0.5246716141700745 168 34 150
-0.7721670866012573 -0.4038507640361786 -0.4905736446380615 168 34 150
-0.7580779790878296 -0.3839380443096161 -0.5271708965301514 168 34 150
-0.7605232000350952 -0.377316415309906 -0.5284286141395569 169 35 149
-0.7852212190628052 -0.34554240107536316 -0.5138365030288696 170 36 148
-0.8100457787513733 -0.34111079573631287 -0.4769374430179596 172 37 147
-0.800933301448822 -0.3504132926464081 -0.48550647497177124 173 38 146
-0.7915909886360168 -0.3668144941329956 -0.4887031018733978 172 37 147
-0.7830411195755005 -0.32995179295539856 -0.5272367000579834 169 35 149
-0.7692031264305115 -0.33543941378593445 -0.543881356716156 169 35 149
-0.7802227139472961 -0.3416082561016083 -0.5239812731742859 168 34 150
-0.7783809304237366 -0.36637410521507263 -0.5097971558570862 168 34 150
-0.7831991314888 -0.3631645143032074 -0.5046886205673218 168 34 150
-0.7736462950706482 -0.34097540378570557 -0.5340479016304016 168 34 150
-0.7682705521583557 -0.34115245938301086 -0.5416412353515625 168 34 150
-0.7489707469940186 -0.36029478907585144 -0.5560850501060486 168 34 150
-0.7421088218688965 -0.3790113925933838 -0.5528335571289062 168 34 150
-0.7540841698646545 -0.3681887984275818 -0.5438696146011353 168 34 150
-0.7675062417984009 -0.32717469334602356 -0.5512629747390747 168 34 150
-0.776999294757843 -0.32844746112823486 -0.5370235443115234 169 35 149
-0.7522892355918884 -0.33309406042099 -0.5684270858764648 169 35 149
-0.7361880540847778 -0.32870468497276306 -0.5915914177894592 169 35 149
-0.7244194746017456 -0.3198029100894928 -0.6106902360916138 173 38 146
-0.7203879356384277 -0.28455597162246704 -0.6325101852416992 175 40 144
-0.7365182638168335 -0.30478233098983765 -0.6038615107536316 174 39 145
-0.7473059892654419 -0.2919052839279175 -0.5969297885894775 173 38 146
-0.7563086748123169 -0.2787840962409973 -0.5918415784835815 172 37 147
-0.7527717351913452 -0.28236913681030273 -0.5946447849273682 170 36 148
-0.7574716210365295 -0.2740149199962616 -0.5925813913345337 169 35 149
-0.7684566378593445 -0.266404390335083 -0.5818101763725281 168 34 150
-0.7648113369941711 -0.2725966274738312 -0.5837419033050537 170 36 148
-0.7502772212028503 -0.25757601857185364 -0.6088832020759583 172 37 147
-0.7528719305992126 -0.23099228739738464 -0.616300642490387 173 38 146
-0.7678375840187073 -0.21096785366535187 -0.6049115061759949 170 36 148
-0.7686251997947693 -0.19084741175174713 -0.6105673909187317 167 33 151
-0.789932906627655 -0.19467538595199585 -0.5814700722694397 167 33 151
-0.7909011244773865 -0.1842840313911438 -0.5835364460945129 167 33 151
-0.7746819257736206 -0.1802815943956375 -0.6061076521873474 169 35 149
-0.7584512233734131 -0.17327852547168732 -0.6282724142074585 169 35 149
-0.7595223188400269 -0.18414531648159027 -0.6238721013069153 167 33 151
-0.7413550615310669 -0.20921513438224792 -0.637669026851654 163 29 153
-0.765152096748352 -0.1793988198041916 -0.6183512806892395 162 28 154
-0.7820751070976257 -0.17373137176036835 -0.5984779596328735 160 27 155
-0.8017609715461731 -0.1662987917661667 -0.5740418434143066 159 26 155
-0.838411271572113 -0.18055902421474457 -0.5142614841461182 159 26 155
-0.8518438935279846 -0.19227787852287292 -0.4872282147407532 160 27 155
-0.843020498752594 -0.2007870376110077 -0.49900010228157043 160 27 155
-0.8427913784980774 -0.23542283475399017 -0.48402348160743713 158 25 156
-0.8539752960205078 -0.27340081334114075 -0.4426943361759186 157 24 157
-0.8535065650939941 -0.29724544286727905 -0.42798545956611633 157 24 157
-0.8339353203773499 -0.31356242299079895 -0.4541260600090027 157 24 157
-0.7982274293899536 -0.3454194664955139 -0.49347585439682007 159 26 155
-0.8059179186820984 -0.3541719317436218 -0.4744032621383667 163 29 153
-0.8125995397567749 -0.3612913191318512 -0.4573298692703247 164 30 152
-0.8016130924224854 -0.3560967743396759 -0.48022037744522095 164 30 152
-0.7948670983314514 -0.33738481998443604 -0.5043388605117798 163 29 153
-0.7994751930236816 -0.3046126663684845 -0.51773601770401 162 28 154
-0.8120207190513611 -0.2584250867366791 -0.5232961773872375 163 29 153
-0.8091474771499634 -0.24983689188957214 -0.5318475961685181 162 28 154
-0.7928614616394043 -0.2618342638015747 -0.5502849221229553 159 26 155
-0.7884271144866943 -0.2610941231250763 -0.5569673180580139 160 27 155
-0.7693724036216736 -0.2477797269821167 -0.5887880325317383 163 29 153
-0.7825288772583008 -0.2304920107126236 -0.5783787965774536 167 33 151
-0.7777048349380493 -0.23064570128917694 -0.5847886204719543 170 36 148
-0.7828224897384644 -0.20864544808864594 -0.5862218737602234 175 40 144
-0.7871057987213135 -0.19717265665531158 -0.5844548344612122 177 43 143
-0.798640787601471 -0.1970045268535614 -0.5686493515968323 178 44 142
-0.7922716736793518 -0.16027162969112396 -0.588743269443512 178 44 142
-0.7871142625808716 -0.17140287160873413 -0.5925133228302002 176 42 143
-0.7924559712409973 -0.18057943880558014 -0.5825843811035156 175 40 144
-0.8055018186569214 -0.18348874151706696 -0.563470184803009 172 37 147
-0.8095448613166809 -0.19484591484069824 -0.5537800192832947 168 34 150
-0.8205878138542175 -0.19844824075698853 -0.5359607934951782 162 28 154
-0.8373121619224548 -0.1708614081144333 -0.5193406343460083 159 26 155
-0.828716516494751 -0.17737674713134766 -0.5308167338371277 155 23 158
-0.8423821926116943 -0.1735852211713791 -0.5101572275161743 158 25 156
-0.8396931290626526 -0.18167978525161743 -0.5117692947387695 169 35 149
-0.8361698985099792 -0.19533921778202057 -0.5125060081481934 181 46 140
-0.8346987962722778 -0.16790889203548431 -0.5244849920272827 190 56 131
-0.8330985903739929 -0.16798220574855804 -0.526999831199646 194 61 128
-0.808729887008667 -0.18858611583709717 -0.5571276545524597 191 57 130
-0.8033503890037537 -0.15174029767513275 -0.5758498311042786 189 55 132
-0.8121466040611267 -0.14047624170780182 -0.5662899613380432 186 52 135
-0.8250892162322998 -0.12636718153953552 -0.5506895780563354 185 51 136
-0.8597215414047241 -0.10282167792320251 -0.5003065466880798 188 54 133
-0.8638697266578674 -0.1109587624669075 -0.4913422465324402 193 60 128
-0.8552752733230591 -0.18175548315048218 -0.48525160551071167 196 63 126
-0.8697377443313599 -0.204082190990448 -0.4493403732776642 198 65 124
-0.8742787837982178 -0.1977531611919403 -0.4433172345161438 198 65 124
-0.8682093024253845 -0.19097313284873962 -0.45797592401504517 192 59 129
-0.8443176746368408 -0.17893201112747192 -0.5050849914550781 187 53 134
-0.8255987167358398 -0.19127261638641357 -0.5308498740196228 188 54 133
-0.8064082264900208 -0.18646320700645447 -0.5611926317214966 184 50 137
-0.7840223908424377 -0.19751888513565063 -0.5884685516357422 182 47 139
-0.7906500101089478 -0.18478929996490479 -0.5837169289588928 182 47 139
-0.7884974479675293 -0.19700948894023895 -0.5826311707496643 183 48 138
-0.7933019995689392 -0.1786128431558609 -0.5820389986038208 189 55 132
-0.7925524115562439 -0.1791522055864334 -0.5828938484191895 178 44 142
-0.7970592379570007 -0.16836552321910858 -0.579956591129303 177 43 143
-0.7880445122718811 -0.15733350813388824 -0.5951738357543945 177 43 143
-0.8066156506538391 -0.1451454609632492 -0.572978138923645 181 46 140
-0.8019611239433289 -0.16482627391815186 -0.5741869211196899 182 47 139
-0.8119683265686035 -0.18710988759994507 -0.5528990626335144 183 48 138
-0.8395282626152039 -0.172781303524971 -0.5151106119155884 187 53 134
-0.9130733013153076 -0.20837940275669098 -0.35053542256355286 217 89 105
-0.9701997637748718 -0.12426134943962097 -0.20801782608032227 218 90 104
-0.9641838669776917 -0.17764458060264587 -0.1969563513994217 220 94 102
-0.9367175698280334 -0.23284582793712616 -0.2614248991012573 222 96 100
-0.9485526084899902 -0.1977938413619995 -0.24723587930202484 222 96 100
-0.9423380494117737 -0.23218081891536713 -0.2410205453634262 223 97 99
-0.9239526391029358 -0.29397714138031006 -0.24472227692604065 224 100 97
-0.9405438899993896 -0.2698509693145752 -0.20629523694515228 226 102 96
-0.9329143166542053 -0.31726980209350586 -0.1703253984451294 227 103 95
-0.9593923091888428 -0.2752331793308258 -0.06175090745091438 226 102 96
-0.9769124388694763 -0.1929585337638855 0.09170060604810715 225 101 96
-0.9832412004470825 -0.16206017136573792 0.08350569009780884 227 104 94
-0.9835004806518555 -0.1509416103363037 0.09971705079078674 228 106 93
-0.9802245497703552 -0.15206089615821838 0.12663887441158295 229 107 92
-0.9877002835273743 -0.1498377025127411 0.04468391463160515 229 108 91
-0.9893968105316162 -0.048192329704761505 0.13700859248638153 229 108 91
-0.9844285845756531 0.018031543120741844 0.17485755681991577 228 106 93
-0.9882739782333374 0.051402680575847626 0.14377887547016144 229 107 92
-0.9982035160064697 0.05666492506861687 0.01946699433028698 229 107 92
-0.9977299571037292 0.02104557678103447 -0.06396879255771637 228 106 93
-0.9854875802993774 0.03413749486207962 -0.166279599070549 228 106 93
-0.9793874621391296 -0.012103274464607239 -0.20162789523601532 228 106 93
-0.9852941632270813 0.030645431950688362 -0.16809551417827606 229 107 92
-0.9858602285385132 0.017041191458702087 -0.1667010486125946 229 107 92
-0.9760400056838989 -0.0002510766207706183 -0.2175910472869873 229 108 91
-0.9841840863227844 0.021703703328967094 -0.1758141964673996 229 107 92
-0.9883862137794495 0.028178879991173744 -0.14932739734649658 229 107 92
-0.984561026096344 0.019579757004976273 -0.17394335567951202 229 107 92
-0.9762550592422485 0.0004687662294600159 -0.21662385761737823 227 103 95
-0.9690245389938354 -0.01795785315334797 -0.24631066620349884 226 102 96
-0.9858784675598145 -0.016575558111071587 -0.16664016246795654 220 94 102
-0.9931831359863281 -0.00891223642975092 -0.11622273176908493 215 87 107
-0.9943678379058838 0.016241485252976418 -0.10473193973302841 209 78 114
-0.996502161026001 0.017237339168787003 -0.08177042752504349 202 70 120
-0.9948987364768982 -0.07635824382305145 -0.06592436879873276 189 55 132
-0.9927273988723755 -0.10271235555410385 -0.06278861314058304 181 46 140
-0.9896612167358398 -0.05237985774874687 -0.13351786136627197 181 46 140
-0.9639062881469727 -0.11485128104686737 -0.24019548296928406 172 37 147
-0.9434023499488831 -0.06825942546129227 -0.32454997301101685 168 34 150
-0.9408970475196838 -0.019782530143857002 -0.33811452984809875 170 36 148
-0.905386209487915 -0.04040129855275154 -0.4226624369621277 165 31 151
-0.9041285514831543 -0.032633766531944275 -0.42601242661476135 157 24 157
-0.8581462502479553 -0.04264288395643234 -0.511631429195404 151 19 160
-0.8722227215766907 -0.01828846149146557 -0.4887668490409851 149 17 161
-0.8377694487571716 0.025162845849990845 -0.5454439520835876 146 15 162
-0.8004328608512878 0.06330835074186325 -0.596069872379303 150 18 160
-0.7666603922843933 0.10146601498126984 -0.6339846849441528 160 27 155
-0.7266172766685486 0.02439172752201557 -0.6866093873977661 162 28 154
-0.7138993144035339 -0.15263362228870392 -0.6834111213684082 167 33 151
-0.6524409651756287 -0.2631126046180725 -0.710698664188385 162 28 154
-0.641872227191925 -0.29009607434272766 -0.7098199129104614 159 26 155
-0.5810357332229614 -0.25368228554725647 -0.7733322978019714 160 27 155
-0.4983157515525818 -0.2817440927028656 -0.8199400305747986 159 26 155
-0.4374091625213623 -0.35163047909736633 -0.8276649117469788 163 29 153
-0.329148530960083 -0.38552019000053406 -0.8619949817657471 168 34 150
-0.18944689631462097 -0.40113601088523865 -0.8962141275405884 174 39 145
-0.03298068046569824 -0.49893784523010254 -0.8660100102424622 173 38 146
0.09723880887031555 -0.566321074962616 -0.8184283971786499 177 43 143
0.2637634575366974 -0.55507892370224 -0.7888702154159546 186 52 135
0.3980637788772583 -0.5751326084136963 -0.7146800756454468 194 61 128
0.46845075488090515 -0.602208137512207 -0.6464512348175049 199 66 123
0.5400457382202148 -0.6072896122932434 -0.5827091336250305 206 74 117
0.6825550198554993 -0.5254787802696228 -0.5079278349876404 213 83 109
0.7245376706123352 -0.5140436291694641 -0.4591343402862549 220 94 102
0.7290744781494141 -0.5006449818611145 -0.46669596433639526 220 94 102
0.7192937731742859 -0.47640547156333923 -0.5056226253509521 219 91 103
0.7354962825775146 -0.44867807626724243 -0.5076742768287659 220 93 102
0.7519488334655762 -0.4385802149772644 -0.4921589195728302 219 91 103
0.7698419690132141 -0.45146843791007996 -0.45113152265548706 219 91 103
0.8166791200637817 -0.4326656460762024 -0.3818843960762024 218 90 104
0.8610086441040039 -0.37512505054473877 -0.3434315025806427 217 89 105
0.8564706444740295 -0.37203654646873474 -0.3578363060951233 218 90 104
0.8395100235939026 -0.3743881285190582 -0.3937721252441406 218 90 104
0.8054125905036926 -0.3970816135406494 -0.44004175066947937 217 89 105
0.781427264213562 -0.4377812147140503 -0.4446561336517334 218 90 104
0.7582650184631348 -0.4390483796596527 -0.4819446802139282 219 91 103
0.7306495904922485 -0.4108996093273163 -0.5452637672424316 219 91 103
0.7344920635223389 -0.41304442286491394 -0.5384382009506226 219 91 103
0.7744047045707703 -0.37137728929519653 -0.5122267603874207 218 90 104
0.7540466785430908 -0.357578307390213 -0.5509549379348755 216 88 106
0.710362434387207 -0.36124932765960693 -0.6040563583374023 215 87 107
0.6679716110229492 -0.4166348874568939 -0.6166274547576904 217 89 105
0.720102071762085 -0.4402860105037689 -0.5362846851348877 216 88 106
0.7750002145767212 -0.44873106479644775 -0.44498884677886963 217 89 105
0.8254251480102539 -0.4584541618824005 -0.3293829560279846 219 91 103
0.8359044194221497 -0.4738503396511078 -0.2770010530948639 220 94 102
0.8021253347396851 -0.5479575991630554 -0.2373550534248352 224 100 97
0.7788911461830139 -0.5878055095672607 -0.21866217255592346 225 101 96
0.752895712852478 -0.6225180625915527 -0.21358656883239746 226 102 96
0.7300154566764832 -0.6482555270195007 -0.2164304256439209 227 103 95
0.714469850063324 -0.6648960709571838 -0.21782132983207703 227 104 94
0.7072058916091919 -0.6716938614845276 -0.22065198421478271 227 104 94
0.700520396232605 -0.6790292859077454 -0.2195231169462204 228 106 93
0.715114414691925 -0.6648792028427124 -0.21574725210666656 229 107 92
0.7223958969116211 -0.6662737727165222 -0.18499578535556793 230 109 90
0.6734589338302612 -0.7159385085105896 -0.18407878279685974 230 109 90
0.6730942130088806 -0.712143063545227 -0.19949066638946533 230 109 90
0.6847259402275085 -0.6997073888778687 -0.20386263728141785 230 109 90
0.6734492182731628 -0.7088454365730286 -0.20977196097373962 230 109 90
0.6458067297935486 -0.7306384444236755 -0.22158750891685486 229 107 92
0.6061379313468933 -0.762005090713501 -0.22791464626789093 229 108 91
0.6043810248374939 -0.7582440972328186 -0.24451899528503418 228 106 93
0.6316042542457581 -0.7130743861198425 -0.30430421233177185 228 106 93
0.6177013516426086 -0.7217408418655396 -0.31230634450912476 228 106 93
0.6157351732254028 -0.7323535680770874 -0.2907380163669586 229 108 91
0.6291598081588745 -0.7001317739486694 -0.33759966492652893 227 104 94
0.6392192840576172 -0.7018830180168152 -0.3142591416835785 227 103 95
0.6331506967544556 -0.6994860172271729 -0.33142051100730896 226 102 96
0.6395755410194397 -0.7064611315727234 -0.30307736992836 227 104 94
0.6321088671684265 -0.6989523768424988 -0.3345206081867218 227 103 95
0.6314597129821777 -0.7066459059715271 -0.319233775138855 227 103 95
0.6236360669136047 -0.71001136302948 -0.3270503580570221 225 101 96
0.6354645490646362 -0.6862075924873352 -0.35398292541503906 226 102 96
0.6629884839057922 -0.6677190661430359 -0.3385225832462311 225 101 96
0.6624075770378113 -0.6688972115516663 -0.3373316824436188 224 100 97
0.6674138903617859 -0.6610620021820068 -0.3428642153739929 225 101 96
0.6399446129798889 -0.6690142154693604 -0.378009170293808 225 101 96
0.6433038115501404 -0.6663514375686646 -0.3770093023777008 224 100 97
0.6565967202186584 -0.659148633480072 -0.3666113317012787 223 98 98
0.674224317073822 -0.6631326675415039 -0.3250795900821686 223 98 98
0.6790644526481628 -0.6530044674873352 -0.3353455662727356 223 97 99
0.6853143572807312 -0.6415917277336121 -0.34453481435775757 223 97 99
0.6721063256263733 -0.656221330165863 -0.34299662709236145 220 94 102
0.6554521322250366 -0.6598657369613647 -0.3673686385154724 219 91 103
0.640642523765564 -0.6829756498336792 -0.3508864641189575 220 93 102
0.6268711090087891 -0.6879675984382629 -0.36569541692733765 217 89 105
0.6371251344680786 -0.6752207279205322 -0.37168338894844055 217 89 105
0.6354125142097473 -0.6862194538116455 -0.35405343770980835 217 89 105
0.6123009324073792 -0.6845665574073792 -0.3955453932285309 217 89 105
0.6134057641029358 -0.6853142380714417 -0.3925274908542633 219 91 103
0.6115409731864929 -0.6717954874038696 -0.41798165440559387 218 90 104
0.6024425625801086 -0.6847942471504211 -0.41002410650253296 216 88 106
0.6138427257537842 -0.6657931804656982 -0.42416563630104065 210 80 112
0.5975081920623779 -0.6862010359764099 -0.4148640036582947 205 73 117
0.5799464583396912 -0.6971939206123352 -0.4214056134223938 204 72 118
0.5873377323150635 -0.6855612397193909 -0.43016311526298523 204 72 118
0.5501680374145508 -0.7108878493309021 -0.43812504410743713 205 73 117
0.47302863001823425 -0.7330816388130188 -0.4887078106403351 201 69 121
0.4372989237308502 -0.728571355342865 -0.5272129774093628 198 65 124
0.40406158566474915 -0.7084423899650574 -0.5786568522453308 193 60 128
0.3967839777469635 -0.7043759226799011 -0.5885720252990723 187 53 134
0.41604968905448914 -0.7166412472724915 -0.5597569942474365 183 48 138
0.4552842676639557 -0.6965939998626709 -0.5545024871826172 181 46 140
0.48108959197998047 -0.694279670715332 -0.5352836847305298 178 44 142
0.4763801693916321 -0.7089032530784607 -0.5201135277748108 174 39 145
0.4423120617866516 -0.6890595555305481 -0.5740705728530884 177 43 143
0.45580819249153137 -0.6670364141464233 -0.5893227458000183 180 45 141
0.48689648509025574 -0.6646584272384644 -0.5667106509208679 185 51 136
0.5381981134414673 -0.6482990384101868 -0.5385639667510986 169 35 149
0.516573429107666 -0.653594434261322 -0.5531420707702637 162 28 154
0.5202847123146057 -0.6800771355628967 -0.5165258049964905 155 23 158
0.5068683624267578 -0.7192372679710388 -0.47516533732414246 147 16 161
0.513849139213562 -0.7133905291557312 -0.47647976875305176 137 8 165
0.5219712257385254 -0.6774699687957764 -0.5182476043701172 127 3 167
0.5221815705299377 -0.6587069034576416 -0.5416932106018066 123 2 168
0.49849268794059753 -0.6846433281898499 -0.5317597985267639 123 2 168
0.47981539368629456 -0.6759063601493835 -0.5593994855880737 123 2 168
0.5000256896018982 -0.6776016354560852 -0.5392869114875793 120 1 168
0.5361693501472473 -0.6499485969543457 -0.5385993123054504 117 0 168
0.5523460507392883 -0.6626772284507751 -0.5057397484779358 115 0 168
0.5572095513343811 -0.6493536829948425 -0.5175492763519287 114 0 168
0.5457881689071655 -0.6403271555900574 -0.5404593348503113 111 0 168
0.5300269722938538 -0.599267840385437 -0.5999578833580017 109 0 168
0.5380600690841675 -0.5241653919219971 -0.6601075530052185 108 0 168
0.5576156973838806 -0.5184116363525391 -0.6483163833618164 106 0 167
0.5917699337005615 -0.46967753767967224 -0.6551422476768494 109 0 168
0.6624248027801514 -0.4404594302177429 -0.6059610247612 117 0 168
0.6879358887672424 -0.40547236800193787 -0.601943850517273 124 2 167
0.6831884384155273 -0.4305945038795471 -0.5897812247276306 126 3 167
0.6772873997688293 -0.38500550389289856 -0.6269389390945435 124 2 167
0.6842760443687439 -0.3418208360671997 -0.6441466808319092 130 4 167
0.670444667339325 -0.33844584226608276 -0.660271406173706 133 6 166
0.6551001667976379 -0.3368377685546875 -0.6763017773628235 126 3 167
0.6554121375083923 -0.32863906025886536 -0.6800230741500854 120 1 168
0.6632904410362244 -0.3250114619731903 -0.6741018295288086 114 0 168
0.7100102305412292 -0.35634472966194153 -0.6073746085166931 111 0 168
0.6908949017524719 -0.30436691641807556 -0.6557629704475403 123 2 168
0.6327250003814697 -0.35012295842170715 -0.6907047033309937 114 0 168
0.6417611837387085 -0.387970894575119 -0.6615294218063354 123 2 168
0.6777775287628174 -0.32374945282936096 -0.6601545214653015 133 6 166
0.7123987674713135 -0.29826903343200684 -0.6352349519729614 137 8 165
0.7065575122833252 -0.34212973713874817 -0.6194544434547424 142 12 164
0.6689696311950684 -0.35237470269203186 -0.6544551849365234 144 14 163
0.7060662508010864 -0.35615766048431396 -0.6120637655258179 150 18 160
0.732562243938446 -0.2798655927181244 -0.6205060482025146 158 25 156
0.726929783821106 -0.3199208676815033 -0.6076378226280212 163 29 153
0.7179228067398071 -0.36381545662879944 -0.5934855341911316 168 34 150
0.7122612595558167 -0.3167180120944977 -0.6263973712921143 170 36 148
0.7288089394569397 -0.3379245102405548 -0.5955203175544739 170 36 148
0.6830283403396606 -0.36573243141174316 -0.6322278380393982 170 36 148
0.6207743883132935 -0.3472948670387268 -0.7028694748878479 170 36 148
0.5446342825889587 -0.27943724393844604 -0.7907517552375793 169 35 149
0.57677161693573 -0.22618632018566132 -0.7849676609039307 160 27 155
0.7993656992912292 -0.034225985407829285 -0.5998692512512207 159 26 155
0.8137136101722717 0.00408685440197587 -0.5812516212463379 158 25 156
0.7224001288414001 0.038155704736709595 -0.6904218196868896 158 25 156
0.7150440216064453 0.06960229575634003 -0.6956059336662292 157 24 157
0.703536331653595 0.1694280058145523 -0.690167248249054 151 19 160
0.7145962119102478 0.32164523005485535 -0.621205747127533 146 15 162
0.7108503580093384 0.3139302432537079 -0.6293962001800537 143 13 163
0.6636468768119812 0.3136197030544281 -0.6791284084320068 140 10 164
0.4824390113353729 0.4529806971549988 -0.7497072815895081 142 12 164
0.30665746331214905 0.5995082855224609 -0.7392909526824951 142 12 164
0.11904039978981018 0.6417458057403564 -0.7576223611831665 142 12 164
0.11413851380348206 0.6487770676612854 -0.7523700594902039 146 15 162
0.14169925451278687 0.6042337417602539 -0.784106433391571 146 15 162
0.1448553055524826 0.6738713979721069 -0.7245097160339355 143 13 163
0.17101174592971802 0.6778073906898499 -0.7150748372077942 143 13 163
0.17841291427612305 0.6737431883811951 -0.7171045541763306 140 10 164
0.0866432934999466 0.6025132536888123 -0.7933919429779053 143 13 163
0.060146182775497437 0.5489857196807861 -0.8336648941040039 149 17 161
-0.05969436466693878 0.5458468794822693 -0.8357558250427246 155 23 158
-0.03888271003961563 0.4791155755519867 -0.8768901824951172 180 45 141
-0.09291339665651321 0.5319328308105469 -0.8416736721992493 188 54 133
-0.05732666701078415 0.5453994274139404 -0.8362135887145996 198 65 124
-0.03406405448913574 0.5724589228630066 -0.819225549697876 209 79 113
-0.05182858183979988 0.5612919330596924 -0.8259933590888977 218 90 104
-0.1077662855386734 0.6016327142715454 -0.7914698123931885 225 101 96
-0.12580657005310059 0.5812463164329529 -0.8039436936378479 232 112 89
-0.05226640775799751 0.6194019913673401 -0.7833321690559387 236 119 84
-0.05335555598139763 0.7054294347763062 -0.7067690491676331 238 124 80
-0.09059160947799683 0.7497344017028809 -0.6555084586143494 241 130 76
-0.0823793113231659 0.798085629940033 -0.5968860387802124 244 138 71
-0.05759839713573456 0.8209083676338196 -0.5681477785110474 249 153 61
-0.10595909506082535 0.8714697360992432 -0.4788666367530823 250 160 57
-0.1137673556804657 0.9163410663604736 -0.3838959336280823 251 163 55
-0.21705183386802673 0.9594188332557678 -0.1800115555524826 251 163 55
-0.1107022687792778 0.9901828765869141 -0.0853395089507103 251 162 56
-0.11665424704551697 0.9924827814102173 -0.03701144456863403 251 162 56
-0.12654955685138702 0.9854148030281067 0.11376701295375824 250 159 58
-0.09295373409986496 0.9762787222862244 0.19554896652698517 249 154 60
-0.06375467032194138 0.9482482671737671 0.31106361746788025 249 154 60
-0.1764611154794693 0.9434707760810852 0.2805786728858948 249 153 61
-0.10333587229251862 0.9750221371650696 0.19660477340221405 248 149 64
-0.13882598280906677 0.9499075412750244 0.2800053060054779 246 143 67
-0.15638437867164612 0.9732046723365784 0.16857227683067322 242 133 74
-0.23399139940738678 0.9682973027229309 0.08745484799146652 238 124 80
-0.26687636971473694 0.9635005593299866 0.02106441929936409 236 119 84
-0.13032136857509613 0.9870814085006714 0.09320211410522461 233 114 87
-0.16851553320884705 0.9709123373031616 0.17009323835372925 227 104 94
-0.015704279765486717 0.9969266057014465 0.07675059139728546 218 90 104
0.0663674995303154 0.981301486492157 -0.18067309260368347 208 77 115
0.15592984855175018 0.9372237920761108 -0.31192547082901 201 69 121
0.13173720240592957 0.6760923862457275 -0.7249444127082825 192 59 129
-0.28331705927848816 0.7516545653343201 -0.59560626745224 180 45 141
-0.4573940634727478 0.4460754096508026 -0.7692900896072388 165 31 151
-0.374300092458725 0.06517727673053741 -0.9250142574310303 147 16 161
-0.29365473985671997 0.036548689007759094 -0.9552125930786133 129 4 167
-0.1230180561542511 -0.16147436201572418 -0.9791795611381531 112 0 168
-0.2075331062078476 -0.2825627028942108 -0.9365299940109253 101 0 167
-0.03729229420423508 -0.21159659326076508 -0.9766454100608826 95 0 166
-0.011924457736313343 -0.30710041522979736 -0.9516023993492126 97 0 166
0.0802667886018753 -0.4020538926124573 -0.9120908975601196 100 0 167
-0.005033597350120544 -0.4896448254585266 -0.8719074726104736 100 0 167
0.0011427770368754864 -0.4772370159626007 -0.8787738084793091 106 0 167
0.09921585768461227 -0.442138135433197 -0.8914427161216736 108 0 168
0.11088619381189346 -0.4871133863925934 -0.8662706613540649 111 0 168
0.15370295941829681 -0.4201544523239136 -0.8943408727645874 117 0 168
0.1492331475019455 -0.369127094745636 -0.9173192977905273 126 3 167
0.22620661556720734 -0.3886123299598694 -0.8932026624679565 133 6 166
