ply
format ascii 1.0
element vertex 682
property float x
property float y
property float z
property uchar red
property uchar green
property uchar blue
end_header
-0.09721618890762329 -0.3236580193042755 -0.4685959219932556 0 0 255
0.006923415698111057 -0.21379415690898895 -0.4056667387485504 0 0 255
-0.07069206237792969 -0.04093356803059578 -0.3703157901763916 0 0 255
-0.007204015739262104 -0.09945923089981079 -0.22494186460971832 0 0 255
0.1256048083305359 -0.07842892408370972 -0.2806815505027771 0 0 255
0.023765811696648598 -0.3538447320461273 -0.2576451301574707 0 0 255
-0.09616411477327347 -0.5352157354354858 -0.08952860534191132 0 0 255
-0.11238900572061539 -0.5994919538497925 -0.01872989535331726 0 0 255
0.037663400173187256 -0.44110339879989624 0.2133280485868454 0 0 255
-0.051705796271562576 -0.2531834542751312 0.49968022108078003 0 0 255
0.008751030080020428 -0.2427462488412857 0.45741400122642517 0 0 255
0.08922618627548218 -0.26127517223358154 0.4639330506324768 0 0 255
0.06808536499738693 -0.2577337622642517 0.5171633958816528 0 0 255
0.2019529640674591 0.06824841350317001 0.4371497929096222 0 0 255
0.18036271631717682 0.1293344348669052 0.3322219252586365 0 0 255
0.18131545186042786 0.33210381865501404 0.4532953202724457 0 0 255
0.286574125289917 0.38244351744651794 0.4094224274158478 0 0 255
0.34850841760635376 0.39856642484664917 0.20396946370601654 0 0 255
0.20646940171718597 0.29435932636260986 0.12567536532878876 0 0 255
0.1352280080318451 0.4837489724159241 0.27526170015335083 0 0 255
0.20913951098918915 0.7003968358039856 0.31335148215293884 0 0 255
0.15342052280902863 0.6427767276763916 0.2283199280500412 0 0 255
0.20974977314472198 0.5973904132843018 0.08365975320339203 0 0 255
0.129457488656044 0.5645520687103271 0.02217203378677368 0 0 255
0.13269151747226715 0.547214925289154 -0.030525898560881615 0 0 255
0.12409263849258423 0.5039668083190918 -0.09407778084278107 0 0 255
0.1291908174753189 0.5254961848258972 -0.06358833611011505 0 0 255
0.11659819632768631 0.5065813064575195 -0.09712004661560059 0 0 255
0.10885433107614517 0.4615381062030792 -0.13197779655456543 0 0 255
0.07797487080097198 0.44582733511924744 -0.20538361370563507 0 0 255
0.08685307204723358 0.41032254695892334 -0.2742003798484802 0 0 255
0.08712839335203171 0.36500799655914307 -0.27444931864738464 0 0 255
0.06149381771683693 0.3072071373462677 -0.2858962118625641 0 0 255
0.06188664957880974 0.3129638135433197 -0.2988179326057434 0 0 255
0.08239521831274033 0.33448824286460876 -0.2998288571834564 0 0 255
0.09814393520355225 0.32322248816490173 -0.2957318127155304 0 0 255
0.08761975169181824 0.2927575707435608 -0.2905489504337311 0 0 255
0.0844612792134285 0.2928050458431244 -0.2954428493976593 0 0 255
0.08964480459690094 0.31873902678489685 -0.28499263525009155 0 0 255
0.10413075238466263 0.33734163641929626 -0.2790345847606659 0 0 255
0.10809992998838425 0.3638453185558319 -0.2564407289028168 0 0 255
0.11264011263847351 0.3975662291049957 -0.24271468818187714 0 0 255
0.12466663867235184 0.4109533131122589 -0.2198205143213272 0 0 255
0.12764176726341248 0.42049118876457214 -0.19685454666614532 0 0 255
0.12696895003318787 0.4235166609287262 -0.18409068882465363 0 0 255
0.12581008672714233 0.4350977838039398 -0.17399179935455322 0 0 255
0.1397418975830078 0.4652717113494873 -0.1552928239107132 0 0 255
0.1426457017660141 0.4552417993545532 -0.13782761991024017 0 0 255
0.13307759165763855 0.4581715762615204 -0.11944352835416794 0 0 255
0.1469731330871582 0.483085572719574 -0.1199263408780098 0 0 255
0.14461952447891235 0.4816909432411194 -0.11437990516424179 0 0 255
0.13896475732326508 0.48345643281936646 -0.12185823172330856 0 0 255
0.14987973868846893 0.501839816570282 -0.08926504105329514 0 0 255
0.14437924325466156 0.4927014708518982 -0.09610477834939957 0 0 255
0.1447450816631317 0.49208080768585205 -0.11958596110343933 0 0 255
0.15001346170902252 0.4878896474838257 -0.12277069687843323 0 0 255
0.1479102373123169 0.4597355127334595 -0.14661943912506104 0 0 255
0.13865458965301514 0.4451288878917694 -0.17257006466388702 0 0 255
0.12796428799629211 0.4516467750072479 -0.16012585163116455 0 0 255
0.13759608566761017 0.4620516002178192 -0.17097151279449463 0 0 255
0.1368742138147354 0.4503769278526306 -0.16579782962799072 0 0 255
0.14136044681072235 0.4469127655029297 -0.186458021402359 0 0 255
0.14957498013973236 0.4622494578361511 -0.17449800670146942 0 0 255
0.15823684632778168 0.48007723689079285 -0.1543743759393692 0 0 255
0.15251435339450836 0.4671473503112793 -0.14753811061382294 0 0 255
0.14564895629882812 0.47476479411125183 -0.13341233134269714 0 0 255
0.16065898537635803 0.4787085950374603 -0.1278132051229477 0 0 255
0.14020925760269165 0.47008198499679565 -0.12078404426574707 0 0 255
0.14385876059532166 0.47730278968811035 -0.1313008815050125 0 0 255
0.16167856752872467 0.47573891282081604 -0.13484491407871246 0 0 255
0.1469261348247528 0.470122367143631 -0.1393413245677948 0 0 255
0.14084404706954956 0.46095356345176697 -0.14480005204677582 0 0 255
0.1491992175579071 0.47778424620628357 -0.14817677438259125 0 0 255
0.13473771512508392 0.48204514384269714 -0.14805470407009125 0 0 255
0.13344423472881317 0.4793681800365448 -0.15737631916999817 0 0 255
0.14304032921791077 0.4750064015388489 -0.16576726734638214 0 0 255
0.15000830590724945 0.4564138650894165 -0.16965259611606598 0 0 255
0.136358842253685 0.44625064730644226 -0.16835719347000122 0 0 255
0.13731947541236877 0.47297346591949463 -0.17364013195037842 0 0 255
0.14773766696453094 0.47239014506340027 -0.16323068737983704 0 0 255
0.14308372139930725 0.4719250202178955 -0.16148105263710022 0 0 255
0.13705243170261383 0.4702955484390259 -0.16264459490776062 0 0 255
0.12785010039806366 0.4686022996902466 -0.16538050770759583 0 0 255
0.15389908850193024 0.49493882060050964 -0.179684117436409 0 0 255
0.1400877982378006 0.5007340312004089 -0.16031619906425476 0 0 255
0.13146010041236877 0.48321473598480225 -0.17646723985671997 0 0 255
0.13244155049324036 0.5147022604942322 -0.1982261836528778 0 0 255
0.1471005380153656 0.5267964005470276 -0.19639982283115387 0 0 255
0.14515283703804016 0.4799225628376007 -0.19748741388320923 0 0 255
0.1386382132768631 0.43671107292175293 -0.2096848040819168 0 0 255
0.11602450162172318 0.4376618564128876 -0.21210144460201263 0 0 255
0.11453188210725784 0.4782937467098236 -0.23363637924194336 0 0 255
0.1256057620048523 0.4975736141204834 -0.2632333040237427 0 0 255
0.1202346608042717 0.45154717564582825 -0.276480108499527 0 0 255
0.11956114321947098 0.45640596747398376 -0.2799606919288635 0 0 255
0.14804239571094513 0.48794618248939514 -0.24690483510494232 0 0 255
0.1322980672121048 0.4885843098163605 -0.231037437915802 0 0 255
0.1460585743188858 0.4689978063106537 -0.24540045857429504 0 0 255
0.1610889434814453 0.4804196357727051 -0.23572544753551483 0 0 255
0.14396172761917114 0.4917202293872833 -0.21083028614521027 0 0 255
0.14307309687137604 0.5116971135139465 -0.18189512193202972 0 0 255
0.1710139364004135 0.5348553657531738 -0.14094479382038116 0 0 255
0.16250570118427277 0.5005021095275879 -0.12988199293613434 0 0 255
0.1423843801021576 0.5050653219223022 -0.1319194734096527 0 0 255
0.10537918657064438 0.49438026547431946 -0.1667676866054535 0 0 255
0.09981442242860794 0.5095922946929932 -0.14406061172485352 0 0 255
0.12097940593957901 0.503017246723175 -0.11241831630468369 0 0 255
0.13067138195037842 0.5124971270561218 -0.06376708298921585 0 0 255
0.12888267636299133 0.6141965389251709 0.008353070355951786 0 0 255
0.16350869834423065 0.6145144701004028 0.029360055923461914 0 0 255
0.17053712904453278 0.6135451197624207 0.06843240559101105 0 0 255
0.11680128425359726 0.6058595776557922 0.20249243080615997 0 0 255
0.16576731204986572 0.6213532090187073 0.22979362308979034 0 0 255
0.16298015415668488 0.6286801099777222 0.2633940875530243 0 0 255
0.11584431678056717 0.5958804488182068 0.22855247557163239 0 0 255
0.16173183917999268 0.6632304191589355 0.1810312420129776 0 0 255
0.14581242203712463 0.6607373356819153 0.2483358383178711 0 0 255
0.13115645945072174 0.6366316676139832 0.2608991265296936 0 0 255
0.16943824291229248 0.6189277768135071 0.282012403011322 0 0 255
0.1722375899553299 0.635049045085907 0.3478466272354126 0 0 255
0.15958347916603088 0.6304076910018921 0.3639254570007324 0 0 255
0.18622083961963654 0.6522159576416016 0.3553546071052551 0 0 255
0.11218476295471191 0.6061213612556458 0.3478752672672272 0 0 255
0.11873500794172287 0.5423843860626221 0.42234110832214355 0 0 255
0.058873895555734634 0.5528396964073181 0.4425640404224396 0 0 255
0.03271735832095146 0.5324916839599609 0.3584108054637909 0 0 255
0.08244047313928604 0.4870876967906952 0.36860814690589905 0 0 255
0.10821451246738434 0.3373076915740967 0.46835649013519287 0 0 255
0.13501371443271637 0.4193662106990814 0.46825894713401794 0 0 255
0.06192869693040848 0.4905441701412201 0.49087750911712646 0 0 255
0.09031420946121216 0.5875909924507141 0.4326719641685486 0 0 255
0.1797916442155838 0.6639391183853149 0.3092532753944397 0 0 255
0.13302190601825714 0.6562066674232483 0.12824103236198425 0 0 255
0.06484711915254593 0.5917863845825195 -0.11294777691364288 0 0 255
0.043217554688453674 0.5270097851753235 -0.2137146145105362 0 0 255
0.0812227874994278 0.5227736830711365 -0.21831683814525604 0 0 255
0.0680391788482666 0.4033631980419159 -0.0695028305053711 0 0 255
-0.11654624342918396 0.1392768919467926 0.014630082994699478 0 0 255
-0.0710514485836029 -0.012781121768057346 0.09433616697788239 0 0 255
-0.056953370571136475 -0.17909887433052063 0.19763757288455963 0 0 255
-0.10117495059967041 -0.2597426176071167 0.20956727862358093 0 0 255
-0.09701612591743469 -0.2293432354927063 0.23554956912994385 0 0 255
-0.11174912750720978 -0.2718997001647949 0.1958656758069992 0 0 255
-0.10411401838064194 -0.22435516119003296 0.18649736046791077 0 0 255
-0.15154679119586945 -0.24635924398899078 0.15212909877300262 0 0 255
-0.10969076305627823 -0.14828069508075714 0.20339694619178772 0 0 255
-0.09276405721902847 -0.11344046890735626 0.3249068260192871 0 0 255
-0.09755280613899231 -0.06947893649339676 0.32251209020614624 0 0 255
-0.10182952880859375 -0.0972433015704155 0.4099910259246826 0 0 255
0.29478028416633606 0.4381832778453827 0.12599672377109528 255 127 0
0.2865068018436432 0.42896798253059387 0.24152040481567383 255 127 0
0.18022902309894562 0.3385699391365051 0.21881167590618134 255 127 0
0.12672440707683563 0.38515180349349976 0.31204453110694885 255 127 0
0.19116567075252533 0.25603991746902466 0.252756267786026 255 127 0
0.2058742642402649 0.28206831216812134 0.060960836708545685 255 127 0
0.30282828211784363 0.29629895091056824 -0.12777705490589142 255 127 0
0.13305413722991943 0.25782570242881775 -0.13314011693000793 255 127 0
-0.13764433562755585 0.2404247224330902 -0.0714462399482727 255 127 0
-0.014811117202043533 0.23349358141422272 -0.14297842979431152 255 127 0
0.043911658227443695 0.26843756437301636 -0.14387577772140503 255 127 0
0.02091774344444275 0.24111676216125488 -0.1461157500743866 255 127 0
-0.010228971019387245 0.25350314378738403 -0.17296193540096283 255 127 0
-0.02364552579820156 0.23442812263965607 -0.1991472989320755 255 127 0
-0.010292592458426952 0.2735889256000519 -0.17601005733013153 255 127 0
-0.017169293016195297 0.2939634919166565 -0.24472709000110626 255 127 0
-0.006786588579416275 0.33368343114852905 -0.24089954793453217 255 127 0
-0.022448934614658356 0.32593992352485657 -0.22874987125396729 255 127 0
-0.06910905241966248 0.31592270731925964 -0.16407881677150726 255 127 0
-0.05005231127142906 0.3205685317516327 -0.1697879582643509 255 127 0
-0.005511500407010317 0.30762049555778503 -0.11068544536828995 255 127 0
0.01062805112451315 0.33534836769104004 -0.12836094200611115 255 127 0
0.007137269712984562 0.3063940107822418 -0.11491017043590546 255 127 0
0.05438253656029701 0.3679111897945404 -0.10903472453355789 255 127 0
0.04056038707494736 0.42769527435302734 -0.13111653923988342 255 127 0
0.07821720838546753 0.4400360882282257 -0.1453167349100113 255 127 0
0.1158524602651596 0.4667207896709442 -0.1460246741771698 255 127 0
0.15810911357402802 0.4880722463130951 -0.17909707129001617 255 127 0
0.24227198958396912 0.5002903342247009 -0.23078042268753052 255 127 0
0.21984267234802246 0.5019552111625671 -0.22523346543312073 255 127 0
0.16957075893878937 0.478542298078537 -0.20098038017749786 255 127 0
0.16058093309402466 0.4765561521053314 -0.2580370604991913 255 127 0
0.16363206505775452 0.4809204936027527 -0.27878546714782715 255 127 0
0.18472017347812653 0.4949798285961151 -0.23403818905353546 255 127 0
0.1641692966222763 0.5061906576156616 -0.20656131207942963 255 127 0
0.19886837899684906 0.5214729309082031 -0.22568315267562866 255 127 0
0.24824965000152588 0.5453227162361145 -0.23717579245567322 255 127 0
0.2935806214809418 0.5623302459716797 -0.20179320871829987 255 127 0
0.2636098563671112 0.564189612865448 -0.1927945613861084 255 127 0
0.2572273015975952 0.5136444568634033 -0.19657117128372192 255 127 0
0.2830023765563965 0.5058833956718445 -0.22336812317371368 255 127 0
0.2408915013074875 0.5077218413352966 -0.20774401724338531 255 127 0
0.19965848326683044 0.5104330778121948 -0.22631271183490753 255 127 0
0.18562348186969757 0.4828454554080963 -0.24940507113933563 255 127 0
0.13583603501319885 0.49552375078201294 -0.26836270093917847 255 127 0
0.13483653962612152 0.49359092116355896 -0.26286599040031433 255 127 0
0.18383264541625977 0.5109750628471375 -0.18108907341957092 255 127 0
0.2352237105369568 0.536152184009552 -0.19827693700790405 255 127 0
0.2670140862464905 0.53598552942276 -0.15558674931526184 255 127 0
0.29893234372138977 0.510845422744751 -0.17208527028560638 255 127 0
0.33763521909713745 0.45609050989151 -0.19354209303855896 255 127 0
0.3269847333431244 0.35832127928733826 -0.21517711877822876 255 127 0
0.2923523485660553 0.3016405701637268 -0.15610380470752716 255 127 0
0.2981450855731964 0.2245563566684723 -0.16517199575901031 255 127 0
0.26957547664642334 0.17564260959625244 -0.20563629269599915 255 127 0
0.2517980635166168 0.19856144487857819 -0.19144093990325928 255 127 0
0.2587941288948059 0.21035069227218628 -0.2105235606431961 255 127 0
0.2945312559604645 0.23747533559799194 -0.17826956510543823 255 127 0
0.2933116853237152 0.26841098070144653 -0.21731318533420563 255 127 0
0.31003689765930176 0.2387394905090332 -0.18930356204509735 255 127 0
0.30898383259773254 0.24677550792694092 -0.15656860172748566 255 127 0
0.3109503984451294 0.268673837184906 -0.208530992269516 255 127 0
0.3293328285217285 0.3049880266189575 -0.19162653386592865 255 127 0
0.3196384012699127 0.24243654310703278 -0.18603402376174927 255 127 0
0.300079345703125 0.17371267080307007 -0.1780250370502472 255 127 0
0.2966371178627014 0.1323205977678299 -0.15527771413326263 255 127 0
0.2647320330142975 0.09298180043697357 -0.12715119123458862 255 127 0
0.2581544816493988 0.07060002535581589 -0.15048278868198395 255 127 0
0.21389785408973694 0.06949520856142044 -0.11496754735708237 255 127 0
0.20136426389217377 0.05726470425724983 -0.17239883542060852 255 127 0
0.19764061272144318 0.05344777554273605 -0.19176611304283142 255 127 0
0.14626410603523254 0.02728182077407837 -0.22532273828983307 255 127 0
0.12552376091480255 0.027188630774617195 -0.2543274164199829 255 127 0
0.08190632611513138 -0.005181558895856142 -0.24532286822795868 255 127 0
0.09808322042226791 -0.035817187279462814 -0.2933470904827118 255 127 0
0.10096940398216248 -0.030043741688132286 -0.2909865081310272 255 127 0
0.05952564626932144 -0.015499800443649292 -0.2894154489040375 255 127 0
0.05289951339364052 -0.010381538420915604 -0.28887739777565 255 127 0
0.04829287901520729 -0.022807268425822258 -0.26257607340812683 255 127 0
0.08308618515729904 -0.03684161975979805 -0.24712349474430084 255 127 0
0.09251950681209564 -0.059848327189683914 -0.2394385039806366 255 127 0
0.08981189876794815 -0.05077836662530899 -0.2423880696296692 255 127 0
0.1000421866774559 -0.05527786910533905 -0.24047183990478516 255 127 0
0.1077139675617218 -0.047921787947416306 -0.23888033628463745 255 127 0
0.11180189996957779 -0.042373139411211014 -0.24307863414287567 255 127 0
0.09389666467905045 -0.04432406648993492 -0.23159533739089966 255 127 0
0.08089607954025269 -0.06256677210330963 -0.2353925108909607 255 127 0
0.0921158567070961 -0.06372226774692535 -0.2464236319065094 255 127 0
0.06351172924041748 -0.07237490266561508 -0.20901474356651306 255 127 0
0.08502472937107086 -0.07816328853368759 -0.236574187874794 255 127 0
0.11454920470714569 -0.067062146961689 -0.20857790112495422 255 127 0
0.11815089732408524 -0.07758975028991699 -0.17700926959514618 255 127 0
0.12035812437534332 -0.08964019268751144 -0.17946037650108337 255 127 0
0.12017887085676193 -0.08744890987873077 -0.16187074780464172 255 127 0
0.10649213194847107 -0.09103851765394211 -0.1710212677717209 255 127 0
0.12121924012899399 -0.09856286644935608 -0.16898953914642334 255 127 0
0.14924846589565277 -0.07807512581348419 -0.1561640501022339 255 127 0
0.1773141622543335 -0.07756205648183823 -0.13200262188911438 255 127 0
0.18259385228157043 -0.0756048858165741 -0.14831724762916565 255 127 0
0.1752217710018158 -0.0530705489218235 -0.14844338595867157 255 127 0
0.1641741245985031 -0.05754242092370987 -0.13099569082260132 255 127 0
0.16134998202323914 -0.06567835807800293 -0.15507808327674866 255 127 0
0.12383999675512314 -0.10608097910881042 -0.1299741268157959 255 127 0
0.09001994878053665 -0.1442018449306488 -0.15869617462158203 255 127 0
0.05851486697793007 -0.14954744279384613 -0.1521526277065277 255 127 0
0.05950648710131645 -0.13423559069633484 -0.13476383686065674 255 127 0
0.09581407904624939 -0.11419571936130524 -0.12292657792568207 255 127 0
0.13746200501918793 -0.11257043480873108 -0.15395109355449677 255 127 0
0.13550589978694916 -0.10319399833679199 -0.14391538500785828 255 127 0
0.12825509905815125 -0.09848427772521973 -0.17666961252689362 255 127 0
0.11827390640974045 -0.08370739221572876 -0.17669473588466644 255 127 0
0.11478899419307709 -0.06857768446207047 -0.1800982803106308 255 127 0
0.1389651894569397 -0.05514690279960632 -0.16100364923477173 255 127 0
0.17385096848011017 -0.04055244103074074 -0.18061494827270508 255 127 0
0.16527216136455536 -0.05637776106595993 -0.17410598695278168 255 127 0
0.15565668046474457 -0.06108520179986954 -0.2093023657798767 255 127 0
0.139492928981781 -0.03756625950336456 -0.21596673130989075 255 127 0
0.08573989570140839 -0.03161897510290146 -0.2222321480512619 255 127 0
0.09346745163202286 0.008074440993368626 -0.2547321617603302 255 127 0
0.1296655535697937 -0.014414443634450436 -0.2118414342403412 255 127 0
0.15470333397388458 -0.0214425977319479 -0.20699991285800934 255 127 0
0.14632828533649445 -0.02301531657576561 -0.22404679656028748 255 127 0
0.14550845324993134 -0.04923119395971298 -0.1698032021522522 255 127 0
0.16560013592243195 -0.05515557900071144 -0.18489442765712738 255 127 0
0.16497282683849335 -0.0634872242808342 -0.16286693513393402 255 127 0
0.1547778695821762 -0.07131337374448776 -0.18963055312633514 255 127 0
0.12297257035970688 -0.07289016991853714 -0.20395998656749725 255 127 0
0.09562564641237259 -0.07568903267383575 -0.18861912190914154 255 127 0
0.09352696686983109 -0.08540743589401245 -0.20278199017047882 255 127 0
0.126559317111969 -0.08427070081233978 -0.20306624472141266 255 127 0
0.09520813077688217 -0.12662051618099213 -0.15979312360286713 255 127 0
0.010959514416754246 -0.2009689062833786 -0.19692598283290863 255 127 0
-0.09572961181402206 -0.2505893409252167 -0.15338292717933655 255 127 0
-0.15503409504890442 -0.31740137934684753 -0.14839427173137665 255 127 0
-0.11924980580806732 -0.33819594979286194 -0.09692832827568054 255 127 0
-0.10794703662395477 -0.3374214172363281 -0.08316350728273392 255 127 0
-0.08662565797567368 -0.33270955085754395 -0.09553109854459763 255 127 0
-0.12506188452243805 -0.3514126241207123 -0.0956861823797226 255 127 0
-0.18490487337112427 -0.36118870973587036 -0.10188832879066467 255 127 0
-0.21007861196994781 -0.3868734538555145 -0.07291003316640854 255 127 0
-0.1902313083410263 -0.44330286979675293 -0.038662295788526535 255 127 0
-0.28348052501678467 -0.4984687566757202 0.002917361678555608 255 127 0
-0.37287527322769165 -0.47013410925865173 -0.011583922430872917 255 127 0
-0.3776474595069885 -0.492069274187088 -0.007971657440066338 255 127 0
-0.389739453792572 -0.521008312702179 0.03928857296705246 255 127 0
-0.338213711977005 -0.5283370614051819 0.039708856493234634 255 127 0
-0.3193952739238739 -0.5298296809196472 0.01943420246243477 255 127 0
-0.31688207387924194 -0.5082607865333557 -0.01976136304438114 255 127 0
-0.3288600444793701 -0.5003190040588379 -0.009080134332180023 255 127 0
-0.31348496675491333 -0.49046164751052856 -0.020991913974285126 255 127 0
-0.3264235556125641 -0.48861655592918396 -0.0190871749073267 255 127 0
-0.2789779305458069 -0.4762226939201355 -0.02656516619026661 255 127 0
-0.2594819664955139 -0.46592625975608826 -0.051288455724716187 255 127 0
-0.26536688208580017 -0.4357118606567383 -0.05616842582821846 255 127 0
-0.2863834798336029 -0.44531720876693726 -0.05898464843630791 255 127 0
-0.2774665653705597 -0.4489970803260803 -0.07393436133861542 255 127 0
-0.2905896306037903 -0.44521796703338623 -0.06843829900026321 255 127 0
-0.27627167105674744 -0.43916618824005127 -0.09649121016263962 255 127 0
-0.2719179689884186 -0.42457443475723267 -0.05874719098210335 255 127 0
-0.2728143036365509 -0.4355851709842682 -0.10040735453367233 255 127 0
-0.3037745952606201 -0.4217369258403778 -0.13182565569877625 255 127 0
-0.22574369609355927 -0.44839033484458923 -0.08506452292203903 255 127 0
-0.2448042929172516 -0.4676823318004608 -0.06727852672338486 255 127 0
-0.23459117114543915 -0.4194033145904541 -0.11991310864686966 255 127 0
-0.23583437502384186 -0.38955003023147583 -0.13235418498516083 255 127 0
-0.1757696121931076 -0.3841394782066345 -0.14994600415229797 255 127 0
-0.15780746936798096 -0.3825933337211609 -0.12307461351156235 255 127 0
-0.16478610038757324 -0.36383146047592163 -0.08824674785137177 255 127 0
-0.1299329698085785 -0.34922173619270325 -0.1254580318927765 255 127 0
-0.11689334362745285 -0.34291884303092957 -0.12343110144138336 255 127 0
-0.11184430867433548 -0.3283890187740326 -0.1231423169374466 255 127 0
-0.09616609662771225 -0.3282969295978546 -0.1133686825633049 255 127 0
-0.10152821242809296 -0.3103635013103485 -0.14503158628940582 255 127 0
-0.09589311480522156 -0.2910328209400177 -0.15459415316581726 255 127 0
-0.09010791778564453 -0.26927661895751953 -0.15508072078227997 255 127 0
-0.05597173050045967 -0.2345566600561142 -0.16904176771640778 255 127 0
-0.005330248270183802 -0.20231880247592926 -0.17523939907550812 255 127 0
0.019317928701639175 -0.1954643279314041 -0.15061162412166595 255 127 0
0.015003352425992489 -0.20014692842960358 -0.13960890471935272 255 127 0
0.011866163462400436 -0.21408163011074066 -0.13025924563407898 255 127 0
0.017069419845938683 -0.21202866733074188 -0.13452351093292236 255 127 0
0.03182390332221985 -0.19764330983161926 -0.13518010079860687 255 127 0
0.05655466765165329 -0.18786396086215973 -0.12691985070705414 255 127 0
0.08030777424573898 -0.16478677093982697 -0.13461516797542572 255 127 0
0.0862216055393219 -0.1380055546760559 -0.13317011296749115 255 127 0
0.08471843600273132 -0.15678291022777557 -0.0998467430472374 255 127 0
0.10406423360109329 -0.19190339744091034 -0.11558521538972855 255 127 0
0.0638704001903534 -0.1925567388534546 -0.09531272202730179 255 127 0
0.030770355835556984 -0.21058380603790283 -0.10807128250598907 255 127 0
0.02634766697883606 -0.22303245961666107 -0.09060308337211609 255 127 0
0.039033401757478714 -0.22429119050502777 -0.075083427131176 255 127 0
0.0611964575946331 -0.23235198855400085 -0.06986792385578156 255 127 0
0.0811462476849556 -0.22869285941123962 -0.07158883661031723 255 127 0
0.07464949041604996 -0.21662738919258118 -0.06402543932199478 255 127 0
0.0641297847032547 -0.2089870721101761 -0.08104652166366577 255 127 0
0.0752524584531784 -0.21200770139694214 -0.07314980030059814 255 127 0
0.05486238747835159 -0.22188524901866913 -0.048098430037498474 255 127 0
0.0388130284845829 -0.24396759271621704 -0.05826624855399132 255 127 0
0.03736848384141922 -0.2605127990245819 -0.03701391443610191 255 127 0
0.03291792422533035 -0.26685047149658203 -0.03344782814383507 255 127 0
0.04310737922787666 -0.25459784269332886 -0.03632362559437752 255 127 0
0.04836837202310562 -0.23944611847400665 -0.05117826163768768 255 127 0
0.07681861519813538 -0.22287388145923615 -0.06559613347053528 255 127 0
0.06559772044420242 -0.216946080327034 -0.08358494192361832 255 127 0
0.10225804150104523 -0.14632776379585266 -0.1231544092297554 255 127 0
0.10400690138339996 0.05933362618088722 -0.17459261417388916 255 127 0
0.2228405624628067 0.1709805577993393 -0.236642524600029 255 127 0
0.2791540324687958 0.05800188332796097 -0.1117321103811264 255 127 0
0.2263583540916443 0.004667211789637804 -0.15504589676856995 255 127 0
0.19589222967624664 -0.031444575637578964 -0.15870435535907745 255 127 0
0.17679253220558167 -0.07039312273263931 -0.13907556235790253 255 127 0
0.14961756765842438 -0.10252324491739273 -0.13887923955917358 255 127 0
0.12453169375658035 -0.12110061198472977 -0.15503621101379395 255 127 0
0.11795268952846527 -0.11403956264257431 -0.14867441356182098 255 127 0
0.12526623904705048 -0.10100840777158737 -0.15261782705783844 255 127 0
0.1383221447467804 -0.10640336573123932 -0.18374109268188477 255 127 0
0.14043065905570984 -0.07933446764945984 -0.19874177873134613 255 127 0
0.12418179959058762 -0.04324277490377426 -0.22103704512119293 255 127 0
0.13550910353660583 0.013258455321192741 -0.28168389201164246 255 127 0
0.1456182301044464 0.0817377045750618 -0.29470089077949524 255 127 0
0.1716623306274414 0.16817757487297058 -0.3475513756275177 255 127 0
0.1646426022052765 0.22800640761852264 -0.3163863718509674 255 127 0
0.19857925176620483 0.25198230147361755 -0.37608882784843445 255 127 0
0.25759270787239075 0.23995336890220642 -0.32964497804641724 255 127 0
0.261436402797699 0.2461988478899002 -0.3250521719455719 255 127 0
0.283075749874115 0.2648692727088928 -0.3323030471801758 255 127 0
0.2907786965370178 0.3020704686641693 -0.34309571981430054 255 127 0
0.2690916955471039 0.3356841206550598 -0.33104076981544495 255 127 0
0.2506435811519623 0.35251280665397644 -0.31353485584259033 255 127 0
0.2640373706817627 0.3764142096042633 -0.2902200520038605 255 127 0
0.2863389253616333 0.3986144959926605 -0.27474236488342285 255 127 0
0.3106115460395813 0.42000409960746765 -0.2835014760494232 255 127 0
0.31861114501953125 0.4336443841457367 -0.27107325196266174 255 127 0
0.32217487692832947 0.44572898745536804 -0.2689860463142395 255 127 0
0.32569989562034607 0.4405655860900879 -0.2519237995147705 255 127 0
0.3324529230594635 0.4317445158958435 -0.2502424120903015 255 127 0
0.33833184838294983 0.43201789259910583 -0.2631222903728485 255 127 0
0.3421487808227539 0.4426465928554535 -0.2615869343280792 255 127 0
0.35527652502059937 0.4570465683937073 -0.2613503336906433 255 127 0
0.35033783316612244 0.46415743231773376 -0.2642555832862854 255 127 0
0.320293664932251 0.471466988325119 -0.24769911170005798 255 127 0
0.3113057315349579 0.4880584478378296 -0.24482128024101257 255 127 0
0.30358588695526123 0.4971977174282074 -0.22896097600460052 255 127 0
0.3018513023853302 0.49864891171455383 -0.22651340067386627 255 127 0
0.3181537985801697 0.5047216415405273 -0.22090931236743927 255 127 0
0.32132184505462646 0.49706900119781494 -0.21559150516986847 255 127 0
0.3233986496925354 0.4829598367214203 -0.21625514328479767 255 127 0
0.3413674235343933 0.4847666919231415 -0.22273868322372437 255 127 0
0.3416866660118103 0.4741317629814148 -0.23531095683574677 255 127 0
0.3285197913646698 0.47689077258110046 -0.23888199031352997 255 127 0
0.328612357378006 0.4779500961303711 -0.2455311119556427 255 127 0
0.3350132405757904 0.4669343829154968 -0.24872557818889618 255 127 0
0.33145731687545776 0.4553568959236145 -0.2726740539073944 255 127 0
0.3663325607776642 0.44124576449394226 -0.2870819866657257 255 127 0
0.3539979159832001 0.3729795515537262 -0.24724484980106354 255 127 0
0.3146369755268097 0.2939959168434143 -0.26263824105262756 255 127 0
0.33195337653160095 0.32766300439834595 -0.2568017244338989 255 127 0
0.3514818847179413 0.3434014618396759 -0.28320109844207764 255 127 0
0.3454076647758484 0.3778449594974518 -0.2962508201599121 255 127 0
0.3477698564529419 0.38676053285598755 -0.2675430178642273 255 127 0
0.35471734404563904 0.37512776255607605 -0.24491962790489197 255 127 0
0.3917912542819977 0.3465636372566223 -0.2560897469520569 255 127 0
0.3769250810146332 0.3392428159713745 -0.2598138451576233 255 127 0
0.37028980255126953 0.3114638328552246 -0.26140815019607544 255 127 0
0.38622337579727173 0.27687183022499084 -0.22702129185199738 255 127 0
0.3754867911338806 0.2191256284713745 -0.2099834680557251 255 127 0
0.35080909729003906 0.17814001441001892 -0.25270310044288635 255 127 0
0.3566221594810486 0.17208154499530792 -0.2383243590593338 255 127 0
0.3349660634994507 0.1629454344511032 -0.23191705346107483 255 127 0
0.32107892632484436 0.18665623664855957 -0.23768350481987 255 127 0
0.3166147470474243 0.18240125477313995 -0.22224608063697815 255 127 0
0.3130808174610138 0.17282994091510773 -0.24297218024730682 255 127 0
0.33718764781951904 0.14878110587596893 -0.23811736702919006 255 127 0
0.320696622133255 0.13381128013134003 -0.24157240986824036 255 127 0
0.3105155825614929 0.12635870277881622 -0.21969036757946014 255 127 0
0.312485933303833 0.10696384310722351 -0.22583459317684174 255 127 0
0.2952076494693756 0.11070788651704788 -0.22849076986312866 255 127 0
0.29882222414016724 0.1187603771686554 -0.22282767295837402 255 127 0
0.31616824865341187 0.11428968608379364 -0.22251419723033905 255 127 0
0.2860904932022095 0.0928940623998642 -0.2024393379688263 255 127 0
0.25147464871406555 0.02283552661538124 -0.19956672191619873 255 127 0
0.23704974353313446 -0.04595593735575676 -0.14940206706523895 255 127 0
0.19926941394805908 -0.10629627853631973 -0.10373388230800629 255 127 0
0.18962395191192627 -0.13636331260204315 -0.10647137463092804 255 127 0
0.15378683805465698 -0.16504979133605957 -0.08314955979585648 255 127 0
0.13793276250362396 -0.18019729852676392 -0.0920841172337532 255 127 0
0.11721429973840714 -0.2096434235572815 -0.07222836464643478 255 127 0
0.09855672717094421 -0.2092757374048233 -0.07684499025344849 255 127 0
0.07730841636657715 -0.21938635408878326 -0.03504538536071777 255 127 0
0.05492310971021652 -0.24784240126609802 -0.0038688366767019033 255 127 0
0.045248206704854965 -0.2647987902164459 0.02841738611459732 255 127 0
0.037902675569057465 -0.2903186082839966 0.06494010984897614 255 127 0
0.05006042495369911 -0.2824675440788269 0.06462766975164413 255 127 0
0.06045852601528168 -0.26541998982429504 0.08165808022022247 255 127 0
0.05783788859844208 -0.26124587655067444 0.11155537515878677 255 127 0
0.06428506225347519 -0.2682974338531494 0.10960271209478378 255 127 0
0.057794563472270966 -0.2796204686164856 0.11458896100521088 255 127 0
0.06480161845684052 -0.2786027491092682 0.10325799882411957 255 127 0
0.06832248717546463 -0.28795263171195984 0.1129232794046402 255 127 0
0.042118847370147705 -0.2936664819717407 0.1291559785604477 255 127 0
0.02621019445359707 -0.2999027967453003 0.11971487104892731 255 127 0
0.00968034379184246 -0.31489983201026917 0.12896576523780823 255 127 0
-0.005042674485594034 -0.3208337724208832 0.1258920580148697 255 127 0
-0.017673522233963013 -0.3301123380661011 0.13006547093391418 255 127 0
-0.03452298790216446 -0.3411703407764435 0.14627540111541748 255 127 0
-0.0428767129778862 -0.35149437189102173 0.14511707425117493 255 127 0
-0.04284170642495155 -0.35650792717933655 0.13104380667209625 255 127 0
-0.05537708103656769 -0.367398738861084 0.13253578543663025 255 127 0
-0.0506131686270237 -0.3597777783870697 0.11627659201622009 255 127 0
-0.058445557951927185 -0.3640231490135193 0.13641421496868134 255 127 0
-0.060904618352651596 -0.37091419100761414 0.1331620067358017 255 127 0
-0.07014752179384232 -0.375139445066452 0.12994830310344696 255 127 0
-0.07297033816576004 -0.3814407289028168 0.12994320690631866 255 127 0
-0.07101165503263474 -0.3815256655216217 0.1337011307477951 255 127 0
-0.0602337084710598 -0.37197980284690857 0.12877611815929413 255 127 0
-0.05659840628504753 -0.3716554343700409 0.13535045087337494 255 127 0
-0.060594215989112854 -0.3681667745113373 0.1224345713853836 255 127 0
-0.05824709311127663 -0.3611387014389038 0.11842488497495651 255 127 0
-0.05539621785283089 -0.3560594916343689 0.11216069757938385 255 127 0
-0.05063094198703766 -0.3617170453071594 0.11176212877035141 255 127 0
-0.056434325873851776 -0.3650228679180145 0.11291144043207169 255 127 0
-0.0491604283452034 -0.3570602834224701 0.10220161080360413 255 127 0
-0.03410780802369118 -0.3517671823501587 0.0950966328382492 255 127 0
-0.034799039363861084 -0.3451122045516968 0.09032335877418518 255 127 0
-0.027342848479747772 -0.3406867980957031 0.08961442857980728 255 127 0
-0.024106619879603386 -0.3478577435016632 0.09456310421228409 255 127 0
-0.027581777423620224 -0.33913710713386536 0.0991242304444313 255 127 0
-0.04246559366583824 -0.3450097143650055 0.10421305149793625 255 127 0
-0.07022710144519806 -0.36248669028282166 0.1160016655921936 255 127 0
-0.0705711767077446 -0.37119048833847046 0.1087072417140007 255 127 0
-0.0885036513209343 -0.3871324062347412 0.12942296266555786 255 127 0
-0.08900564908981323 -0.3906363248825073 0.13000740110874176 255 127 0
-0.1132727712392807 -0.40526026487350464 0.1503991037607193 255 127 0
-0.14638765156269073 -0.4157394766807556 0.1573306769132614 255 127 0
-0.1727820187807083 -0.42582252621650696 0.17534512281417847 255 127 0
-0.18845409154891968 -0.43992170691490173 0.18751342594623566 255 127 0
-0.21192455291748047 -0.4458170235157013 0.19572632014751434 255 127 0
-0.22328945994377136 -0.45054277777671814 0.1955849975347519 255 127 0
-0.23254814743995667 -0.4520365595817566 0.1951250433921814 255 127 0
-0.23191529512405396 -0.45498406887054443 0.1936129331588745 255 127 0
-0.2362077385187149 -0.45996516942977905 0.21289587020874023 255 127 0
-0.25406622886657715 -0.457574725151062 0.22638718783855438 255 127 0
-0.25931552052497864 -0.455805242061615 0.21519815921783447 255 127 0
-0.23303450644016266 -0.4599117040634155 0.21874670684337616 255 127 0
-0.2257072776556015 -0.45823436975479126 0.22493046522140503 255 127 0
-0.24006052315235138 -0.45612382888793945 0.2267610728740692 255 127 0
-0.24484869837760925 -0.4512450695037842 0.2212393879890442 255 127 0
-0.24101583659648895 -0.45259541273117065 0.22552737593650818 255 127 0
-0.23264190554618835 -0.45869192481040955 0.23024187982082367 255 127 0
-0.24294868111610413 -0.46087294816970825 0.2366700917482376 255 127 0
-0.2474716454744339 -0.45096540451049805 0.2270745038986206 255 127 0
-0.25442466139793396 -0.4552824795246124 0.24377214908599854 255 127 0
-0.2500722408294678 -0.46003350615501404 0.23289740085601807 255 127 0
-0.26011478900909424 -0.4631005823612213 0.23348931968212128 255 127 0
-0.2662985920906067 -0.45323488116264343 0.23345454037189484 255 127 0
-0.28055480122566223 -0.451982319355011 0.24312220513820648 255 127 0
-0.28448009490966797 -0.45148879289627075 0.23972347378730774 255 127 0
-0.27696940302848816 -0.45606622099876404 0.23704732954502106 255 127 0
-0.27777010202407837 -0.4595825970172882 0.24023008346557617 255 127 0
-0.29007503390312195 -0.4616623818874359 0.23638880252838135 255 127 0
-0.3059101402759552 -0.46197906136512756 0.22957582771778107 255 127 0
-0.2964068353176117 -0.463257759809494 0.23459424078464508 255 127 0
-0.30670520663261414 -0.4532969295978546 0.2481817752122879 255 127 0
-0.30834871530532837 -0.4453740417957306 0.23682457208633423 255 127 0
-0.3151629567146301 -0.4538206458091736 0.23942703008651733 255 127 0
-0.3194553256034851 -0.45277920365333557 0.2325400561094284 255 127 0
-0.30976375937461853 -0.4609396755695343 0.22726568579673767 255 127 0
-0.3082681894302368 -0.4686480760574341 0.22891485691070557 255 127 0
-0.29535630345344543 -0.47188442945480347 0.21905682981014252 255 127 0
-0.30244916677474976 -0.4711429178714752 0.23251383006572723 255 127 0
-0.3032200336456299 -0.4662831425666809 0.2197665423154831 255 127 0
-0.2862030267715454 -0.47469112277030945 0.21628421545028687 255 127 0
-0.267779678106308 -0.47804033756256104 0.2100878357887268 255 127 0
-0.2609294056892395 -0.4729384779930115 0.20870181918144226 255 127 0
-0.2590106725692749 -0.4674821197986603 0.205193430185318 255 127 0
-0.26816579699516296 -0.46697625517845154 0.19790977239608765 255 127 0
-0.2642207443714142 -0.4723791480064392 0.18658706545829773 255 127 0
-0.2584555745124817 -0.47256243228912354 0.1763259917497635 255 127 0
-0.2500092387199402 -0.4700183868408203 0.16086465120315552 255 127 0
-0.215711310505867 -0.4650283753871918 0.16256195306777954 255 127 0
-0.19811882078647614 -0.4668155014514923 0.16628268361091614 255 127 0
-0.174521341919899 -0.4544617533683777 0.15547491610050201 255 127 0
-0.15340685844421387 -0.4410948157310486 0.1619463860988617 255 127 0
-0.11765992641448975 -0.43267157673835754 0.14826558530330658 255 127 0
-0.10519213229417801 -0.42706361413002014 0.1621178239583969 255 127 0
-0.11437498033046722 -0.41932412981987 0.1745467483997345 255 127 0
-0.1046188697218895 -0.4158061146736145 0.1868400275707245 255 127 0
-0.11991745233535767 -0.422194242477417 0.20383375883102417 255 127 0
-0.11514640599489212 -0.4184291958808899 0.18027633428573608 255 127 0
-0.1237868145108223 -0.4182418882846832 0.1974179446697235 255 127 0
-0.12408393621444702 -0.40445780754089355 0.18993596732616425 255 127 0
-0.13619224727153778 -0.4145524501800537 0.21401618421077728 255 127 0
-0.14831498265266418 -0.40806928277015686 0.2224990427494049 255 127 0
-0.1461617797613144 -0.4063947796821594 0.21114911139011383 255 127 0
-0.1264951527118683 -0.4023480713367462 0.19706234335899353 255 127 0
-0.1180930882692337 -0.3927686810493469 0.1792280077934265 255 127 0
-0.10228762775659561 -0.3825562596321106 0.14843855798244476 255 127 0
-0.1141662448644638 -0.38889333605766296 0.16377559304237366 255 127 0
-0.0993027314543724 -0.38449475169181824 0.14789579808712006 255 127 0
-0.12241347879171371 -0.40284037590026855 0.18205469846725464 255 127 0
-0.103517085313797 -0.38061147928237915 0.17047999799251556 255 127 0
-0.09077320992946625 -0.39127597212791443 0.17264217138290405 255 127 0
-0.08853137493133545 -0.38047894835472107 0.17586401104927063 255 127 0
-0.07176487892866135 -0.3761489987373352 0.16734139621257782 255 127 0
-0.09198179095983505 -0.381242573261261 0.185764878988266 255 127 0
-0.13486437499523163 -0.39513203501701355 0.19060677289962769 255 127 0
-0.14983072876930237 -0.37937599420547485 0.20691917836666107 255 127 0
-0.18708185851573944 -0.41711246967315674 0.22633738815784454 255 127 0
-0.1822582185268402 -0.37605157494544983 0.21060894429683685 255 127 0
-0.26154735684394836 -0.4131148159503937 0.24763022363185883 255 127 0
-0.24480943381786346 -0.4006357491016388 0.24176429212093353 255 127 0
-0.22295860946178436 -0.42148157954216003 0.26019275188446045 255 127 0
-0.226863294839859 -0.419412225484848 0.25356346368789673 255 127 0
-0.22242200374603271 -0.4067578613758087 0.23816896975040436 255 127 0
-0.17371945083141327 -0.413728266954422 0.21669213473796844 255 127 0
-0.19163429737091064 -0.42094483971595764 0.2428196519613266 255 127 0
-0.19330814480781555 -0.401082843542099 0.19608022272586823 255 127 0
-0.1500873565673828 -0.40018194913864136 0.2081194818019867 255 127 0
-0.11564400047063828 -0.3957291841506958 0.1611018031835556 255 127 0
-0.08493806421756744 -0.3747594654560089 0.12934988737106323 255 127 0
-0.058886006474494934 -0.36904746294021606 0.14521180093288422 255 127 0
-0.06042800471186638 -0.36253994703292847 0.14949195086956024 255 127 0
-0.04170893132686615 -0.35282278060913086 0.11580304801464081 255 127 0
-0.035589005798101425 -0.3543863594532013 0.12207144498825073 255 127 0
-0.013478053733706474 -0.34074872732162476 0.10654580593109131 255 127 0
-0.03225037455558777 -0.3521629869937897 0.09244975447654724 255 127 0
-0.04236297681927681 -0.3608870506286621 0.0817895159125328 255 127 0
-0.05187571048736572 -0.370047003030777 0.09781000018119812 255 127 0
-0.02545326016843319 -0.34311947226524353 0.11659327149391174 255 127 0
0.00840368214994669 -0.32957449555397034 0.04423496499657631 255 127 0
0.013165700249373913 -0.3473696708679199 0.08199786394834518 255 127 0
-0.012169722467660904 -0.3470700681209564 0.0525348074734211 255 127 0
-0.00893514696508646 -0.3467361629009247 0.04861094802618027 255 127 0
-0.001377653330564499 -0.37059444189071655 0.054185837507247925 255 127 0
0.008949886076152325 -0.3532414734363556 0.06590043753385544 255 127 0
-0.024724002927541733 -0.3676951229572296 0.0371900238096714 255 127 0
-0.02326207607984543 -0.35708388686180115 -0.0005504155997186899 255 127 0
-0.0250127874314785 -0.3494653105735779 0.010405754670500755 255 127 0
0.003975201398134232 -0.3497058153152466 0.032102491706609726 255 127 0
-0.016864502802491188 -0.3367159068584442 -0.029256215319037437 255 127 0
-0.013334271498024464 -0.32465660572052 -0.03289884701371193 255 127 0
-0.02286474220454693 -0.36419516801834106 -0.00739046186208725 255 127 0
-0.0031903069466352463 -0.3250660002231598 -0.014291924424469471 255 127 0
0.023069988936185837 -0.27974972128868103 -0.0451689176261425 255 127 0
0.059070587158203125 -0.2685558795928955 -0.03251107782125473 255 127 0
0.07108186185359955 -0.24731230735778809 -0.031252067536115646 255 127 0
0.05918295681476593 -0.2518790662288666 -0.058425575494766235 255 127 0
0.019912732765078545 -0.23858396708965302 -0.056595224887132645 255 127 0
0.045522838830947876 -0.2673998475074768 -0.04809608682990074 255 127 0
0.058376748114824295 -0.2681736648082733 -0.06323402374982834 255 127 0
0.05324750393629074 -0.24427005648612976 -0.06891068071126938 255 127 0
0.08122414350509644 -0.24965502321720123 -0.048333633691072464 255 127 0
0.04115719348192215 -0.25926339626312256 -0.08505094051361084 255 127 0
0.07204575091600418 -0.275156170129776 -0.05090389400720596 255 127 0
0.04577532038092613 -0.2770616412162781 -0.05804189667105675 255 127 0
0.029472317546606064 -0.2848382592201233 -0.05753418430685997 255 127 0
0.04444297030568123 -0.2619672119617462 -0.0866200402379036 255 127 0
0.06472518295049667 -0.2366226613521576 -0.07438677549362183 255 127 0
0.0356120839715004 -0.2582395076751709 -0.09833463281393051 255 127 0
0.01576068624854088 -0.24392662942409515 -0.07207510620355606 255 127 0
0.027433058246970177 -0.2517833113670349 -0.03404371440410614 255 127 0
0.06306516379117966 -0.2535634934902191 -0.05678391084074974 255 127 0
0.12190864235162735 -0.2147698998451233 -0.046500541269779205 255 127 0
0.10058513283729553 -0.2186802178621292 -0.03226398304104805 255 127 0
0.10862123966217041 -0.18614047765731812 -0.0704243928194046 255 127 0
0.10892245173454285 -0.17998559772968292 -0.038484763354063034 255 127 0
0.0715874433517456 -0.1994500309228897 -0.04532812535762787 255 127 0
0.1166686937212944 -0.19348552823066711 -0.0690126046538353 255 127 0
0.12151063233613968 -0.17385321855545044 -0.043409738689661026 255 127 0
0.16012942790985107 -0.16308346390724182 -0.04906478896737099 255 127 0
0.20144417881965637 -0.15098287165164948 -0.027563847601413727 255 127 0
0.17578908801078796 -0.14522318542003632 -0.06516627967357635 255 127 0
0.15019020438194275 -0.14586205780506134 -0.06900352239608765 255 127 0
0.14523358643054962 -0.15244287252426147 -0.0721968561410904 255 127 0
0.1131964847445488 -0.17801715433597565 -0.07002013921737671 255 127 0
0.11785855144262314 -0.19131317734718323 -0.05969587340950966 255 127 0
0.12562964856624603 -0.19464585185050964 -0.04372482746839523 255 127 0
0.10824919492006302 -0.176111102104187 -0.06738808751106262 255 127 0
0.12644420564174652 -0.16161732375621796 -0.09566390514373779 255 127 0
0.12045090645551682 -0.17499907314777374 -0.05338829755783081 255 127 0
0.1547350287437439 -0.1736692488193512 -0.06452764570713043 255 127 0
0.14813773334026337 -0.16642366349697113 -0.03751019760966301 255 127 0
0.1670464128255844 -0.1493060141801834 -0.07184848934412003 255 127 0
0.1902763545513153 -0.12283630669116974 -0.07333769649267197 255 127 0
0.184250608086586 -0.12543714046478271 -0.09361646324396133 255 127 0
0.10957221686840057 -0.0758843794465065 -0.1371149718761444 255 127 0
0.2408381551504135 -0.009188097901642323 -0.1111309826374054 255 127 0
0.06813759356737137 -0.21106155216693878 -0.07841704785823822 255 127 0
-0.10463365912437439 -0.11670560389757156 0.023862119764089584 255 127 0
-0.2134588360786438 -0.36313194036483765 0.35001155734062195 255 127 0
-0.36490315198898315 -0.43314269185066223 0.2235316038131714 255 127 0
-0.11887702345848083 -0.3374286890029907 0.1841910034418106 255 127 0
-0.09742791205644608 -0.40212273597717285 0.2681613266468048 255 127 0
-0.15484820306301117 -0.429368257522583 0.2994217574596405 255 127 0
-0.1538342386484146 -0.42469608783721924 0.2758883535861969 255 127 0
-0.15856489539146423 -0.4221668243408203 0.26467055082321167 255 127 0
-0.15338370203971863 -0.42308706045150757 0.27196168899536133 255 127 0
-0.15746839344501495 -0.4376852214336395 0.26318827271461487 255 127 0
-0.1493666172027588 -0.43532297015190125 0.2608678340911865 255 127 0
-0.14760079979896545 -0.4382209777832031 0.2816416323184967 255 127 0
-0.16663925349712372 -0.4676661491394043 0.2662322223186493 255 127 0
-0.16449648141860962 -0.44643694162368774 0.2825646996498108 255 127 0
-0.21082623302936554 -0.4501603841781616 0.2926245629787445 255 127 0
-0.2554306983947754 -0.44140735268592834 0.25964343547821045 255 127 0
-0.26695647835731506 -0.4491824507713318 0.24284186959266663 255 127 0
-0.26910534501075745 -0.4707433581352234 0.22114895284175873 255 127 0
-0.3078024089336395 -0.48372986912727356 0.20659253001213074 255 127 0
-0.3696368336677551 -0.4543699324131012 0.1769903600215912 255 127 0
-0.38220924139022827 -0.437714159488678 0.19318777322769165 255 127 0
-0.39415043592453003 -0.45449531078338623 0.16057834029197693 255 127 0
-0.3719079792499542 -0.47468289732933044 0.16195446252822876 255 127 0
-0.388845831155777 -0.5391591787338257 0.19751717150211334 255 127 0
-0.38756704330444336 -0.5448711514472961 0.17446590960025787 255 127 0
-0.43196406960487366 -0.5226502418518066 0.1493840366601944 255 127 0
-0.41969236731529236 -0.511742115020752 0.15093086659908295 255 127 0
-0.3677093982696533 -0.5441256761550903 0.17965200543403625 255 127 0
-0.38133347034454346 -0.5631300806999207 0.16510969400405884 255 127 0
-0.3704986572265625 -0.5034950375556946 0.16152676939964294 255 127 0
-0.39437946677207947 -0.5169534683227539 0.18344402313232422 255 127 0
-0.36081662774086 -0.5157053470611572 0.17984353005886078 255 127 0
-0.39709535241127014 -0.5337202548980713 0.15925489366054535 255 127 0
-0.3687635362148285 -0.5127444267272949 0.16252273321151733 255 127 0
-0.3903094530105591 -0.5386415719985962 0.17179957032203674 255 127 0
-0.36222898960113525 -0.49912741780281067 0.15645219385623932 255 127 0
-0.364967942237854 -0.5327666997909546 0.19641602039337158 255 127 0
-0.4159194529056549 -0.5451574325561523 0.16482673585414886 255 127 0
-0.41225236654281616 -0.5521165728569031 0.19600698351860046 255 127 0
-0.4022836685180664 -0.5445870757102966 0.18886131048202515 255 127 0
-0.44139495491981506 -0.5253804326057434 0.17838464677333832 255 127 0
-0.4246844947338104 -0.5361195802688599 0.16610631346702576 255 127 0
-0.40679317712783813 -0.5503622889518738 0.16989581286907196 255 127 0
-0.4030604064464569 -0.5385366678237915 0.181967094540596 255 127 0
-0.37835395336151123 -0.5433638691902161 0.18592528998851776 255 127 0
