ply
format ascii 1.0
element vertex 685
property float x
property float y
property float z
property uchar red
property uchar green
property uchar blue
end_header
0.18380789458751678 0.8112348914146423 -0.5550788640975952 223 97 99
0.18184921145439148 0.8010249137878418 -0.5703420042991638 227 103 95
0.1443696767091751 0.7735326886177063 -0.6170936226844788 231 110 90
0.18312683701515198 0.7004709243774414 -0.6897862553596497 235 118 84
0.1921488344669342 0.6355927586555481 -0.7477303743362427 234 115 86
0.1543930172920227 0.6177477836608887 -0.7710709571838379 234 116 85
0.04354870319366455 0.5860095024108887 -0.8091330528259277 234 116 85
0.0901203379034996 0.5221356153488159 -0.8480876684188843 229 108 91
0.09092798084020615 0.5044416785240173 -0.8586447238922119 225 101 96
0.08543148636817932 0.4468940794467926 -0.8904982805252075 220 94 102
-0.06483368575572968 0.35205936431884766 -0.9337295293807983 221 95 101
0.0072470796294510365 0.36069461703300476 -0.9326558113098145 217 89 105
0.24235542118549347 0.44834059476852417 -0.8603804707527161 215 87 107
0.21992114186286926 0.36261826753616333 -0.9056172370910645 218 90 104
-0.009060184471309185 0.09295596927404404 -0.9956290125846863 217 89 105
-0.07211514562368393 -0.16122306883335114 -0.9842796921730042 215 86 108
-0.2305515557527542 -0.7225127220153809 -0.6517832279205322 215 86 108
-0.1978684961795807 -0.739195704460144 -0.6437684297561646 195 62 127
-0.1311320662498474 -0.23123468458652496 -0.9640201330184937 190 56 131
-0.21692049503326416 -0.28740549087524414 -0.9329220652580261 195 62 127
-0.15409238636493683 -0.3455156981945038 -0.9256752133369446 192 59 129
-0.2044903188943863 -0.5003050565719604 -0.8413552045822144 184 50 137
-0.2723974883556366 -0.6481925845146179 -0.7110878825187683 185 51 136
-0.4020985960960388 -0.6360213160514832 -0.6586300730705261 139 9 164
-0.17598533630371094 -0.5656065940856934 -0.8056788444519043 232 112 89
-0.2892947196960449 -0.6572384834289551 -0.6959497928619385 231 110 90
-0.5574947595596313 -0.5883828997612 -0.5856664180755615 252 167 53
-0.5709913969039917 -0.737638533115387 -0.36035844683647156 239 126 78
-0.7055742144584656 -0.7066437005996704 -0.053100258111953735 232 112 89
-0.23123955726623535 -0.8954287171363831 -0.38044145703315735 232 113 88
0.23116296529769897 -0.9308397769927979 -0.28302130103111267 239 126 78
0.051936130970716476 -0.611848771572113 -0.789267897605896 252 166 53
-0.03700985386967659 -0.47986656427383423 -0.8765605092048645 240 128 77
-0.19642169773578644 -0.447093665599823 -0.8726544380187988 236 120 83
-0.155482217669487 -0.3300743103027344 -0.9310619235038757 250 216 36
-0.10391643643379211 -0.08223382383584976 -0.9911805987358093 24 6 139
-0.17060576379299164 0.1041969284415245 -0.9798146486282349 247 224 36
-0.382705956697464 0.1416771113872528 -0.9129423499107361 251 209 36
-0.47983911633491516 0.2066451609134674 -0.8526735901832581 253 188 42
-0.6273572444915771 0.3223544955253601 -0.7088797688484192 253 190 41
-0.6742237210273743 0.23885542154312134 -0.6988351345062256 253 188 42
-0.4826417863368988 0.30090785026550293 -0.8225031495094299 253 192 41
-0.3719005584716797 0.3351244032382965 -0.8656682968139648 250 216 36
-0.2175377905368805 0.35400739312171936 -0.9095911383628845 252 204 37
-0.18500344455242157 0.378192663192749 -0.9070523977279663 251 209 36
-0.10808772593736649 0.3840324878692627 -0.9169710874557495 244 234 38
-0.056759994477033615 0.3021565079689026 -0.9515669941902161 12 7 134
0.0416288822889328 0.3701779842376709 -0.9280276298522949 242 241 38
0.019509265199303627 0.4285989999771118 -0.9032841324806213 240 245 37
-0.11157900840044022 0.3789450228214264 -0.9186679124832153 240 246 35
-0.2407463639974594 0.34678182005882263 -0.9065227508544922 29 6 141
-0.26411259174346924 0.27801066637039185 -0.9235554337501526 27 6 140
-0.438554972410202 0.2374761551618576 -0.8667609691619873 35 5 144
-0.61359041929245 0.20490626990795135 -0.7625747323036194 45 4 148
-0.7172180414199829 0.19924122095108032 -0.6677582859992981 39 5 146
-0.4816550314426422 0.20600050687789917 -0.8518052697181702 253 196 39
-0.7935559749603271 0.06840929388999939 -0.6046397089958191 253 185 43
-0.7256352305412292 -0.11243157088756561 -0.6788318753242493 89 1 164
-0.8512893915176392 -0.3322211802005768 -0.4061224162578583 43 5 148
-0.9510842561721802 -0.21709667146205902 -0.21979016065597534 47 4 149
-0.943544864654541 0.11930126696825027 -0.3090149164199829 49 4 150
-0.8369377851486206 0.28776660561561584 -0.46553802490234375 47 4 149
-0.8201225996017456 0.41356056928634644 -0.3954322636127472 47 4 149
-0.8204296231269836 0.49643588066101074 -0.283631294965744 56 4 153
-0.8582697510719299 0.4109767973423004 -0.3073616921901703 58 4 154
-0.7106138467788696 0.6006926894187927 -0.36632829904556274 69 3 158
-0.6777459979057312 0.6079131960868835 -0.41364485025405884 76 2 161
-0.6673997044563293 0.6456441283226013 -0.3711080551147461 71 2 159
-0.5595421195030212 0.7188887596130371 -0.41244593262672424 49 4 150
-0.45557379722595215 0.7643423080444336 -0.456325888633728 54 4 152
-0.3271825313568115 0.7988360524177551 -0.5047896504402161 43 5 148
-0.2883698344230652 0.8218462467193604 -0.49133655428886414 47 4 149
-0.20245561003684998 0.8590091466903687 -0.47022879123687744 16 7 135
-0.08134984225034714 0.8889373540878296 -0.4507467448711395 21 6 138
0.003972821403294802 0.8975639343261719 -0.44086650013923645 241 243 38
0.10903467237949371 0.8794284462928772 -0.4633757174015045 243 236 38
0.21197114884853363 0.8703216910362244 -0.4445316195487976 247 224 36
0.2427230030298233 0.882870614528656 -0.40202605724334717 240 245 37
0.3109212815761566 0.8861731290817261 -0.3435477614402771 43 5 148
0.3986318111419678 0.8682002425193787 -0.29550135135650635 251 209 36
0.3962957262992859 0.7695029973983765 -0.5008142590522766 253 198 38
0.5948430299758911 0.47859182953834534 -0.6458417773246765 253 190 41
0.7176317572593689 -0.11815130710601807 -0.6863270998001099 253 196 39
0.637493371963501 -0.1951386034488678 -0.7453342080116272 251 208 36
0.9645378589630127 -0.2630437910556793 -0.02178574912250042 250 214 36
0.8888788223266602 -0.45034539699554443 0.08416270464658737 252 173 49
0.49216413497924805 -0.3874855637550354 0.7795058488845825 252 169 52
0.16452951729297638 -0.5839561223983765 0.7949373126029968 251 164 54
-0.763357937335968 -0.6369370222091675 0.10768475383520126 252 173 49
-0.821533203125 -0.3144432306289673 0.47561389207839966 251 211 36
-0.8306543231010437 -0.42309316992759705 0.3619469106197357 248 221 36
-0.7813775539398193 -0.30626970529556274 0.543735146522522 251 211 36
-0.7079096436500549 -0.44773584604263306 0.5462568402290344 253 198 38
-0.6956438422203064 -0.5130302309989929 0.5028712749481201 253 187 43
-0.7069017291069031 -0.6039695739746094 0.36811763048171997 253 187 43
-0.7190238237380981 -0.6045318245887756 0.3428499102592468 253 179 46
-0.7424494624137878 -0.6360792517662048 0.21017107367515564 252 206 37
-0.741470456123352 -0.6484127640724182 0.17257598042488098 253 195 40
-0.6320728063583374 -0.7722147703170776 0.0645630806684494 216 88 106
-0.6678822636604309 -0.7416726350784302 0.06208791211247444 207 75 116
-0.7354305982589722 -0.6724919676780701 0.08304470032453537 199 66 123
-0.7638238072395325 -0.6440545916557312 -0.04203522577881813 192 59 129
-0.675594687461853 -0.7372462749481201 0.006307832896709442 187 53 134
-0.631305992603302 -0.7736003994941711 0.05472781881690025 189 55 132
-0.5391868352890015 -0.8239676356315613 0.17422659695148468 194 61 128
-0.566702127456665 -0.7786304950714111 0.2694127559661865 195 62 127
-0.5983558297157288 -0.7610293626785278 0.25060856342315674 190 56 131
-0.5857810378074646 -0.7628177404403687 0.2738058865070343 180 45 141
-0.5549594759941101 -0.7634254097938538 0.33045658469200134 175 40 144
-0.5657840371131897 -0.7597693204879761 0.32037317752838135 170 36 148
-0.5654403567314148 -0.7597204446792603 0.3210950791835785 165 31 151
-0.5794669985771179 -0.7293390035629272 0.3637067973613739 169 35 149
-0.6267080307006836 -0.6910865902900696 0.3600505292415619 169 35 149
-0.6510332822799683 -0.7013692259788513 0.29023614525794983 167 33 151
-0.6019756197929382 -0.7497009038925171 0.27490735054016113 168 34 150
-0.5538094639778137 -0.7464686036109924 0.36888980865478516 172 37 147
-0.49483779072761536 -0.7659944295883179 0.4103511571884155 178 44 142
-0.47958025336265564 -0.7654662132263184 0.42902714014053345 188 54 133
-0.5447766184806824 -0.7367048263549805 0.40060508251190186 191 57 130
-0.5745459794998169 -0.7123630046844482 0.4030333161354065 195 62 127
-0.5123068690299988 -0.7371807098388672 0.44057485461235046 202 70 120
-0.5327696800231934 -0.7226243019104004 0.4404209554195404 202 70 120
-0.500659704208374 -0.7459072470664978 0.4392745792865753 208 77 115
-0.5481870770454407 -0.7295984625816345 0.4088728129863739 218 90 104
-0.5569795370101929 -0.7356840372085571 0.3854125440120697 211 81 111
-0.462321013212204 -0.8200287222862244 0.3373606503009796 208 77 115
-0.48305636644363403 -0.8225580453872681 0.30009138584136963 205 73 117
-0.490013986825943 -0.8253064155578613 0.2806343138217926 200 68 122
-0.43219152092933655 -0.8405961990356445 0.3265096843242645 185 51 136
-0.45324617624282837 -0.8163724541664124 0.3579159080982208 182 47 139
-0.5472660660743713 -0.7777347564697266 0.3092385232448578 182 47 139
-0.6038423776626587 -0.7806699275970459 0.16102415323257446 182 47 139
-0.6582512259483337 -0.7490879893302917 -0.07464843988418579 187 53 134
-0.5366001129150391 -0.7691953182220459 -0.34698545932769775 189 55 132
-0.4940817058086395 -0.8328826427459717 -0.24937865138053894 187 53 134
-0.5093144178390503 -0.7788767218589783 -0.3659916818141937 185 51 136
-0.5225958228111267 -0.8021238446235657 -0.28894805908203125 188 54 133
-0.5607134103775024 -0.674281120300293 -0.48056772351264954 187 53 134
-0.5665832161903381 -0.7281922698020935 -0.3856416940689087 181 46 140
-0.48327258229255676 -0.7802643775939941 -0.3970329165458679 159 26 155
-0.41709235310554504 -0.8476489186286926 -0.32791051268577576 155 23 158
-0.4543253779411316 -0.8667588233947754 -0.20571225881576538 158 25 156
-0.5145209431648254 -0.8103885054588318 -0.2802475392818451 154 21 158
-0.4480476975440979 -0.8237742781639099 -0.34734612703323364 153 20 159
-0.33209696412086487 -0.9221467971801758 -0.1983858346939087 133 6 166
-0.3234767019748688 -0.9355279207229614 -0.14195238053798676 136 7 165
-0.30027681589126587 -0.9527003765106201 -0.04685898497700691 124 2 167
-0.31082186102867126 -0.9360255599021912 -0.16506320238113403 158 25 156
-0.31756168603897095 -0.9348950982093811 -0.15851075947284698 149 17 161
-0.2602166533470154 -0.9434957504272461 -0.2051900327205658 147 16 161
-0.17502297461032867 -0.9606882929801941 -0.21551081538200378 151 19 160
-0.16926421225070953 -0.948613703250885 -0.26736074686050415 150 18 160
-0.38108405470848083 -0.8946170210838318 -0.23331376910209656 147 16 161
-0.29434043169021606 -0.8968061208724976 -0.33030664920806885 151 19 160
0.18391068279743195 -0.7239308953285217 -0.6649067401885986 151 19 160
0.8569571375846863 -0.5053014755249023 -0.10146383941173553 150 18 160
0.9293784499168396 -0.07837552577257156 0.3607117831707001 139 9 164
0.763783872127533 0.40463727712631226 0.502894401550293 132 5 166
0.9843904376029968 -0.1565190851688385 0.0804818794131279 127 3 167
0.9735109210014343 -0.08011125028133392 0.21414634585380554 126 3 167
0.9939934015274048 0.019065389409661293 0.10776666551828384 108 0 168
0.9756739139556885 0.020961439236998558 0.21822239458560944 111 0 168
0.967402994632721 0.10788772255182266 0.22911083698272705 98 0 166
0.9521691799163818 0.15568149089813232 0.26293954253196716 97 0 166
0.9607153534889221 0.10020318627357483 0.25881531834602356 86 1 163
0.9709972143173218 0.07438500225543976 0.22722525894641876 89 1 164
0.986802339553833 0.11234422028064728 0.11661885678768158 84 1 163
0.9922685623168945 0.08791972696781158 0.0875965803861618 90 0 165
0.9171958565711975 0.2688651382923126 0.2940463721752167 94 0 165
0.9024317264556885 0.4132390320301056 0.12186318635940552 205 73 117
0.8260917663574219 0.5040366053581238 0.2520308792591095 203 71 119
0.6369993686676025 0.5732239484786987 0.5154086947441101 213 83 109
0.7778822183609009 0.2195359766483307 0.5888150334358215 202 70 120
0.7680640816688538 0.22160722315311432 0.6008058786392212 202 70 120
0.6079772710800171 0.17384709417819977 0.7746875286102295 202 70 120
0.4421508014202118 -0.010965825989842415 0.8968737125396729 200 68 122
0.5621904730796814 -0.02421737089753151 0.8266531229019165 201 69 121
0.7815302610397339 0.246150404214859 0.5732542872428894 199 66 123
0.7701823115348816 0.41521716117858887 0.48416316509246826 203 71 119
0.7263143062591553 0.5919814109802246 0.349321573972702 203 71 119
0.709098756313324 0.6261723637580872 0.32417142391204834 197 64 125
0.7351371049880981 0.5898942351341248 0.3340630829334259 193 60 128
0.7507315278053284 0.6016730070114136 0.27274855971336365 198 65 124
0.6967062950134277 0.6495532989501953 0.3044353723526001 200 68 122
0.6393161416053772 0.7011682987213135 0.31565478444099426 192 59 129
0.5844152569770813 0.7576609253883362 0.29053187370300293 186 52 135
0.6498808264732361 0.673011302947998 0.35314396023750305 185 51 136
0.681742787361145 0.6189467310905457 0.39004063606262207 184 50 137
0.6575707197189331 0.63120436668396 0.4113171100616455 181 46 140
0.6168386936187744 0.654148519039154 0.43772122263908386 180 45 141
0.5893922448158264 0.6736462712287903 0.44588950276374817 190 56 131
0.5859024524688721 0.650029718875885 0.48392120003700256 198 65 124
0.5701714158058167 0.65629643201828 0.49414530396461487 196 63 126
0.5990278124809265 0.6475017666816711 0.4710701107978821 190 56 131
0.6096774339675903 0.6494855284690857 0.45438092947006226 183 48 138
0.6346502900123596 0.6181249618530273 0.4638324975967407 181 46 140
0.6400908827781677 0.6108875870704651 0.4659399092197418 181 46 140
0.6505488753318787 0.5794541239738464 0.4909369647502899 176 42 143
0.6757263541221619 0.5512332916259766 0.4894239604473114 183 48 138
0.691789984703064 0.5220915675163269 0.49884575605392456 178 44 142
0.7219927906990051 0.4948442578315735 0.48358607292175293 173 38 146
0.7351433038711548 0.5055748820304871 0.4516175389289856 170 36 148
0.700101375579834 0.5438978672027588 0.46263712644577026 169 35 149
0.714992105960846 0.563228189945221 0.41419845819473267 177 43 143
0.6918901205062866 0.5709579586982727 0.4419219493865967 172 37 147
0.7017492651939392 0.5665212273597717 0.4319741725921631 165 31 151
0.7178946137428284 0.5852352976799011 0.37699732184410095 165 31 151
0.6832002401351929 0.6077719926834106 0.40478479862213135 163 29 153
0.6780954599380493 0.5993325710296631 0.42542564868927 155 23 158
0.6917780637741089 0.6138451099395752 0.38031214475631714 159 26 155
0.7237992286682129 0.611077070236206 0.3204677402973175 162 28 154
0.7972443103790283 0.5368587374687195 0.2760147750377655 165 31 151
0.8712916970252991 0.4013608396053314 0.28241845965385437 158 25 156
0.9705602526664734 0.1243036612868309 -0.20630402863025665 163 29 153
0.08736801892518997 -0.7097401022911072 -0.6990249156951904 190 56 131
0.0950787216424942 -0.8725552558898926 -0.4791736900806427 193 60 128
-0.13174037635326385 -0.9911347031593323 -0.017222244292497635 197 64 125
-0.10843369364738464 -0.9937229752540588 -0.027508126571774483 200 68 122
-0.15604117512702942 -0.985802412033081 -0.06200734153389931 201 69 121
-0.19179926812648773 -0.9759625792503357 -0.10348924249410629 195 62 127
-0.18660509586334229 -0.9769668579101562 -0.10351026058197021 201 69 121
-0.19730611145496368 -0.970219075679779 -0.14051790535449982 205 73 117
-0.20725691318511963 -0.9714580178260803 -0.11538626253604889 210 80 112
-0.24915839731693268 -0.9520882964134216 -0.17733566462993622 211 81 111
-0.23821137845516205 -0.9446967840194702 -0.2253955751657486 212 82 110
-0.2681918442249298 -0.9315771460533142 -0.24543234705924988 209 79 113
-0.2053411453962326 -0.9501661658287048 -0.23456180095672607 197 64 125
-0.18443144857883453 -0.9537748694419861 -0.23727330565452576 192 59 129
-0.08137264847755432 -0.9672510027885437 -0.24042478203773499 194 61 128
-0.05044179782271385 -0.983536422252655 -0.17352725565433502 194 61 128
-0.04207432270050049 -0.9862752556800842 -0.15965861082077026 195 62 127
0.004816398490220308 -0.9835425019264221 -0.18061256408691406 195 62 127
-0.02426762692630291 -0.9865085482597351 -0.16190136969089508 198 65 124
0.0637153908610344 -0.9868754148483276 -0.14838263392448425 207 75 116
0.13010859489440918 -0.9900111556053162 -0.054311130195856094 208 77 115
-0.07760494947433472 -0.99336838722229 0.08483269065618515 197 64 125
-0.3455840051174164 -0.9366651177406311 0.05683458223938942 196 63 126
-0.46003258228302 -0.8699494004249573 0.1776459813117981 243 134 73
-0.803109347820282 -0.45140424370765686 0.38890811800956726 245 139 70
-0.8353588581085205 -0.5080727338790894 0.2098514437675476 248 149 64
-0.820353090763092 -0.45575380325317383 0.34541162848472595 242 133 74
-0.8742319941520691 -0.441988080739975 0.20091012120246887 236 120 83
-0.8459151387214661 -0.5031137466430664 0.17693012952804565 230 109 90
-0.8270508050918579 -0.5486597418785095 0.12230899184942245 229 108 91
-0.8119326829910278 -0.5731404423713684 0.1107945665717125 235 118 84
-0.8241128325462341 -0.5520938634872437 0.1266113966703415 238 124 80
-0.8208226561546326 -0.5644672513008118 0.08733110874891281 232 113 88
-0.8286071419715881 -0.5515845417976379 0.09573259204626083 234 115 86
-0.8015035390853882 -0.5893511176109314 0.1012779027223587 242 132 75
-0.8094035983085632 -0.5810671448707581 0.08501040190458298 241 130 76
-0.8163908123970032 -0.5711154937744141 0.08563408255577087 234 115 86
-0.8050888180732727 -0.5869739651679993 0.08540277183055878 227 104 94
-0.7833261489868164 -0.6216042041778564 -0.0029064505361020565 227 103 95
-0.8408844470977783 -0.5383056402206421 -0.056040242314338684 229 107 92
-0.9006101489067078 -0.43019548058509827 0.06191340088844299 233 114 87
-0.7531042098999023 -0.40812644362449646 -0.5160104632377625 222 96 100
-0.8314478397369385 0.5350704193115234 -0.14964629709720612 220 94 102
-0.5539639592170715 -0.2240649163722992 -0.8018221855163574 221 95 101
-0.5713394284248352 0.008424750529229641 -0.8206705451011658 230 109 90
-0.545206606388092 0.08474364876747131 -0.8340073823928833 239 126 78
-0.390236496925354 0.09167633950710297 -0.9161391258239746 238 124 80
-0.27093303203582764 -0.0035270238295197487 -0.9625917673110962 237 123 81
-0.2927747368812561 0.10111317038536072 -0.9508202075958252 236 120 83
-0.39988476037979126 0.36171501874923706 -0.8421724438667297 244 138 71
-0.3613300025463104 0.49639829993247986 -0.7893221378326416 243 134 73
-0.2681521475315094 0.5192948579788208 -0.8114352822303772 244 137 71
-0.13048678636550903 0.522355318069458 -0.8426851034164429 238 124 80
-0.05448586866259575 0.5232731699943542 -0.8504213690757751 252 172 50
0.02731165662407875 0.583868682384491 -0.8113885521888733 253 181 45
0.05625833943486214 0.5683225393295288 -0.8208802938461304 253 184 44
0.06946390867233276 0.6456109285354614 -0.7605007290840149 252 199 38
0.058410774916410446 0.6917065382003784 -0.7198126912117004 246 228 37
0.08177341520786285 0.6502748727798462 -0.7552852630615234 245 231 38
0.0353475958108902 0.5570673942565918 -0.8297147750854492 244 234 38
-0.18918435275554657 0.43253669142723083 -0.881544828414917 245 233 38
-0.2336355298757553 0.1470116525888443 -0.9611461758613586 246 229 37
-0.4097902178764343 -0.03498315066099167 -0.9115087389945984 246 228 37
-0.33860069513320923 -0.07541831582784653 -0.9379028081893921 244 234 38
-0.2649478614330292 -0.04610147327184677 -0.9631600379943848 12 7 134
-0.2918252646923065 -0.11644727736711502 -0.9493566751480103 33 5 143
-0.34215831756591797 -0.1967824399471283 -0.9188058972358704 37 5 145
-0.40116292238235474 -0.30622848868370056 -0.8633032441139221 37 5 145
-0.37402427196502686 -0.3790472745895386 -0.8464213013648987 39 5 146
-0.3429795503616333 -0.4753306210041046 -0.810201108455658 35 5 144
-0.38015761971473694 -0.5310298204421997 -0.7572895884513855 29 6 141
-0.39858514070510864 -0.5912088751792908 -0.7011432647705078 59 3 154
-0.4578167498111725 -0.6182609796524048 -0.6388717293739319 64 3 156
-0.461938738822937 -0.5875824689865112 -0.6643489003181458 245 233 38
-0.5346196293830872 -0.565021276473999 -0.6284367442131042 19 6 137
-0.4868023097515106 -0.5651229023933411 -0.6660778522491455 45 4 148
-0.5078238844871521 -0.5264664888381958 -0.6818709373474121 69 3 158
-0.5053715109825134 -0.48000526428222656 -0.7170736193656921 63 3 156
-0.5200212597846985 -0.3958143889904022 -0.7569074034690857 19 6 137
-0.5693346261978149 -0.3669743537902832 -0.7356548309326172 21 6 138
-0.56392502784729 -0.33639758825302124 -0.754205048084259 59 3 154
-0.5384783148765564 -0.3310982584953308 -0.7748645544052124 89 1 164
-0.47632935643196106 -0.3933025896549225 -0.7863990068435669 54 4 152
-0.4544331729412079 -0.365338534116745 -0.8124150633811951 246 228 37
-0.5098276734352112 -0.277783066034317 -0.8141943216323853 253 188 42
-0.508428156375885 -0.29420074820518494 -0.8092878460884094 253 188 42
-0.534947395324707 -0.25262805819511414 -0.806232213973999 253 184 44
-0.40798690915107727 -0.17809908092021942 -0.8954482078552246 253 187 43
-0.48496532440185547 -0.08314074575901031 -0.8705723285675049 253 184 44
-0.5252103805541992 0.03661308437585831 -0.8501843810081482 252 169 52
-0.5907042622566223 0.28203749656677246 -0.7559916377067566 251 163 55
-0.5759338736534119 0.43913018703460693 -0.6895396113395691 250 160 57
-0.5789312124252319 0.47475436329841614 -0.6629078984260559 250 159 58
-0.6738607883453369 0.453441858291626 -0.5833541750907898 250 159 58
-0.7142038941383362 0.41196584701538086 -0.5658594369888306 250 156 59
-0.8024409413337708 0.3166038691997528 -0.5058166980743408 251 162 56
-0.8452412486076355 0.26574257016181946 -0.4636250436306 252 166 53
-0.867012083530426 0.25599679350852966 -0.427499383687973 252 169 52
-0.804661750793457 0.19715182483196259 -0.5600452423095703 252 173 49
-0.8616343140602112 0.12394869327545166 -0.49216151237487793 253 175 49
-0.8584668040275574 -0.016344601288437843 -0.5126086473464966 253 175 49
-0.9443212151527405 0.036682650446891785 -0.3269735872745514 253 178 47
-0.8848921656608582 0.23832091689109802 -0.4002111256122589 253 178 47
-0.7615025043487549 0.3249037563800812 -0.5608489513397217 253 182 45
-0.7446213960647583 0.34932321310043335 -0.5687813758850098 252 206 37
-0.6379719376564026 0.46765294671058655 -0.6117944717407227 251 211 36
-0.4871101677417755 0.5741846561431885 -0.6580544114112854 252 201 38
-0.4094187915325165 0.6586669683456421 -0.6312956213951111 253 193 40
-0.3173832297325134 0.6378341913223267 -0.7017374038696289 252 201 38
-0.30939581990242004 0.7232809662818909 -0.6173643469810486 253 192 41
-0.21003444492816925 0.781731903553009 -0.5871803760528564 250 213 36
-0.157148078083992 0.8550014495849609 -0.4942438304424286 253 190 41
-0.1677369922399521 0.8163958787918091 -0.5525956749916077 253 190 41
-0.1330897957086563 0.8457040190696716 -0.5167898535728455 253 188 42
0.09207221120595932 0.8608182072639465 -0.5005144476890564 253 188 42
0.1365286260843277 0.7993614673614502 -0.58513343334198 253 188 42
0.14337904751300812 0.847309410572052 -0.5113797783851624 253 192 41
0.25374260544776917 0.872745156288147 -0.4170500338077545 253 190 41
0.26202136278152466 0.9208423495292664 -0.28878068923950195 253 192 41
0.18003514409065247 0.9439190626144409 -0.2767743170261383 253 185 43
0.10691365599632263 0.9663193821907043 -0.234085813164711 253 185 43
-0.16420957446098328 0.9200774431228638 -0.35565829277038574 253 184 44
-0.6094507575035095 0.7345878481864929 -0.2982456088066101 253 187 43
-0.8948096036911011 0.4327786862850189 -0.10962845385074615 253 182 45
-0.8314188122749329 0.5519726276397705 -0.06378858536481857 253 184 44
-0.7351377010345459 0.6768869161605835 -0.03737253323197365 253 178 47
-0.8184459805488586 0.574428915977478 -0.013327986933290958 253 179 46
-0.8778766989707947 0.46159255504608154 -0.1275338977575302 253 175 49
-0.885954737663269 0.44474998116493225 -0.1314595490694046 253 175 49
-0.9943983554840088 0.019662437960505486 -0.10385172069072723 253 182 45
-0.664901614189148 -0.7464451193809509 -0.02693752385675907 253 187 43
-0.6667380332946777 -0.742714524269104 0.06193196401000023 240 128 77
-0.6144255995750427 -0.6803507208824158 -0.39950475096702576 232 112 89
-0.6159452795982361 -0.7703914642333984 0.16464601457118988 224 100 97
-0.847854733467102 -0.519889771938324 0.1041974276304245 219 91 103
-0.8756392002105713 -0.4803602397441864 0.05010058358311653 213 83 109
-0.9148749113082886 -0.39662161469459534 -0.07546684890985489 195 62 127
-0.8877111673355103 -0.4275240898132324 -0.17085647583007812 181 46 140
-0.890192449092865 -0.38629165291786194 -0.24152876436710358 177 43 143
-0.8731720447540283 -0.4201182723045349 -0.2471259981393814 163 29 153
-0.9224368929862976 -0.24908822774887085 -0.2950681447982788 153 20 159
-0.9481355547904968 -0.09342005103826523 -0.3038284480571747 147 16 161
-0.9170065522193909 0.2010442018508911 -0.34449994564056396 144 14 163
-0.9629311561584473 0.2622067332267761 -0.06333493441343307 132 5 166
-0.9774386286735535 0.1357508897781372 -0.1618192046880722 127 3 167
-0.7798992991447449 0.601259708404541 -0.17390739917755127 129 4 167
-0.40669456124305725 0.8451929688453674 -0.3467685878276825 112 0 168
-0.3164450526237488 0.8843052387237549 -0.3433173894882202 101 0 167
-0.39787453413009644 0.8937368392944336 -0.2071962207555771 82 1 163
-0.3083993196487427 0.9374401569366455 -0.16154217720031738 87 1 164
0.02624019980430603 0.9992554187774658 0.02828432060778141 76 2 161
0.1512482762336731 0.9877063035964966 -0.03949955850839615 84 1 163
0.1433100700378418 0.9835870265960693 -0.10963007062673569 78 2 161
0.09854558110237122 0.9886394143104553 -0.1134938895702362 82 1 163
-0.01774766854941845 0.9832543730735779 -0.18137213587760925 78 2 161
-0.042311739176511765 0.9986955523490906 0.028582002967596054 82 1 163
-0.14831304550170898 0.9870738983154297 0.060732152312994 81 1 162
-0.056918736547231674 0.9902340173721313 -0.12726731598377228 73 2 159
-0.15919628739356995 0.9860643148422241 -0.04830874875187874 82 1 163
-0.23281414806842804 0.9723275303840637 0.019412096589803696 92 0 165
-0.32168614864349365 0.9442629218101501 0.06989649683237076 94 0 165
-0.31647658348083496 0.9439316987991333 0.09399708360433578 98 0 166
-0.10643897205591202 0.9691982269287109 0.2220935821533203 101 0 167
-0.00313385552726686 0.9988524913787842 0.047789230942726135 106 0 167
0.2924622595310211 0.9512091279029846 0.09832116216421127 112 0 168
0.5679225921630859 0.820769190788269 0.061658356338739395 112 0 168
0.49722129106521606 0.8479891419410706 0.18353568017482758 109 0 168
0.5814504027366638 0.8065891265869141 0.10643996298313141 79 2 162
0.5849612355232239 0.8030176758766174 0.11394285410642624 76 2 161
0.6484479904174805 0.729057788848877 0.21906593441963196 78 2 161
0.6247262954711914 0.7479764223098755 0.22416110336780548 74 2 160
0.5534362196922302 0.7756226062774658 0.30350926518440247 73 2 159
0.5362515449523926 0.7887014150619507 0.30063968896865845 71 2 159
0.5105593800544739 0.8162190318107605 0.2703990042209625 79 2 162
0.46940773725509644 0.834384560585022 0.28889214992523193 71 2 159
0.4228303134441376 0.8818325996398926 0.2087719440460205 74 2 160
0.4532412588596344 0.863958477973938 0.21942637860774994 84 1 163
0.4833362102508545 0.8258618116378784 0.29041075706481934 78 2 161
0.6012808680534363 0.7407593131065369 0.2995612323284149 84 1 163
0.6133223176002502 0.7230260968208313 0.3179135322570801 89 1 164
0.6792880296707153 0.7035920023918152 0.20862895250320435 92 0 165
0.5338612794876099 0.8407800793647766 0.08989465981721878 87 1 164
0.7395057082176208 0.628356397151947 -0.2414531707763672 82 1 163
0.7095144391059875 0.5886674523353577 -0.3873756229877472 66 3 157
0.7758302688598633 0.5023220181465149 -0.3817852735519409 61 3 155
0.9808163642883301 0.15216808021068573 -0.12183641642332077 59 3 154
0.9746204614639282 0.13746653497219086 -0.17668576538562775 58 4 154
0.9929014444351196 0.07493404299020767 -0.09236704558134079 68 3 158
0.9291090965270996 0.2872108519077301 -0.2329511195421219 66 3 157
0.9700333476066589 0.24116770923137665 -0.029552485793828964 51 4 151
0.9386728405952454 0.2975667119026184 0.1742049604654312 31 5 142
0.9190640449523926 0.3460094630718231 0.18867622315883636 27 6 140
0.8778316378593445 0.2539816200733185 0.4060847759246826 242 241 38
0.8893473148345947 0.2409174144268036 0.38861292600631714 39 5 146
0.8659523725509644 0.1524667739868164 0.4763195514678955 37 5 145
0.8589461445808411 0.23652997612953186 0.45416420698165894 35 5 144
0.8220569491386414 0.22533659636974335 0.5229203701019287 45 4 148
0.8210122585296631 0.29405301809310913 0.4893583357334137 56 4 153
0.8167370557785034 0.13901270925998688 0.5600143074989319 73 2 159
0.852073609828949 0.3235098123550415 0.41147536039352417 78 2 161
0.9039625525474548 0.32908597588539124 0.27304619550704956 79 2 162
0.8906693458557129 0.3925442695617676 0.22938388586044312 90 0 165
0.883337140083313 0.3138771653175354 0.34813305735588074 97 0 166
0.7743048071861267 -0.09733811020851135 0.625281810760498 94 0 165
0.8603903651237488 0.5094076991081238 0.015238698571920395 86 1 163
0.6525371670722961 0.7545993328094482 0.06910083442926407 216 88 106
0.5171730518341064 0.8365175724029541 0.18102622032165527 218 90 104
0.5423077344894409 0.8265182971954346 0.15089689195156097 213 83 109
0.5697607398033142 0.8150256276130676 0.10538451373577118 221 95 101
0.5901716947555542 0.802636981010437 0.08643659204244614 215 87 107
0.6070248484611511 0.7904148101806641 0.08225094527006149 216 88 106
0.5938245058059692 0.8037527203559875 0.036797188222408295 210 80 112
0.6573756337165833 0.7534583806991577 0.012560133822262287 209 78 114
0.7074605822563171 0.7051107883453369 -0.04814879968762398 196 63 126
0.7232904434204102 0.689431369304657 -0.03918313607573509 215 86 108
0.7674165964126587 0.6386948227882385 -0.05604123696684837 229 108 91
0.786875307559967 0.6166807413101196 -0.02306896261870861 215 86 108
0.7730190753936768 0.634175717830658 -0.016207255423069 209 78 114
0.7683882117271423 0.6366274952888489 -0.06546010076999664 205 73 117
0.8058690428733826 0.5863595008850098 -0.08220431953668594 208 77 115
0.828061044216156 0.5543826818466187 -0.08351511508226395 207 75 116
0.8514859676361084 0.5156598687171936 -0.0952182486653328 209 78 114
0.8924006819725037 0.444807231426239 -0.07594399154186249 208 77 115
0.8964786529541016 0.4408452808856964 -0.04451362416148186 209 78 114
0.8997104167938232 0.4341393709182739 -0.045211613178253174 212 82 110
0.9188388586044312 0.39462989568710327 -0.0015362243866547942 223 97 99
0.9253116846084595 0.36062994599342346 0.11723610013723373 230 109 90
0.9212064743041992 0.37865930795669556 0.0894189327955246 253 175 49
0.9170401096343994 0.3815246820449829 0.11608733981847763 224 100 97
0.9271677732467651 0.3581734001636505 0.10987062752246857 226 102 96
0.9263400435447693 0.3586805462837219 0.11507521569728851 227 104 94
0.9279432892799377 0.3618016242980957 0.08955832570791245 234 116 85
0.9312548637390137 0.32672369480133057 0.16129453480243683 237 123 81
0.9266418814659119 0.3534454107284546 0.12810567021369934 229 108 91
0.9121591448783875 0.3839477300643921 0.14335191249847412 227 104 94
0.9192188382148743 0.36900341510772705 0.13738030195236206 229 107 92
0.9120084047317505 0.39269018173217773 0.11846967786550522 225 101 96
0.8976415395736694 0.4162113666534424 0.14494052529335022 223 97 99
0.8962235450744629 0.424900084733963 0.12744911015033722 221 95 101
0.889240026473999 0.4342755973339081 0.14372488856315613 219 91 103
0.8796913623809814 0.45623940229415894 0.13412165641784668 210 80 112
0.8621677756309509 0.49137425422668457 0.12336112558841705 200 68 122
0.8555710911750793 0.5093859434127808 0.0923251137137413 192 59 129
0.838798999786377 0.5436771512031555 0.028831640258431435 192 59 129
0.8263208270072937 0.5626665353775024 0.024502282962203026 197 64 125
0.8419769406318665 0.5383464097976685 0.035468555986881256 198 65 124
0.8357870578765869 0.5448473691940308 0.06783368438482285 198 65 124
0.8364397883415222 0.5428963303565979 0.07504631578922272 203 71 119
0.8439651727676392 0.5302577018737793 0.08093041181564331 196 63 126
0.8213617205619812 0.5624110102653503 0.09517774730920792 190 56 131
0.8039628863334656 0.5916987061500549 0.059465907514095306 192 59 129
0.8048285245895386 0.5928608179092407 0.02769719623029232 198 65 124
0.8110339045524597 0.5835464596748352 0.04120120406150818 191 57 130
0.8265170454978943 0.5588428378105164 0.06755983829498291 192 59 129
0.832659900188446 0.5446335673332214 0.10025862604379654 191 57 130
0.8324697017669678 0.54877769947052 0.07640231400728226 195 62 127
0.8051953911781311 0.5893583297729492 0.06570497155189514 189 55 132
0.8268998861312866 0.5554729104042053 0.08767272531986237 189 55 132
0.8227357864379883 0.5643405318260193 -0.06801100075244904 195 62 127
0.7976274490356445 0.5866506099700928 -0.14011242985725403 191 57 130
0.8497719764709473 0.4919334948062897 -0.18944409489631653 216 88 106
0.8827287554740906 0.4090423285961151 -0.23124518990516663 219 91 103
0.8488393425941467 0.45471563935279846 -0.26963940262794495 215 87 107
0.7965325117111206 0.3233722150325775 -0.5108485817909241 217 89 105
0.8008549213409424 0.19078955054283142 -0.5676537156105042 222 96 100
0.8168947696685791 0.011464014649391174 -0.5766727924346924 215 87 107
0.7182852029800415 -0.057304829359054565 -0.6933847665786743 218 90 104
0.4991348683834076 -0.20143936574459076 -0.8427850008010864 229 107 92
-0.062159400433301926 -0.3001939356327057 -0.9518507719039917 234 116 85
-0.24736368656158447 -0.47302600741386414 -0.8456107378005981 239 125 79
-0.13900095224380493 -0.6007066965103149 -0.7872928977012634 242 132 75
0.21773742139339447 -0.6256109476089478 -0.7491337656974792 246 142 68
0.3033059239387512 -0.5878713130950928 -0.7499419450759888 247 146 65
0.3586002588272095 -0.5473632216453552 -0.7561741471290588 251 163 55
0.44311606884002686 -0.5069446563720703 -0.7393614053726196 252 172 50
0.43474137783050537 -0.511195719242096 -0.741403341293335 253 187 43
0.336428165435791 -0.5214833617210388 -0.7841371893882751 253 192 41
0.11458011716604233 -0.5779458284378052 -0.8079913854598999 253 192 41
0.13064701855182648 -0.5128147602081299 -0.8485000133514404 252 203 37
0.1977296769618988 -0.5432332754135132 -0.815966010093689 251 209 36
0.05808013677597046 -0.4781523644924164 -0.876354455947876 246 229 37
0.04920940846204758 -0.4123955965042114 -0.9096748232841492 240 246 35
-0.10395806282758713 -0.433813214302063 -0.8949853181838989 35 5 144
-0.14658647775650024 -0.37955886125564575 -0.9134809970855713 49 4 150
-0.1814851015806198 -0.30218732357025146 -0.9358129501342773 37 5 145
-0.21503199636936188 -0.21686582267284393 -0.9522239565849304 242 241 38
-0.18279922008514404 -0.1629095822572708 -0.9695591330528259 247 226 37
-0.17730408906936646 -0.08396482467651367 -0.9805678129196167 249 217 36
-0.1881919652223587 -0.1437952220439911 -0.9715486168861389 250 214 36
-0.2126510888338089 -0.17407985031604767 -0.9614966511726379 250 216 36
-0.14608576893806458 -0.18749627470970154 -0.9713414311408997 247 226 37
-0.2439139187335968 -0.2809256911277771 -0.9282169938087463 243 238 38
-0.24899692833423615 -0.3429178297519684 -0.9057636857032776 242 240 38
-0.04502388462424278 -0.4421747326850891 -0.8957982063293457 245 231 38
-0.1939678192138672 -0.3906300365924835 -0.8998803496360779 245 233 38
-0.30782148241996765 -0.41313594579696655 -0.8570674061775208 242 240 38
-0.33935150504112244 -0.3550882637500763 -0.8710642457008362 12 7 134
-0.19242559373378754 -0.5481371283531189 -0.8139521479606628 31 5 142
-0.2875707149505615 -0.7108306884765625 -0.6418900489807129 27 6 140
-0.32645297050476074 -0.7464814782142639 -0.5798222422599792 27 6 140
-0.41240665316581726 -0.7403316497802734 -0.5308763384819031 33 5 143
-0.0779423788189888 -0.8655757308006287 -0.49467530846595764 35 5 144
0.09564138948917389 -0.6459641456604004 -0.7573525905609131 31 5 142
-0.09631972759962082 -0.35092592239379883 -0.9314362406730652 35 5 144
-0.2925877273082733 0.14609533548355103 -0.9450124502182007 37 5 145
-0.3669246435165405 0.3064768314361572 -0.8783156275749207 39 5 146
-0.28560566902160645 0.3091323673725128 -0.907119870185852 35 5 144
-0.24980640411376953 0.4807714521884918 -0.8405091166496277 39 5 146
-0.005277963355183601 0.6299602389335632 -0.776609480381012 43 5 148
0.07110614329576492 0.7318938374519348 -0.6776986122131348 41 5 147
0.0006524753989651799 0.7869338393211365 -0.6170369386672974 31 5 142
0.07746806740760803 0.7912487983703613 -0.6065674424171448 33 5 143
0.13389091193675995 0.8425756692886353 -0.5216698050498962 35 5 144
0.018623538315296173 0.8733581304550171 -0.48672252893447876 41 5 147
0.0765361487865448 0.8644306659698486 -0.4968922734260559 29 6 141
0.07985679060220718 0.8881818056106567 -0.4524996280670166 47 4 149
0.10285306721925735 0.9045641422271729 -0.41374504566192627 37 5 145
0.14558812975883484 0.9058254361152649 -0.3978496193885803 31 5 142
0.14170750975608826 0.915687084197998 -0.3760800361633301 35 5 144
0.17036031186580658 0.9032475352287292 -0.3938543200492859 43 5 148
0.1906912922859192 0.9102534055709839 -0.3675263524055481 49 4 150
0.2316029816865921 0.9025773406028748 -0.36292436718940735 43 5 148
0.2611885368824005 0.9145222902297974 -0.3089166283607483 16 7 135
0.3110073208808899 0.9038656949996948 -0.29377084970474243 24 6 139
0.28489744663238525 0.911487340927124 -0.29668885469436646 33 5 143
0.293986052274704 0.9043239951133728 -0.30946794152259827 41 5 147
0.27998581528663635 0.8853766918182373 -0.3711012303829193 74 2 160
0.4110684096813202 0.7631165385246277 -0.4986741840839386 74 2 160
0.5532247424125671 0.6810120344161987 -0.479755163192749 81 1 162
0.5632328391075134 0.6042840480804443 -0.563568651676178 89 1 164
0.461606502532959 0.7255473732948303 -0.510392427444458 94 0 165
0.48694542050361633 0.601106584072113 -0.6336836814880371 134 7 166
0.493380606174469 0.3355763554573059 -0.8024737238883972 146 15 162
0.5404484272003174 0.4124559462070465 -0.7333454489707947 147 16 161
0.6110606789588928 0.3928305506706238 -0.6872328519821167 114 0 168
0.4525587558746338 0.5424436330795288 -0.7077749967575073 98 0 166
0.44134533405303955 0.5428011417388916 -0.714549720287323 97 0 166
0.5780631303787231 0.4795587956905365 -0.6602018475532532 100 0 167
0.3443637788295746 0.7067244648933411 -0.6180243492126465 94 0 165
-0.06173226982355118 0.6752943396568298 -0.7349602580070496 104 0 167
-0.3298688530921936 0.6875009536743164 -0.6469380855560303 106 0 167
-0.10966544598340988 0.38644012808799744 -0.9157715439796448 111 0 168
-0.6242726445198059 0.026322446763515472 -0.7807629704475403 98 0 166
-0.6024309992790222 -0.16401568055152893 -0.7811374664306641 149 17 161
-0.1492803394794464 0.33791688084602356 -0.9292618632316589 137 8 165
0.3649318218231201 0.35662543773651123 -0.8600249886512756 136 7 165
0.36370551586151123 0.3437783718109131 -0.8657567501068115 134 7 166
0.4068968892097473 0.4091677963733673 -0.816710889339447 126 3 167
0.9099840521812439 0.3299426734447479 -0.2511311173439026 132 5 166
0.9893035888671875 -0.11300552636384964 -0.0922393798828125 133 6 166
0.9724970459938049 -6.011481673340313e-05 0.232914999127388 220 93 102
0.6047239899635315 0.16340525448322296 0.7794919013977051 203 71 119
0.8934540152549744 -0.15028168261051178 -0.42326730489730835 164 30 152
0.9676146507263184 -0.04763402044773102 -0.24789653718471527 211 81 111
0.9811180830001831 -0.1591401994228363 -0.10991678386926651 220 94 102
0.9829830527305603 -0.019574513658881187 0.18265023827552795 239 125 79
0.8775861859321594 0.24125680327415466 0.41429173946380615 221 95 101
0.8434627652168274 0.39456412196159363 0.3645404875278473 224 100 97
0.7523902058601379 0.39446261525154114 0.5275493264198303 209 79 113
0.6747869849205017 0.5686923861503601 0.4703737199306488 215 87 107
0.6382744312286377 0.5458427667617798 0.5428272485733032 225 101 96
0.6619776487350464 0.6181386113166809 0.4238988757133484 228 106 93
0.6586135029792786 0.6064735651016235 0.44544151425361633 232 113 88
0.5621356964111328 0.6179994344711304 0.5496183037757874 229 108 91
0.5861763954162598 0.6307546496391296 0.5084739923477173 230 109 90
0.6448462605476379 0.667754054069519 0.3718571364879608 226 102 96
0.6316633224487305 0.7147266268730164 0.30027884244918823 221 95 101
0.6485155820846558 0.7221178412437439 0.2407766878604889 217 89 105
0.8407799601554871 0.4251417815685272 0.33517682552337646 209 79 113
0.7321902513504028 0.48046937584877014 -0.48274898529052734 198 65 124
-0.16122998297214508 0.4231422245502472 -0.8916028141975403 233 114 87
0.12087822705507278 -0.06420156359672546 -0.9905890226364136 237 123 81
0.34818318486213684 -0.14496321976184845 -0.9261500835418701 238 124 80
0.3141331374645233 -0.3155324459075928 -0.8954103589057922 232 112 89
0.35075122117996216 -0.20698440074920654 -0.913307785987854 236 119 84
0.3849492073059082 -0.08047158271074295 -0.9194228649139404 242 133 74
0.42926841974258423 0.04631546884775162 -0.901988685131073 233 114 87
0.43611693382263184 0.13462941348552704 -0.8897623419761658 237 121 82
0.38779184222221375 0.11900923401117325 -0.9140319228172302 234 116 85
0.39357826113700867 0.059354428201913834 -0.9173729419708252 235 118 84
0.36466100811958313 0.004965152125805616 -0.93112713098526 239 125 79
0.38346847891807556 -0.1392185539007187 -0.9130006432533264 236 120 83
0.2998344898223877 -0.3225221037864685 -0.897818922996521 236 120 83
0.265348881483078 -0.44483494758605957 -0.8554015755653381 237 123 81
0.28371986746788025 -0.49440649151802063 -0.8216236233711243 239 125 79
0.2530295252799988 -0.4410805106163025 -0.861059844493866 244 137 71
0.2968047857284546 -0.3908464312553406 -0.871289849281311 243 135 72
0.2547638714313507 -0.3913510739803314 -0.8842735290527344 250 157 58
0.1910293698310852 -0.40828290581703186 -0.8926437497138977 250 157 58
0.17520765960216522 -0.4713880717754364 -0.8643468618392944 249 153 61
0.15202124416828156 -0.47666695713996887 -0.8658396005630493 250 159 58
0.21000568568706512 -0.41748958826065063 -0.8840814828872681 249 154 60
0.18331271409988403 -0.38013985753059387 -0.9065815806388855 248 150 63
0.20725180208683014 -0.33240628242492676 -0.9200830459594727 246 142 68
0.152351513504982 -0.2366466522216797 -0.9595766663551331 236 119 84
0.18977856636047363 -0.23242346942424774 -0.9539200663566589 240 129 77
0.18224719166755676 -0.2610696256160736 -0.9479601979255676 242 132 75
0.16617022454738617 -0.2872803509235382 -0.9433225393295288 239 126 78
0.19185733795166016 -0.2922172546386719 -0.9369097352027893 242 132 75
0.1537456512451172 -0.24432280659675598 -0.9574280977249146 240 128 77
0.16498836874961853 -0.24603378772735596 -0.955115795135498 239 126 78
0.13936834037303925 -0.28786247968673706 -0.9474765062332153 242 132 75
0.11023202538490295 -0.35776373744010925 -0.9272831082344055 237 123 81
0.01848270371556282 -0.4382900297641754 -0.8986435532569885 231 110 90
-0.11891163885593414 -0.5736935138702393 -0.8103923797607422 229 108 91
-0.07636646926403046 -0.6049078106880188 -0.7926251888275146 227 103 95
-0.012148088775575161 -0.6547521352767944 -0.755746066570282 218 90 104
0.0019938433542847633 -0.7240940928459167 -0.6896982192993164 212 82 110
0.03156054764986038 -0.7212828993797302 -0.6919211149215698 211 81 111
-0.020682044327259064 -0.737054169178009 -0.675517201423645 197 64 125
0.013201982714235783 -0.7123180627822876 -0.7017326354980469 186 52 135
0.05327692627906799 -0.679676353931427 -0.7315747141838074 178 44 142
0.017364192754030228 -0.6504601240158081 -0.7593418955802917 170 36 148
0.020426495000720024 -0.6000996828079224 -0.7996643781661987 163 29 153
0.09410003572702408 -0.5465846657752991 -0.832099974155426 127 3 167
0.16722840070724487 -0.5950427055358887 -0.7861036062240601 129 4 167
0.2400255650281906 -0.6926197409629822 -0.6801953315734863 121 1 168
0.25187355279922485 -0.7450736165046692 -0.6175961494445801 127 3 167
0.1451483815908432 -0.7525600790977478 -0.6423279643058777 114 0 168
0.6256776452064514 0.731054961681366 -0.2721877098083496 71 2 159
0.6569889783859253 0.7170776724815369 -0.23273396492004395 59 3 154
0.6969906687736511 0.6929543614387512 -0.18444032967090607 33 5 143
0.7187772989273071 0.6772466897964478 -0.15714986622333527 27 6 140
0.7438024282455444 0.6565852761268616 -0.12511499226093292 12 7 134
0.7654562592506409 0.6355618834495544 -0.10068687796592712 16 7 135
0.7995094656944275 0.5962501168251038 -0.07259752601385117 243 238 38
0.8161396980285645 0.5711835622787476 -0.08755195140838623 242 241 38
0.8210546970367432 0.5652092099189758 -0.08004847913980484 243 236 38
0.8211863040924072 0.564241886138916 -0.0853477343916893 244 234 38
0.8007680773735046 0.5938153266906738 -0.0784456729888916 245 233 38
0.8080251812934875 0.5822694897651672 -0.08976419270038605 242 241 38
0.7982136011123657 0.5987287163734436 -0.0661732479929924 240 246 35
0.8060520887374878 0.5893445611000061 -0.05434178188443184 243 236 38
0.8015570640563965 0.5965559482574463 -0.04034077376127243 240 245 37
0.792487621307373 0.6094081997871399 -0.024187201634049416 239 248 33
0.7754480242729187 0.6312837600708008 0.01269674301147461 241 243 38
0.7450383305549622 0.6660175919532776 0.03658556565642357 240 245 37
0.7193247675895691 0.69325852394104 0.0443226620554924 240 246 35
0.7107526063919067 0.7007035613059998 0.062009479850530624 243 238 38
0.7033213376998901 0.7064119577407837 0.07950622588396072 16 7 135
0.7007034420967102 0.7074865102767944 0.0920744240283966 27 6 140
0.6919377446174622 0.7153593301773071 0.09738114476203918 54 4 152
0.6899587512016296 0.7182169556617737 0.09011804312467575 81 1 162
0.6880099177360535 0.7217129468917847 0.07597833126783371 84 1 163
0.6847789883613586 0.7256582975387573 0.0670647919178009 82 1 163
0.6802553534507751 0.7295330166816711 0.07095209509134293 100 0 167
0.6839414834976196 0.7256311178207397 0.07538922131061554 101 0 167
0.6791357398033142 0.7311276793479919 0.06501483917236328 104 0 167
0.6622545719146729 0.7491368651390076 0.014591295272111893 109 0 168
0.6578122973442078 0.7530587911605835 0.01361522451043129 118 1 168
0.6368485689163208 0.7709754705429077 0.004541114438325167 100 0 167
0.6331262588500977 0.7740418910980225 -0.0032012409064918756 90 0 165
0.6066332459449768 0.7938970923423767 -0.04151564836502075 78 2 161
0.6040080785751343 0.793700635433197 -0.07220491766929626 78 2 161
0.6560235619544983 0.7540093064308167 -0.033211953938007355 73 2 159
0.6654724478721619 0.7450993061065674 -0.04442380741238594 27 6 140
0.6813610196113586 0.7312939167022705 -0.03092445619404316 245 231 38
0.7057415843009949 0.7084431052207947 0.006101125851273537 253 196 39
0.7101874351501465 0.70318204164505 0.03418908640742302 252 172 50
0.7384034395217896 0.6743429899215698 0.00467696413397789 251 163 55
0.7609201073646545 0.6475244760513306 0.041382718831300735 246 143 67
0.7623009085655212 0.6458609104156494 0.04196399077773094 243 134 73
0.7620834708213806 0.6474412679672241 0.0069688307121396065 246 145 66
0.7750656604766846 0.6314983367919922 0.021977946162223816 246 143 67
0.7746758460998535 0.6323521137237549 -0.002864656038582325 248 150 63
0.722795844078064 0.6910402774810791 -0.00544348219409585 245 141 69
0.6946374177932739 0.7193065285682678 0.00877438299357891 246 143 67
0.6887477040290833 0.7244805097579956 0.027470020577311516 247 146 65
0.7279069423675537 0.6810785531997681 0.07926821708679199 247 146 65
0.729964017868042 0.6813209652900696 0.054352447390556335 248 152 62
0.723566472530365 0.6850730776786804 0.08441783487796783 250 156 59
