ply
format ascii 1.0
element vertex 702
property float x
property float y
property float z
property uchar red
property uchar green
property uchar blue
end_header
0.25210461020469666 0.3945991098880768 0.5432273149490356 0 0 255
0.29259493947029114 0.4275197982788086 0.6159849762916565 0 0 255
0.15051716566085815 0.4207882285118103 0.6344014406204224 0 0 255
0.11191589385271072 0.40934932231903076 0.6299312114715576 0 0 255
0.12891292572021484 0.47999289631843567 0.6313905119895935 0 0 255
0.1574673056602478 0.575224757194519 0.5951524376869202 0 0 255
0.22647252678871155 0.6541868448257446 0.6115561127662659 0 0 255
0.292402982711792 0.6651380658149719 0.5568535923957825 0 0 255
0.21114954352378845 0.7176955938339233 0.5034400224685669 0 0 255
0.1870364546775818 0.7522984743118286 0.4601404368877411 0 0 255
0.15525443851947784 0.7646633386611938 0.4924221932888031 0 0 255
0.13670407235622406 0.765137791633606 0.4459247589111328 0 0 255
0.07516276091337204 0.7952181100845337 0.391569584608078 0 0 255
-0.014177530072629452 0.6884196400642395 0.33926448225975037 0 0 255
-0.06092047318816185 0.6118186712265015 0.3512941002845764 0 0 255
-0.18684996664524078 0.495914101600647 0.3762393593788147 0 0 255
-0.42425310611724854 0.23097699880599976 0.3009510040283203 0 0 255
-0.49320846796035767 -0.014657724648714066 0.16545335948467255 0 0 255
-0.5185514092445374 -0.21023769676685333 0.061884887516498566 0 0 255
-0.5270780920982361 -0.3780101537704468 -0.055492762476205826 0 0 255
-0.554085910320282 -0.49006596207618713 -0.12905724346637726 0 0 255
-0.5289623737335205 -0.5487537384033203 -0.233920618891716 0 0 255
-0.5134931802749634 -0.5514824986457825 -0.26823022961616516 0 0 255
-0.47423771023750305 -0.5315209031105042 -0.3457273244857788 0 0 255
-0.5200954079627991 -0.48114410042762756 -0.3781859576702118 0 0 255
-0.5065129995346069 -0.4085613191127777 -0.3989269435405731 0 0 255
-0.5731168985366821 -0.40775081515312195 -0.3506493866443634 0 0 255
-0.56512850522995 -0.4140390157699585 -0.33898141980171204 0 0 255
-0.5795167684555054 -0.4542170464992523 -0.3157643973827362 0 0 255
-0.5476268529891968 -0.465930700302124 -0.29774871468544006 0 0 255
-0.5016425848007202 -0.5114614367485046 -0.28817760944366455 0 0 255
-0.46623072028160095 -0.5207047462463379 -0.3459669351577759 0 0 255
-0.3702898621559143 -0.40465909242630005 -0.45985135436058044 0 0 255
-0.42540058493614197 -0.25309935212135315 -0.3374153673648834 0 0 255
-0.34576353430747986 -0.043723367154598236 -0.18723642826080322 0 0 255
-0.3527814745903015 0.04558544233441353 -0.12613801658153534 0 0 255
-0.4319252371788025 -0.0458475723862648 -0.10632418841123581 0 0 255
-0.48542773723602295 -0.07716602087020874 -0.07474685460329056 0 0 255
-0.5155818462371826 -0.14616383612155914 -0.17139014601707458 0 0 255
-0.6238027215003967 -0.32613450288772583 -0.22132976353168488 0 0 255
-0.6217382550239563 -0.42548078298568726 -0.31943583488464355 0 0 255
-0.526851236820221 -0.48166197538375854 -0.3412443697452545 0 0 255
-0.5366358160972595 -0.4415425658226013 -0.3368000388145447 0 0 255
-0.5314225554466248 -0.29610294103622437 -0.38899120688438416 0 0 255
-0.5488945841789246 -0.3111552596092224 -0.4092428982257843 0 0 255
-0.5790193676948547 -0.3552094101905823 -0.3855471909046173 0 0 255
-0.598482608795166 -0.37944716215133667 -0.35830000042915344 0 0 255
-0.6047850847244263 -0.32034793496131897 -0.3739939033985138 0 0 255
-0.6448894739151001 -0.2806054353713989 -0.2928616404533386 0 0 255
-0.667052149772644 -0.2731848657131195 -0.23429647088050842 0 0 255
-0.686913788318634 -0.23407970368862152 -0.17979444563388824 0 0 255
-0.6998476982116699 -0.17672348022460938 -0.16985245048999786 0 0 255
-0.695991575717926 -0.08232492953538895 -0.12608826160430908 0 0 255
-0.7034397125244141 0.025377346202731133 -0.09887103736400604 0 0 255
-0.6508487462997437 0.07835634052753448 -0.010126486420631409 0 0 255
-0.6561732888221741 0.11576635390520096 -0.04123314097523689 0 0 255
-0.6432471871376038 0.1396554708480835 -0.12113095819950104 0 0 255
-0.6470906734466553 0.20351570844650269 -0.11379002779722214 0 0 255
-0.5537802577018738 0.2626919746398926 -0.07464336603879929 0 0 255
-0.5006944537162781 0.3292606472969055 -0.02712312899529934 0 0 255
-0.5570030808448792 0.2864856421947479 -0.06586423516273499 0 0 255
-0.5633920431137085 0.17249366641044617 -0.0652277022600174 0 0 255
-0.559679388999939 0.004859007894992828 -0.1645965725183487 0 0 255
-0.5384761691093445 -0.024893630295991898 -0.26341351866722107 0 0 255
-0.6003767848014832 -0.13643421232700348 -0.40181559324264526 0 0 255
-0.5388150811195374 -0.17614811658859253 -0.4183323085308075 0 0 255
-0.5801737308502197 -0.27680841088294983 -0.41428130865097046 0 0 255
-0.5655235052108765 -0.3395761251449585 -0.4846000671386719 0 0 255
-0.5975873470306396 -0.39162302017211914 -0.5055227875709534 0 0 255
-0.5475667715072632 -0.4343998432159424 -0.5235687494277954 0 0 255
-0.4838128983974457 -0.342969685792923 -0.5138018131256104 0 0 255
-0.47571855783462524 -0.30062827467918396 -0.545002281665802 0 0 255
-0.47767773270606995 -0.35517510771751404 -0.5443204641342163 0 0 255
-0.42236870527267456 -0.4540342390537262 -0.57044517993927 0 0 255
-0.3602229356765747 -0.5605645775794983 -0.6033360362052917 0 0 255
-0.34758004546165466 -0.5601426362991333 -0.5913342237472534 0 0 255
-0.3656140863895416 -0.566842794418335 -0.5837352275848389 0 0 255
-0.3914221227169037 -0.5433341264724731 -0.6002476215362549 0 0 255
-0.3816414177417755 -0.529379665851593 -0.6464921832084656 0 0 255
-0.3497459590435028 -0.45374178886413574 -0.6616204380989075 0 0 255
-0.42060625553131104 -0.3647102117538452 -0.6372411847114563 0 0 255
-0.44969308376312256 -0.3224010467529297 -0.6018124222755432 0 0 255
-0.4402466416358948 -0.40564292669296265 -0.570161759853363 0 0 255
-0.45684999227523804 -0.48506665229797363 -0.5640212297439575 0 0 255
-0.4154258370399475 -0.518833577632904 -0.5336583256721497 0 0 255
-0.40488171577453613 -0.5402248501777649 -0.47168466448783875 0 0 255
-0.42272940278053284 -0.49883028864860535 -0.5800169110298157 0 0 255
-0.41420450806617737 -0.5626375675201416 -0.5508579611778259 0 0 255
-0.36719390749931335 -0.5502959489822388 -0.5760238766670227 0 0 255
-0.40140557289123535 -0.6285384297370911 -0.44094735383987427 0 0 255
-0.4376380741596222 -0.6640884280204773 -0.39957642555236816 0 0 255
-0.4725877344608307 -0.7119921445846558 -0.36987537145614624 0 0 255
-0.4916341304779053 -0.6769158840179443 -0.2797437608242035 0 0 255
-0.5367014408111572 -0.5828440189361572 -0.3490954041481018 0 0 255
-0.6565645933151245 -0.5592324137687683 -0.29668283462524414 0 0 255
-0.6136554479598999 -0.5862168073654175 -0.2276841104030609 0 0 255
-0.6266025304794312 -0.6145913600921631 -0.19638317823410034 0 0 255
-0.6977829337120056 -0.5694387555122375 -0.11640098690986633 0 0 255
-0.7929860949516296 -0.5038121342658997 -0.025685889646410942 0 0 255
-0.8430160880088806 -0.4565467834472656 0.029650339856743813 0 0 255
-0.8408795595169067 -0.4370209872722626 0.08037569373846054 0 0 255
-0.8214920163154602 -0.4031744599342346 0.10767862200737 0 0 255
-0.7174399495124817 -0.1372508406639099 0.0995049774646759 0 0 255
-0.7603843212127686 -0.08560474961996078 0.27939894795417786 0 0 255
-0.6833219528198242 0.2518497407436371 0.3247702419757843 0 0 255
-0.6115910410881042 0.3078255355358124 0.3463186025619507 0 0 255
-0.5441592931747437 0.3544662892818451 0.3555966019630432 0 0 255
-0.46895188093185425 0.3964065611362457 0.3287908732891083 0 0 255
-0.46972277760505676 0.308157742023468 0.282770574092865 0 0 255
-0.496368944644928 0.21403980255126953 0.32412099838256836 0 0 255
-0.49749755859375 0.15291552245616913 0.2887323498725891 0 0 255
-0.567169725894928 0.16309785842895508 0.21325863897800446 0 0 255
-0.5590844750404358 -0.06987134367227554 -0.040509678423404694 0 0 255
-0.24472269415855408 -0.13614428043365479 -0.278510183095932 0 0 255
-0.3323536217212677 0.013186484575271606 -0.4845294952392578 0 0 255
-0.4505816400051117 -0.09656548500061035 -0.2473515272140503 0 0 255
-0.21733282506465912 -0.18781664967536926 -0.11170829832553864 0 0 255
-0.10550820082426071 -0.20527343451976776 -0.24618545174598694 0 0 255
0.12281037867069244 -0.05248937010765076 -0.2947147786617279 0 0 255
0.369232714176178 0.5293439626693726 -0.13765257596969604 0 0 255
0.4466165602207184 0.5843155980110168 -0.08357995003461838 0 0 255
0.4057822525501251 0.616614580154419 -0.006859778426587582 0 0 255
0.40081357955932617 0.6885659098625183 -0.06944823265075684 0 0 255
0.5881361961364746 0.6130906939506531 -0.18955063819885254 0 0 255
0.6550121903419495 0.16019535064697266 -0.3691578209400177 0 0 255
0.4922957420349121 -0.2329215705394745 -0.45090100169181824 0 0 255
0.3472932279109955 -0.42251521348953247 -0.4824000298976898 0 0 255
0.327079176902771 -0.4683786630630493 -0.4367560148239136 0 0 255
0.3807711601257324 -0.45478278398513794 -0.4709293246269226 0 0 255
0.25518110394477844 -0.48278340697288513 -0.5647679567337036 0 0 255
0.3079424798488617 -0.4992732107639313 -0.5434044003486633 0 0 255
0.30939337611198425 -0.5637785792350769 -0.4656047523021698 0 0 255
0.36236274242401123 -0.613083004951477 -0.4723879396915436 0 0 255
0.28115031123161316 -0.5640685558319092 -0.5520979762077332 0 0 255
0.15623053908348083 -0.5284891128540039 -0.5890485048294067 0 0 255
0.19392141699790955 -0.5610607266426086 -0.5566574931144714 0 0 255
0.17588889598846436 -0.5769242644309998 -0.5576271414756775 0 0 255
0.047832585871219635 -0.6485624313354492 -0.5937108993530273 0 0 255
0.009064609184861183 -0.592756986618042 -0.6619800329208374 0 0 255
-0.06429556012153625 -0.6753616333007812 -0.5811612010002136 0 0 255
-0.005814556963741779 -0.7000881433486938 -0.5687015652656555 0 0 255
0.014093299396336079 -0.5412541031837463 -0.5902975797653198 0 0 255
0.05689924582839012 -0.5134069919586182 -0.6528449654579163 0 0 255
0.16671548783779144 -0.45840469002723694 -0.5632752776145935 0 0 255
0.2768966257572174 -0.350271075963974 -0.5761032700538635 0 0 255
0.03820919990539551 -0.3580031096935272 -0.4585489332675934 0 0 255
-0.12978428602218628 -0.18205483257770538 -0.3700709939002991 0 0 255
-0.14919878542423248 -0.2837427258491516 -0.4139208197593689 0 0 255
-0.20258161425590515 -0.3894025981426239 -0.4369145631790161 0 0 255
-0.3298889100551605 -0.5168498754501343 -0.4027063250541687 0 0 255
-0.11566648632287979 -0.5516964197158813 -0.44184228777885437 0 0 255
-0.10364235192537308 -0.6143057942390442 -0.4404204189777374 0 0 255
-0.008182997815310955 -0.6580478549003601 -0.4605528712272644 0 0 255
0.023243295028805733 -0.6860042214393616 -0.4339129328727722 0 0 255
0.008050652220845222 -0.6977198719978333 -0.4220915138721466 0 0 255
-0.0762636587023735 -0.708608865737915 -0.4534895718097687 0 0 255
0.017120296135544777 -0.6951322555541992 -0.5067511796951294 0 0 255
0.14877602458000183 -0.6920808553695679 -0.5272316336631775 0 0 255
0.14784719049930573 -0.7090703845024109 -0.5167309045791626 0 0 255
0.16697049140930176 -0.7274706959724426 -0.48183688521385193 0 0 255
0.29365071654319763 -0.6887429356575012 -0.5023196935653687 0 0 255
0.2585867643356323 -0.744634747505188 -0.4907747507095337 0 0 255
0.10210685431957245 -0.7993316054344177 -0.41164374351501465 0 0 255
0.05515216290950775 -0.7764800190925598 -0.4199243187904358 0 0 255
-0.006064818240702152 -0.7992388010025024 -0.389076292514801 0 0 255
0.011883582919836044 -0.7820530533790588 -0.40666091442108154 0 0 255
0.05244990065693855 -0.7860713601112366 -0.39187559485435486 0 0 255
0.11849214136600494 -0.782191812992096 -0.36738136410713196 0 0 255
0.1271645575761795 -0.7595834136009216 -0.32297009229660034 0 0 255
0.15971076488494873 -0.6828575730323792 -0.3079625070095062 0 0 255
0.15985974669456482 -0.6674187183380127 -0.260074645280838 0 0 255
0.17847175896167755 -0.7198502421379089 -0.29260915517807007 0 0 255
0.17395339906215668 -0.7254701852798462 -0.30793094635009766 0 0 255
0.190931037068367 -0.7606083154678345 -0.4053712487220764 0 0 255
0.012904551811516285 -0.8307366967201233 -0.382391095161438 0 0 255
0.07272190600633621 -0.796714186668396 -0.4216739237308502 0 0 255
0.03331960737705231 -0.7677882313728333 -0.4240220785140991 0 0 255
-0.050509974360466 -0.7957780361175537 -0.4033087193965912 0 0 255
0.030251802876591682 -0.768722653388977 -0.5313796997070312 0 0 255
-0.0042460947297513485 -0.7806892395019531 -0.49861741065979004 0 0 255
-0.03996235132217407 -0.7503271102905273 -0.4904276728630066 0 0 255
0.003977188374847174 -0.7330963611602783 -0.47214198112487793 0 0 255
-0.04848109930753708 -0.7408097386360168 -0.4994109869003296 0 0 255
-0.10083241015672684 -0.7247992157936096 -0.5226225256919861 0 0 255
-0.14065803587436676 -0.7112858891487122 -0.5444266200065613 0 0 255
-0.13487757742404938 -0.607379674911499 -0.5724890828132629 0 0 255
-0.024155432358384132 -0.31586024165153503 -0.5489697456359863 0 0 255
0.08111146092414856 -0.09524905681610107 -0.5371432304382324 0 0 255
-0.02952505461871624 -0.07841881364583969 -0.4989272654056549 0 0 255
-0.14402149617671967 -0.22992192208766937 -0.43139439821243286 0 0 255
-0.1077561229467392 -0.3272448778152466 -0.48055583238601685 0 0 255
-0.15071159601211548 -0.4312465488910675 -0.5078752636909485 0 0 255
-0.14255020022392273 -0.4193994998931885 -0.5486042499542236 0 0 255
-0.15454597771167755 -0.4401831030845642 -0.5393214821815491 0 0 255
-0.11388880759477615 -0.44209107756614685 -0.5449817180633545 0 0 255
-0.13396352529525757 -0.39780181646347046 -0.5274818539619446 0 0 255
-0.08719894289970398 -0.379962295293808 -0.5377780199050903 0 0 255
-0.08652646839618683 -0.32936060428619385 -0.5257439017295837 0 0 255
-0.08991517126560211 -0.28133222460746765 -0.516156017780304 0 0 255
0.0011593097588047385 -0.2802693843841553 -0.5540532469749451 0 0 255
0.08097352832555771 -0.2594802975654602 -0.5910574793815613 0 0 255
0.04774339497089386 -0.2743206024169922 -0.5632052421569824 0 0 255
0.1764610856771469 -0.2756376564502716 -0.5413285493850708 0 0 255
0.14440713822841644 -0.3236568570137024 -0.5322065949440002 0 0 255
-0.02731662429869175 -0.5120582580566406 -0.46345993876457214 0 0 255
-0.02218932844698429 -0.5980741381645203 -0.44638311862945557 0 0 255
0.013965466991066933 -0.6697425842285156 -0.5422553420066833 0 0 255
0.02894487977027893 -0.7206693291664124 -0.5790923833847046 0 0 255
-0.06540001183748245 -0.748400092124939 -0.541679859161377 0 0 255
-0.07946302741765976 -0.7702886462211609 -0.5736125111579895 0 0 255
-0.03787516802549362 -0.7600679993629456 -0.6150583028793335 0 0 255
-0.09382656216621399 -0.7610087990760803 -0.605993390083313 0 0 255
-0.06593754142522812 -0.7455006837844849 -0.6371799111366272 0 0 255
-0.034967441111803055 -0.7490649819374084 -0.6262801289558411 0 0 255
-0.08637922257184982 -0.7567393183708191 -0.5895494818687439 0 0 255
-0.0456988587975502 -0.7650399804115295 -0.6132440567016602 0 0 255
-0.02603853866457939 -0.7725958824157715 -0.6108810305595398 0 0 255
-0.04204824939370155 -0.7504844069480896 -0.6286212205886841 0 0 255
-0.07493914663791656 -0.7406850457191467 -0.602759838104248 0 0 255
-0.030624067410826683 -0.7407970428466797 -0.6127679347991943 0 0 255
0.03265436738729477 -0.7528870701789856 -0.605754017829895 0 0 255
0.0674925297498703 -0.7436926960945129 -0.615563154220581 0 0 255
0.01804378069937229 -0.7426868677139282 -0.588614821434021 0 0 255
0.043548475950956345 -0.7295206189155579 -0.570633590221405 0 0 255
0.03567587584257126 -0.7091327905654907 -0.5557001233100891 0 0 255
0.07888723164796829 -0.6780129671096802 -0.5974620580673218 0 0 255
0.08568933606147766 -0.6562484502792358 -0.6127412915229797 0 0 255
0.09094798564910889 -0.6470571756362915 -0.6180639863014221 0 0 255
0.1277327835559845 -0.6019250750541687 -0.6763435006141663 0 0 255
0.08814281225204468 -0.5207074880599976 -0.7289808392524719 0 0 255
-0.06241205707192421 -0.5381524562835693 -0.6259321570396423 0 0 255
-0.019163992255926132 -0.5865870714187622 -0.5661731958389282 0 0 255
0.02792949415743351 -0.5424959063529968 -0.5125939249992371 0 0 255
-0.07062815874814987 -0.5517479181289673 -0.39959716796875 0 0 255
-0.08887580782175064 -0.577031135559082 -0.38342249393463135 0 0 255
-0.11647011339664459 -0.673620343208313 -0.39729923009872437 0 0 255
-0.06442974507808685 -0.7216563820838928 -0.44440656900405884 0 0 255
-0.07605443894863129 -0.6854606866836548 -0.46776407957077026 0 0 255
-0.15178941190242767 -0.6306262612342834 -0.5319534540176392 0 0 255
-0.09708428382873535 -0.6477831602096558 -0.5224001407623291 0 0 255
-0.04677369073033333 -0.6724204421043396 -0.477582186460495 0 0 255
-0.07205118238925934 -0.6758615374565125 -0.482404500246048 0 0 255
-0.09513041377067566 -0.699147641658783 -0.5124554634094238 0 0 255
-0.022997591644525528 -0.6905151605606079 -0.4502253234386444 0 0 255
-0.03258774057030678 -0.7026129364967346 -0.36968180537223816 0 0 255
0.1268969625234604 -0.6808281540870667 -0.36300861835479736 0 0 255
0.11857982724905014 -0.6552994251251221 -0.34502944350242615 0 0 255
0.09221985936164856 -0.7158186435699463 -0.2632984519004822 0 0 255
0.1818723827600479 -0.7742053866386414 -0.27481696009635925 0 0 255
0.03194393962621689 -0.7647013068199158 -0.3472442924976349 0 0 255
-0.021779747679829597 -0.7736926674842834 -0.40609970688819885 0 0 255
0.09391697496175766 -0.725128173828125 -0.5002760291099548 0 0 255
0.1475895345211029 -0.6200083494186401 -0.5885802507400513 0 0 255
0.15800558030605316 -0.5822455883026123 -0.6016224026679993 0 0 255
0.15702369809150696 -0.5671483278274536 -0.5764364004135132 0 0 255
0.11451293528079987 -0.6128796339035034 -0.5585563778877258 0 0 255
-0.00023501715622842312 -0.656430184841156 -0.4967285692691803 0 0 255
0.009221083484590054 -0.7369052171707153 -0.4625762701034546 0 0 255
-0.18472273647785187 -0.8102424144744873 -0.4102368652820587 0 0 255
-0.2558082044124603 -0.7856333255767822 -0.4119373559951782 0 0 255
-0.3152943551540375 -0.6748344898223877 -0.49319636821746826 0 0 255
-0.2909483313560486 -0.7175700068473816 -0.5156316161155701 0 0 255
-0.14526274800300598 -0.7636711001396179 -0.4999978840351105 0 0 255
-0.2687143385410309 -0.7837767004966736 -0.37781161069869995 0 0 255
-0.3768739700317383 -0.8102978467941284 -0.3164900541305542 0 0 255
-0.4454391300678253 -0.7488364577293396 -0.2989466190338135 0 0 255
-0.3953036069869995 -0.7649977803230286 -0.4143202602863312 0 0 255
-0.4385455250740051 -0.6541934013366699 -0.46622341871261597 0 0 255
-0.4766893982887268 -0.5444076657295227 -0.5137976408004761 0 0 255
-0.45697060227394104 -0.5347158908843994 -0.4700503349304199 0 0 255
-0.3362392485141754 -0.5436380505561829 -0.42929092049598694 0 0 255
-0.46162837743759155 -0.4754299521446228 -0.4147879481315613 0 0 255
-0.489846795797348 -0.3737642765045166 -0.4219764769077301 0 0 255
-0.45100027322769165 -0.2767123281955719 -0.35865679383277893 0 0 255
-0.3593605160713196 -0.3592972457408905 -0.3406818211078644 0 0 255
-0.40556082129478455 -0.39807915687561035 -0.40799152851104736 0 0 255
-0.507930338382721 -0.35383620858192444 -0.3929680585861206 0 0 255
-0.5199780464172363 -0.4479232728481293 -0.3544604778289795 0 0 255
-0.4922674894332886 -0.4667988717556 -0.3484634459018707 0 0 255
-0.5428964495658875 -0.41654330492019653 -0.28420472145080566 0 0 255
-0.6246785521507263 -0.41881558299064636 -0.2144218534231186 0 0 255
-0.5853578448295593 -0.3816213607788086 -0.1916079968214035 0 0 255
-0.5953332781791687 -0.423250675201416 -0.17012768983840942 0 0 255
-0.5882595777511597 -0.3046211302280426 -0.168006032705307 0 0 255
-0.6214462518692017 -0.32073700428009033 -0.17660664021968842 0 0 255
-0.5238102078437805 -0.2612482011318207 -0.18529637157917023 0 0 255
-0.51542067527771 -0.32467177510261536 -0.21016037464141846 0 0 255
-0.515415608882904 -0.29370370507240295 -0.19725236296653748 0 0 255
-0.5053205490112305 -0.29481831192970276 -0.2017415165901184 0 0 255
-0.5245892405509949 -0.36412230134010315 -0.15223932266235352 0 0 255
-0.4280717074871063 -0.30706170201301575 -0.16624224185943604 0 0 255
-0.4842764735221863 -0.27994874119758606 -0.08941079676151276 0 0 255
-0.4443000257015228 -0.06885983049869537 0.01621291972696781 0 0 255
-0.43878182768821716 0.07363197207450867 0.10479749739170074 0 0 255
-0.43744876980781555 0.1038079783320427 0.16661857068538666 0 0 255
-0.47499895095825195 0.04604927822947502 0.13646958768367767 0 0 255
-0.5176367163658142 -0.035160131752491 0.08916318416595459 0 0 255
-0.5594788193702698 -0.0009393806685693562 0.03237088397145271 0 0 255
-0.5211849808692932 0.0213465616106987 0.01379334181547165 0 0 255
-0.4920139014720917 0.07262326776981354 0.09308230131864548 0 0 255
-0.5045319199562073 0.13700348138809204 0.1132090836763382 0 0 255
-0.528924822807312 0.11668173968791962 0.08822492510080338 0 0 255
-0.5698927044868469 0.05023149773478508 0.10335015505552292 0 0 255
-0.4880579710006714 0.06886257976293564 0.08851142227649689 0 0 255
-0.537860095500946 -0.005042013246566057 0.07683858275413513 0 0 255
-0.5246872305870056 -0.03526228293776512 0.07923628389835358 0 0 255
-0.5420016050338745 -0.04470531642436981 0.06370551884174347 0 0 255
-0.5772823095321655 -0.009330455213785172 0.036900535225868225 0 0 255
-0.5666593909263611 0.04058060795068741 0.051711078733205795 0 0 255
-0.5162936449050903 0.12510079145431519 0.13614672422409058 0 0 255
-0.4801126718521118 0.13280023634433746 0.09590579569339752 0 0 255
-0.5079121589660645 0.1576160192489624 0.12110522389411926 0 0 255
-0.455779492855072 0.1600610762834549 0.18396860361099243 0 0 255
-0.46320128440856934 0.18939946591854095 0.2352459877729416 0 0 255
-0.5035351514816284 0.2209121733903885 0.21843856573104858 0 0 255
-0.49385565519332886 0.16686393320560455 0.19236283004283905 0 0 255
-0.4984113276004791 0.04373691976070404 0.1816704273223877 0 0 255
-0.5532419681549072 -0.04043332114815712 0.22419486939907074 0 0 255
-0.5665683746337891 -0.06485984474420547 0.22721901535987854 0 0 255
-0.5720430016517639 -0.06771158427000046 0.26371222734451294 0 0 255
-0.6166225671768188 -0.09743162989616394 0.2702692151069641 0 0 255
-0.6695643067359924 -0.02406744658946991 0.24305395781993866 0 0 255
-0.6762582063674927 -0.0007172480109147727 0.2707037925720215 0 0 255
-0.5782489776611328 0.06526363641023636 0.3706631362438202 0 0 255
-0.4821551740169525 0.1414831578731537 0.4767104685306549 0 0 255
-0.4323181211948395 0.1968683898448944 0.47615694999694824 0 0 255
-0.42970478534698486 0.22530287504196167 0.48141932487487793 0 0 255
-0.41918936371803284 0.21372665464878082 0.4847348928451538 0 0 255
-0.4571099281311035 0.21453054249286652 0.504861056804657 0 0 255
-0.43405771255493164 0.2400672882795334 0.4674176573753357 0 0 255
-0.538926362991333 0.16592828929424286 0.4381728768348694 0 0 255
-0.494422972202301 0.12378264218568802 0.433513343334198 0 0 255
-0.5069355368614197 0.057049453258514404 0.3824099898338318 0 0 255
-0.5456451773643494 -0.013955219648778439 0.36495593190193176 0 0 255
-0.5684970617294312 -0.015309401787817478 0.4100404381752014 0 0 255
-0.5635666251182556 -0.05893869325518608 0.46194350719451904 0 0 255
-0.5303542017936707 -0.07869324833154678 0.5058594942092896 0 0 255
-0.5411214232444763 -0.1264703869819641 0.5200662016868591 0 0 255
-0.5535431504249573 -0.1966993510723114 0.47631701827049255 0 0 255
-0.5420379042625427 -0.2198895961046219 0.4632457494735718 0 0 255
-0.5742626190185547 -0.2270711362361908 0.438658744096756 0 0 255
-0.620352029800415 -0.18971820175647736 0.42432934045791626 0 0 255
-0.4825085997581482 -0.058217234909534454 0.4566906988620758 0 0 255
-0.5827276110649109 -0.0036063361912965775 0.496270090341568 0 0 255
-0.5254294276237488 0.06797221302986145 0.31471580266952515 0 0 255
-0.5637102723121643 -0.1265828162431717 0.2830073833465576 0 0 255
-0.6508640646934509 -0.22229920327663422 0.2471676617860794 0 0 255
-0.6644313335418701 -0.3319830298423767 0.21406038105487823 0 0 255
-0.6779986023902893 -0.4675845503807068 0.18709124624729156 0 0 255
-0.6411285996437073 -0.5506700873374939 0.15472018718719482 0 0 255
-0.6642521023750305 -0.55013108253479 0.14591681957244873 0 0 255
-0.6590535640716553 -0.5322278141975403 0.05330505222082138 0 0 255
-0.649804949760437 -0.482392281293869 0.03694069758057594 0 0 255
-0.6027119755744934 -0.4875747263431549 0.035687051713466644 0 0 255
-0.5789163112640381 -0.44522950053215027 0.06079741567373276 0 0 255
-0.605283260345459 -0.4389740228652954 0.0013674672227352858 0 0 255
-0.6262813210487366 -0.4280848801136017 -0.046323761343955994 0 0 255
-0.6266847848892212 -0.31861424446105957 0.029777420684695244 0 0 255
-0.5952410101890564 -0.2748090624809265 0.10243590176105499 0 0 255
-0.5709124207496643 -0.18409356474876404 0.14450716972351074 0 0 255
-0.658586323261261 -0.17813676595687866 0.1940992921590805 0 0 255
-0.6436267495155334 -0.20567697286605835 0.21994231641292572 0 0 255
-0.6598150134086609 -0.19418318569660187 0.30056267976760864 0 0 255
-0.6781845092773438 -0.1550738513469696 0.33870407938957214 0 0 255
-0.7105745673179626 -0.20905572175979614 0.40099066495895386 0 0 255
-0.6686023473739624 -0.3201341927051544 0.3599226772785187 0 0 255
-0.6766559481620789 -0.449214369058609 0.29810547828674316 0 0 255
-0.6713376641273499 -0.5491087436676025 0.24479061365127563 0 0 255
-0.6588255763053894 -0.5987331867218018 0.18679167330265045 0 0 255
-0.6541787385940552 -0.5848984718322754 0.21915437281131744 0 0 255
-0.6820652484893799 -0.5666049718856812 0.30221354961395264 0 0 255
-0.635062038898468 -0.5590125322341919 0.31885093450546265 0 0 255
-0.626381516456604 -0.5839251279830933 0.29778236150741577 0 0 255
-0.6584469676017761 -0.5194455981254578 0.2616753876209259 0 0 255
-0.7195693850517273 -0.46520155668258667 0.23381397128105164 0 0 255
-0.6588724851608276 -0.46751031279563904 0.07708986103534698 0 0 255
-0.673448920249939 -0.45122453570365906 0.08630656450986862 0 0 255
-0.6607627272605896 -0.5058749914169312 0.018345922231674194 0 0 255
-0.6374027132987976 -0.5021768808364868 0.037868108600378036 0 0 255
-0.615875780582428 -0.48039448261260986 0.07149916142225266 0 0 255
-0.6162849068641663 -0.45219025015830994 0.08966707438230515 0 0 255
-0.6347832083702087 -0.4299675226211548 0.10213951766490936 0 0 255
-0.6434553265571594 -0.4086468815803528 0.1534109264612198 0 0 255
-0.6268203854560852 -0.3891676068305969 0.19747388362884521 0 0 255
-0.6450042128562927 -0.4037221372127533 0.22985626757144928 0 0 255
-0.6558413505554199 -0.5220243334770203 0.19810210168361664 0 0 255
-0.5262424349784851 -0.6581335663795471 0.11637786775827408 0 0 255
-0.324263334274292 -0.5010360479354858 0.16611985862255096 0 0 255
-0.41450920701026917 -0.4854601323604584 0.2669609785079956 0 0 255
-0.2961071729660034 -0.4950750172138214 0.43038854002952576 0 0 255
-0.3096437156200409 -0.4360481798648834 0.48336198925971985 0 0 255
-0.2888568341732025 -0.41263681650161743 0.5402253866195679 0 0 255
-0.19537049531936646 -0.20078276097774506 0.5806527137756348 0 0 255
-0.19157204031944275 -0.09783367812633514 0.5718567371368408 0 0 255
-0.11958923190832138 -0.0189046673476696 0.5675889849662781 0 0 255
-0.12333676964044571 -0.019405515864491463 0.6052678227424622 0 0 255
-0.1040898784995079 -0.06937986612319946 0.6109686493873596 0 0 255
-0.14614629745483398 -0.16770032048225403 0.6128770112991333 0 0 255
-0.119583360850811 -0.24333129823207855 0.6093248724937439 0 0 255
-0.1113549992442131 -0.3238714337348938 0.5714710354804993 0 0 255
-0.10781098902225494 -0.26351475715637207 0.529166579246521 0 0 255
-0.1674693375825882 -0.3462471663951874 0.5409484505653381 0 0 255
-0.249921977519989 -0.46491509675979614 0.4803175926208496 0 0 255
-0.273078978061676 -0.5426472425460815 0.4565916061401367 0 0 255
-0.3059538006782532 -0.5274640321731567 0.44556528329849243 0 0 255
-0.3050289750099182 -0.5554230213165283 0.4693349301815033 0 0 255
-0.32215726375579834 -0.4889605641365051 0.4843023717403412 0 0 255
-0.3268658220767975 -0.3418811559677124 0.5390325784683228 0 0 255
-0.40049511194229126 -0.2776316702365875 0.6025006175041199 0 0 255
-0.43876659870147705 -0.3737389147281647 0.5681797862052917 0 0 255
-0.4551548659801483 -0.4847652316093445 0.48324328660964966 0 0 255
-0.49011242389678955 -0.5913152098655701 0.36206120252609253 0 0 255
-0.5122995972633362 -0.6009971499443054 0.3576231598854065 0 0 255
-0.4657614231109619 -0.5874954462051392 0.4068547487258911 0 0 255
-0.4734000861644745 -0.6047829389572144 0.44068825244903564 0 0 255
-0.505260169506073 -0.6051614880561829 0.40353456139564514 0 0 255
-0.4781702160835266 -0.6628815531730652 0.35988134145736694 0 0 255
-0.5070242881774902 -0.6902440786361694 0.29948288202285767 0 0 255
-0.520828366279602 -0.7155722379684448 0.24740636348724365 0 0 255
-0.5465393662452698 -0.6939921975135803 0.24126285314559937 0 0 255
-0.5733364224433899 -0.6931137442588806 0.18886588513851166 0 0 255
-0.5989974141120911 -0.6694998741149902 0.22319534420967102 0 0 255
-0.570881187915802 -0.7134012579917908 0.18953706324100494 0 0 255
-0.5529260635375977 -0.7178486585617065 0.13611473143100739 0 0 255
-0.601201057434082 -0.7412261366844177 0.10854196548461914 0 0 255
-0.6484751105308533 -0.7301298379898071 0.10356470197439194 0 0 255
-0.6336241364479065 -0.7398831248283386 0.12012836337089539 0 0 255
-0.6436864137649536 -0.723427951335907 0.1505790501832962 0 0 255
-0.6908873319625854 -0.6424366235733032 0.1879851222038269 0 0 255
-0.7225514054298401 -0.570242702960968 0.21296223998069763 0 0 255
-0.8153878450393677 -0.4039401113986969 0.23800167441368103 0 0 255
-0.8513094782829285 -0.2769923210144043 0.14898164570331573 0 0 255
-0.86781245470047 -0.34085986018180847 0.1449333131313324 0 0 255
-0.7669835686683655 -0.39451080560684204 0.06238815188407898 0 0 255
-0.6617576479911804 -0.5250334739685059 -0.0031287597957998514 0 0 255
-0.6089391112327576 -0.5974201560020447 -0.10874784737825394 0 0 255
-0.5949215888977051 -0.6463798880577087 -0.1573636531829834 0 0 255
-0.5717858076095581 -0.6668791174888611 -0.22195035219192505 0 0 255
-0.5388920307159424 -0.6873425841331482 -0.23274540901184082 0 0 255
-0.49955984950065613 -0.7004532814025879 -0.25473448634147644 0 0 255
-0.4799463450908661 -0.7025743126869202 -0.3031100332736969 0 0 255
-0.4644715487957001 -0.711503267288208 -0.2904684841632843 0 0 255
-0.4404368996620178 -0.6945813298225403 -0.33201947808265686 0 0 255
-0.45072734355926514 -0.6971670389175415 -0.31032365560531616 0 0 255
-0.45561641454696655 -0.6752169132232666 -0.3202725946903229 0 0 255
-0.4159652590751648 -0.6932171583175659 -0.28426045179367065 0 0 255
-0.3590107262134552 -0.7299533486366272 -0.30264338850975037 0 0 255
-0.3733002245426178 -0.7100387811660767 -0.3374001979827881 0 0 255
-0.3579731285572052 -0.6848788261413574 -0.3877643346786499 0 0 255
-0.325825035572052 -0.6688437461853027 -0.44674938917160034 0 0 255
-0.36948779225349426 -0.6302196979522705 -0.46317213773727417 0 0 255
-0.3899276554584503 -0.5936297178268433 -0.45315292477607727 0 0 255
-0.4172016382217407 -0.5782526135444641 -0.44585686922073364 0 0 255
-0.41185861825942993 -0.3792162835597992 -0.5174248814582825 0 0 255
-0.3869291841983795 -0.18602703511714935 -0.4960469603538513 0 0 255
-0.21875151991844177 -0.14369995892047882 -0.5655171871185303 0 0 255
-0.09179474413394928 -0.1536761075258255 -0.599694013595581 0 0 255
-0.1575232893228531 0.0160383153706789 -0.6955611109733582 0 0 255
-0.16662824153900146 0.22036956250667572 -0.5956844687461853 0 0 255
-0.26413390040397644 0.33146196603775024 -0.5452017784118652 0 0 255
-0.3734792172908783 0.3107801377773285 -0.31496042013168335 0 0 255
-0.10610347241163254 0.5250983834266663 -0.07373835891485214 0 0 255
-0.2591630518436432 0.6052935719490051 -0.04660172760486603 0 0 255
-0.4640405476093292 0.37800925970077515 -0.08033854514360428 0 0 255
-0.49263954162597656 0.3710123896598816 -0.2543414831161499 0 0 255
-0.39103013277053833 0.36741799116134644 -0.38803932070732117 0 0 255
-0.34359660744667053 0.11324720084667206 -0.5367209315299988 0 0 255
0.0018237301846966147 0.11487916857004166 -0.5126715302467346 0 0 255
0.17489753663539886 0.3223312199115753 -0.5602221488952637 0 0 255
0.1351475864648819 0.180161252617836 -0.5932286977767944 0 0 255
0.2703591585159302 0.0625990778207779 -0.6258055567741394 0 0 255
0.1395840048789978 -0.04850924387574196 -0.6211227178573608 0 0 255
0.14084208011627197 -0.18667523562908173 -0.6577078104019165 0 0 255
0.059440623968839645 -0.28703704476356506 -0.6287159323692322 0 0 255
0.05528971925377846 -0.32666781544685364 -0.5528019070625305 0 0 255
-0.006461625453084707 -0.375750869512558 -0.43211129307746887 0 0 255
0.0728977620601654 -0.38390788435935974 -0.4675488770008087 0 0 255
0.10494650900363922 -0.4968685209751129 -0.4900900423526764 0 0 255
0.109744131565094 -0.5208993554115295 -0.5799406170845032 0 0 255
0.06617051362991333 -0.49688494205474854 -0.6882137656211853 0 0 255
-0.18231171369552612 -0.5858423709869385 -0.633256733417511 0 0 255
-0.008866963908076286 -0.5299109816551208 -0.5894163846969604 0 0 255
-0.15882250666618347 -0.5279380679130554 -0.5055655837059021 0 0 255
-0.10488895326852798 -0.5983468294143677 -0.5262453556060791 0 0 255
-0.0029815356247127056 -0.6790498495101929 -0.4833788275718689 0 0 255
-0.1201111376285553 -0.7835527062416077 -0.27901721000671387 0 0 255
-0.025871053338050842 -0.7204774022102356 -0.38009798526763916 0 0 255
-0.05430084839463234 -0.690415620803833 -0.311745822429657 0 0 255
0.020354844629764557 -0.5836271047592163 -0.2928824722766876 0 0 255
-0.10697070509195328 -0.5595297813415527 -0.2764270603656769 0 0 255
-0.07797525823116302 -0.33275654911994934 -0.22113390266895294 0 0 255
-0.05016579478979111 -0.43524104356765747 -0.033724430948495865 0 0 255
0.03185821324586868 -0.4485309422016144 0.18001656234264374 0 0 255
0.11920454353094101 -0.1117141991853714 0.3414396047592163 0 0 255
0.10197073966264725 0.07333695888519287 0.45032134652137756 0 0 255
0.07146896421909332 0.21776992082595825 0.5346272587776184 0 0 255
0.047002971172332764 0.25172361731529236 0.5938282608985901 0 0 255
0.028499022126197815 0.2575438618659973 0.6500898599624634 0 0 255
0.016212821006774902 0.26806625723838806 0.663942277431488 0 0 255
-0.002724426332861185 0.2526867091655731 0.6719275116920471 0 0 255
-0.02138564921915531 0.2574755847454071 0.687862753868103 0 0 255
0.0017899359809234738 0.23823459446430206 0.6758908033370972 0 0 255
-0.01607643999159336 0.18335294723510742 0.6548283100128174 0 0 255
-0.059193726629018784 0.10342517495155334 0.6474433541297913 0 0 255
-0.022723976522684097 0.06089632585644722 0.6152136921882629 0 0 255
-0.02031875215470791 0.04184504225850105 0.5899269580841064 0 0 255
-0.007464853581041098 -0.03204559162259102 0.5995257496833801 0 0 255
0.008467623963952065 -0.06384468823671341 0.5826998353004456 0 0 255
-0.01973089575767517 -0.1388571560382843 0.5266507863998413 0 0 255
-0.039434824138879776 -0.21711815893650055 0.4364280700683594 0 0 255
-0.0013122711097821593 -0.29349544644355774 0.3715361952781677 0 0 255
0.06346233934164047 -0.3374095857143402 0.33422017097473145 0 0 255
0.046060074120759964 -0.34051313996315 0.3421293795108795 0 0 255
0.009257317520678043 -0.3016575574874878 0.3816071152687073 0 0 255
0.0025376002304255962 -0.2600928843021393 0.3698876202106476 0 0 255
-0.021542618051171303 -0.20067176222801208 0.37280869483947754 0 0 255
0.050159621983766556 -0.10514111071825027 0.46655768156051636 0 0 255
0.10390562564134598 -0.11913087218999863 0.47330644726753235 0 0 255
0.06033208221197128 -0.18563424050807953 0.3796100914478302 0 0 255
0.11753802001476288 -0.3239296078681946 0.19425639510154724 0 0 255
0.11300595849752426 -0.4134248197078705 0.06684063374996185 0 0 255
0.23614996671676636 -0.3405839204788208 0.044841594994068146 0 0 255
0.2991180121898651 -0.3114560544490814 0.054903674870729446 0 0 255
0.2701517641544342 -0.4760780930519104 0.004317574668675661 0 0 255
0.2709296941757202 -0.49915584921836853 -0.02573985420167446 0 0 255
0.20877483487129211 -0.5017634034156799 -0.05673378333449364 0 0 255
0.23650823533535004 -0.5119670629501343 -0.12425138801336288 0 0 255
0.31417542695999146 -0.5030096173286438 -0.1239732950925827 0 0 255
0.28866684436798096 -0.4979039430618286 -0.16936255991458893 0 0 255
0.18743494153022766 -0.546074628829956 -0.2531234323978424 0 0 255
0.17246240377426147 -0.5732354521751404 -0.25117307901382446 0 0 255
0.22120152413845062 -0.5272120237350464 -0.19988484680652618 0 0 255
0.20268268883228302 -0.5393121242523193 -0.16097094118595123 0 0 255
0.2248048484325409 -0.5336530208587646 -0.17073096334934235 0 0 255
0.22572219371795654 -0.5689218640327454 -0.16973593831062317 0 0 255
0.22506342828273773 -0.620759129524231 -0.1497836709022522 0 0 255
0.26843276619911194 -0.6508575677871704 -0.15087802708148956 0 0 255
0.1447955220937729 -0.7190995812416077 -0.13196317851543427 0 0 255
0.0842382162809372 -0.7404953241348267 -0.17491409182548523 0 0 255
0.051245249807834625 -0.7382597327232361 -0.179274320602417 0 0 255
0.07414069771766663 -0.7493599653244019 -0.1791083812713623 0 0 255
0.14019529521465302 -0.6774433255195618 -0.1636705994606018 0 0 255
0.07484468817710876 -0.6786149740219116 -0.0796377882361412 0 0 255
0.17641127109527588 -0.5775574445724487 0.011303601786494255 0 0 255
0.11504005640745163 -0.5324229001998901 0.11456340551376343 0 0 255
0.20016762614250183 -0.3906337022781372 0.17753809690475464 0 0 255
0.17725659906864166 -0.3602830767631531 0.15285180509090424 0 0 255
0.14499105513095856 -0.404440701007843 0.0944904312491417 0 0 255
0.1392488181591034 -0.3860340118408203 0.037349894642829895 0 0 255
0.1407054364681244 -0.31619754433631897 0.036633074283599854 0 0 255
0.14815954864025116 -0.3366755247116089 0.06297211349010468 0 0 255
0.29318830370903015 -0.2745108902454376 0.16294725239276886 0 0 255
0.4118964672088623 -0.1359919309616089 0.14571833610534668 0 0 255
0.475358784198761 -0.010844332166016102 0.1528371274471283 0 0 255
0.39693307876586914 0.009090349078178406 0.23615385591983795 0 0 255
0.5345036387443542 0.08043605089187622 0.26662880182266235 0 0 255
0.5637277960777283 0.11341161280870438 0.3627703785896301 0 0 255
0.5205091834068298 0.02799604833126068 0.33111366629600525 0 0 255
0.4549590051174164 -0.15138188004493713 0.1806211918592453 0 0 255
0.25913766026496887 -0.3322528600692749 0.10569792985916138 0 0 255
0.27890366315841675 -0.28962770104408264 0.04940946027636528 0 0 255
0.28706687688827515 -0.36055776476860046 -0.012051300145685673 0 0 255
0.3104374408721924 -0.5205064415931702 -0.12503734230995178 0 0 255
0.2974414527416229 -0.5810633897781372 -0.19550125300884247 0 0 255
0.25101009011268616 -0.6240931749343872 -0.28202012181282043 0 0 255
0.19443216919898987 -0.6788362264633179 -0.3628993332386017 0 0 255
0.1809752881526947 -0.7194115519523621 -0.3595007061958313 0 0 255
0.16560007631778717 -0.7293703556060791 -0.35908663272857666 0 0 255
0.08937937766313553 -0.7415030002593994 -0.427142471075058 0 0 255
0.08685792237520218 -0.7294372320175171 -0.45553213357925415 0 0 255
0.08303132653236389 -0.7380689382553101 -0.4627383053302765 0 0 255
0.13685327768325806 -0.7306845188140869 -0.45497652888298035 0 0 255
0.327707976102829 -0.5784125328063965 -0.3829684555530548 0 0 255
0.39619559049606323 -0.41308391094207764 -0.21341626346111298 0 0 255
0.4354214668273926 -0.23776690661907196 -0.09105538576841354 0 0 255
0.46888065338134766 0.003963977564126253 -0.005760939326137304 0 0 255
0.4889475405216217 0.07811091095209122 0.0506143644452095 0 0 255
0.5466222167015076 0.14458534121513367 0.10494539886713028 0 0 255
0.5488126277923584 0.18364712595939636 0.14482910931110382 0 0 255
0.5967147946357727 0.21417689323425293 0.17618001997470856 0 0 255
0.6048039793968201 0.20722262561321259 0.18462292850017548 0 0 255
0.6617277264595032 0.20760123431682587 0.18365898728370667 0 0 255
0.6837691068649292 0.15142273902893066 0.17076759040355682 0 0 255
0.6789621710777283 0.15339839458465576 0.1145150437951088 0 0 255
0.6880318522453308 0.15271583199501038 0.07858197391033173 0 0 255
0.6999139785766602 0.174599289894104 0.10863076150417328 0 0 255
0.7320647835731506 0.2431964874267578 0.14755398035049438 0 0 255
0.7323242425918579 0.2460596263408661 0.19100984930992126 0 0 255
0.7855591177940369 0.2331659197807312 0.14001105725765228 0 0 255
0.8077928423881531 0.2520810663700104 0.12486039102077484 0 0 255
0.8343522548675537 0.36290842294692993 0.09324025362730026 0 0 255
0.795756459236145 0.42157691717147827 0.06366570293903351 0 0 255
0.7233304977416992 0.4554723799228668 0.07512248307466507 0 0 255
0.6312249898910522 0.47742968797683716 0.0991082489490509 0 0 255
0.6163367629051208 0.4814050495624542 0.07856874912977219 0 0 255
0.5399641990661621 0.5757888555526733 0.19329112768173218 0 0 255
0.5454115271568298 0.5731310844421387 0.25412729382514954 0 0 255
0.5285711884498596 0.5621843338012695 0.17764481902122498 0 0 255
0.5359596014022827 0.5347921252250671 0.021318601444363594 0 0 255
0.5219476222991943 0.5519489049911499 0.01296495646238327 0 0 255
0.564636766910553 0.5657647848129272 0.11475913971662521 0 0 255
0.500899612903595 0.48392045497894287 0.13022130727767944 0 0 255
0.48512449860572815 0.25473782420158386 -0.021935800090432167 0 0 255
0.3484920859336853 -0.13647612929344177 -0.14262136816978455 0 0 255
0.17471124231815338 -0.3849124014377594 -0.19276374578475952 0 0 255
0.16756834089756012 -0.5683125853538513 -0.23864519596099854 0 0 255
0.25854241847991943 -0.5028724074363708 -0.18025174736976624 0 0 255
0.46518293023109436 -0.3867969810962677 -0.14341579377651215 0 0 255
0.5658701658248901 -0.32217878103256226 -0.19294196367263794 0 0 255
0.5770278573036194 -0.10034864395856857 -0.13906164467334747 0 0 255
0.6030899286270142 0.07123031467199326 0.03107890859246254 0 0 255
0.6617757081985474 0.23557978868484497 0.07055361568927765 0 0 255
0.6683769226074219 0.33643025159835815 0.21119986474514008 0 0 255
0.6990434527397156 0.46002280712127686 0.25674986839294434 0 0 255
0.6581072211265564 0.5751427412033081 0.2830696702003479 0 0 255
0.6122468709945679 0.6274847388267517 0.2601361870765686 0 0 255
0.555668830871582 0.6194064021110535 0.23391133546829224 0 0 255
0.4932240843772888 0.6057150959968567 0.22892865538597107 0 0 255
0.43491649627685547 0.5573391318321228 0.19761894643306732 0 0 255
0.3844481110572815 0.5460644364356995 0.2501528859138489 0 0 255
0.4372371435165405 0.5175132751464844 0.2742411196231842 0 0 255
0.42099103331565857 0.4361792802810669 0.31817251443862915 0 0 255
0.47419607639312744 0.44422611594200134 0.328175812959671 0 0 255
0.47892481088638306 0.5122979283332825 0.34710630774497986 0 0 255
0.46132537722587585 0.6072002649307251 0.3424098789691925 0 0 255
0.4599623680114746 0.6340762376785278 0.31642889976501465 0 0 255
0.38769790530204773 0.6555174589157104 0.32609766721725464 0 0 255
0.3586728274822235 0.6714610457420349 0.3741553723812103 0 0 255
0.34357020258903503 0.651472270488739 0.4276410639286041 0 0 255
0.4098687469959259 0.6486342549324036 0.37110117077827454 0 0 255
0.3335932195186615 0.6393855810165405 0.3963451087474823 0 0 255
0.24744023382663727 0.6070531010627747 0.3591395616531372 0 0 255
0.2544923424720764 0.6334410309791565 0.3680442273616791 0 0 255
0.19658923149108887 0.7353714108467102 0.39967143535614014 0 0 255
0.2096070498228073 0.7129343152046204 0.4159610867500305 0 0 255
0.22663676738739014 0.7314762473106384 0.34399843215942383 0 0 255
0.09263690561056137 0.7319645285606384 0.3755156397819519 0 0 255
0.07757235318422318 0.6939953565597534 0.37818920612335205 0 0 255
0.02462097443640232 0.6417083740234375 0.39659035205841064 0 0 255
-0.04923882335424423 0.6402274966239929 0.44000765681266785 0 0 255
-0.1296657919883728 0.5784144401550293 0.4389195144176483 0 0 255
-0.2459263950586319 0.5386149883270264 0.5139555931091309 0 0 255
-0.26195013523101807 0.5445531606674194 0.4851512312889099 0 0 255
-0.2246210277080536 0.6045883893966675 0.5045254230499268 0 0 255
-0.25753816962242126 0.5628896355628967 0.46217435598373413 0 0 255
-0.16211159527301788 0.5140341520309448 0.42237359285354614 0 0 255
-0.2848345637321472 0.35822102427482605 0.3159210979938507 0 0 255
-0.28940466046333313 0.29195696115493774 0.2637563645839691 0 0 255
-0.25777897238731384 0.2979510426521301 0.27891966700553894 0 0 255
-0.27950534224510193 0.18822945654392242 0.2752505838871002 0 0 255
-0.16022208333015442 0.20263658463954926 0.22669120132923126 0 0 255
-0.18780139088630676 0.25228241086006165 0.29262885451316833 0 0 255
-0.22674304246902466 0.22504150867462158 0.3419940769672394 0 0 255
-0.2701064944267273 0.2630354166030884 0.36328327655792236 0 0 255
-0.3153712749481201 0.2929977476596832 0.40513676404953003 0 0 255
-0.2997991442680359 0.20455484092235565 0.4454441964626312 0 0 255
-0.3367915749549866 0.12229251861572266 0.4153100848197937 0 0 255
-0.49626606702804565 -0.06167157366871834 0.2777535021305084 0 0 255
-0.5443164110183716 -0.2939775884151459 0.17525441944599152 0 0 255
-0.49319198727607727 -0.22589649260044098 0.24263541400432587 0 0 255
-0.4000053107738495 -0.09098771214485168 0.3378298878669739 0 0 255
-0.36991897225379944 -0.07126738876104355 0.3568000793457031 0 0 255
-0.17289187014102936 0.11405276507139206 0.24588288366794586 0 0 255
-0.2471870332956314 -0.08440670371055603 0.2911125421524048 0 0 255
-0.25413891673088074 -0.2640306353569031 0.4198012053966522 0 0 255
-0.22208428382873535 -0.16813556849956512 0.4703666567802429 0 0 255
-0.07282977551221848 -0.03961122781038284 0.46963176131248474 0 0 255
-0.05415273457765579 -0.026280734688043594 0.48450741171836853 0 0 255
0.024008655920624733 0.08614225685596466 0.48804667592048645 0 0 255
0.08617256581783295 0.20913535356521606 0.5175241827964783 0 0 255
0.14557577669620514 0.2567729949951172 0.5409665703773499 0 0 255
0.12793418765068054 0.31144487857818604 0.5460480451583862 0 0 255
0.1720646619796753 0.38240426778793335 0.5782404541969299 0 0 255
0.1601153463125229 0.4083903133869171 0.6140990257263184 0 0 255
0.14365524053573608 0.4202045500278473 0.610562264919281 0 0 255
0.10643330216407776 0.4273720979690552 0.6181654930114746 0 0 255
0.028874939307570457 0.35060566663742065 0.6466974020004272 0 0 255
-0.02155553735792637 0.3512808084487915 0.6140996217727661 0 0 255
-0.15025343000888824 0.3103983402252197 0.6116310358047485 0 0 255
-0.21980354189872742 0.21861615777015686 0.6688887476921082 0 0 255
-0.17660677433013916 0.2100263237953186 0.6889069080352783 0 0 255
-0.18755961954593658 0.143955796957016 0.6530280113220215 0 0 255
-0.2706829607486725 -0.0026288817171007395 0.5980148911476135 0 0 255
-0.3665904700756073 -0.11983928084373474 0.568743109703064 0 0 255
-0.4402496814727783 -0.2518022060394287 0.530887246131897 0 0 255
-0.510890781879425 -0.413625031709671 0.4571312665939331 0 0 255
-0.5670993328094482 -0.45212092995643616 0.4136224389076233 0 0 255
-0.5729755759239197 -0.4181777834892273 0.41496542096138 0 0 255
-0.6433092951774597 -0.4120517373085022 0.3836010694503784 0 0 255
-0.602219820022583 -0.3341313302516937 0.4032996892929077 0 0 255
-0.5307170748710632 -0.3332977890968323 0.410135418176651 0 0 255
-0.5562618374824524 -0.4040292799472809 0.401464581489563 0 0 255
-0.6270339488983154 -0.4031849503517151 0.324361652135849 0 0 255
-0.5841672420501709 -0.499622642993927 0.22954417765140533 0 0 255
-0.6088411211967468 -0.5221979022026062 0.19990453124046326 0 0 255
-0.6211152672767639 -0.5192933678627014 0.19902771711349487 0 0 255
-0.6152342557907104 -0.5017479062080383 0.1849600374698639 0 0 255
-0.6079607009887695 -0.5860291123390198 0.17279519140720367 0 0 255
-0.5814998745918274 -0.6638430953025818 0.09187141805887222 0 0 255
-0.5414151549339294 -0.6615324020385742 0.10004918277263641 0 0 255
-0.5559569597244263 -0.6613840460777283 0.16750018298625946 0 0 255
-0.583614706993103 -0.6395052671432495 0.11498569697141647 0 0 255
