ply
format ascii 1.0
element vertex 677
property float x
property float y
property float z
property uchar red
property uchar green
property uchar blue
end_header
-0.43004506826400757 -0.18993213772773743 0.3710271418094635 0 0 255
-0.4522210955619812 -0.19524702429771423 0.31510740518569946 0 0 255
-0.4203161299228668 -0.18330274522304535 0.3083597421646118 0 0 255
-0.4265039265155792 -0.1811591237783432 0.28836843371391296 0 0 255
-0.4279853105545044 -0.17042063176631927 0.27590274810791016 0 0 255
-0.42364633083343506 -0.17256435751914978 0.26899856328964233 0 0 255
-0.40882205963134766 -0.1780097633600235 0.2622292637825012 0 0 255
-0.40953630208969116 -0.17975841462612152 0.22775481641292572 0 0 255
-0.40519803762435913 -0.16571669280529022 0.20239992439746857 0 0 255
-0.404382586479187 -0.15464670956134796 0.19439373910427094 0 0 255
-0.41618549823760986 -0.15077637135982513 0.20155370235443115 0 0 255
-0.42548084259033203 -0.14600913226604462 0.2083348035812378 0 0 255
-0.4262741208076477 -0.1428910344839096 0.2302132546901703 0 0 255
-0.4208042323589325 -0.14408829808235168 0.20742349326610565 0 0 255
-0.39898499846458435 -0.1569487303495407 0.20489902794361115 0 0 255
-0.39330220222473145 -0.15368881821632385 0.1893996000289917 0 0 255
-0.3754298686981201 -0.16290423274040222 0.18604911863803864 0 0 255
-0.3772028088569641 -0.1694251298904419 0.16350077092647552 0 0 255
-0.3711603283882141 -0.17145337164402008 0.17632927000522614 0 0 255
-0.3648797869682312 -0.17403540015220642 0.16618064045906067 0 0 255
-0.37637463212013245 -0.18200072646141052 0.17290014028549194 0 0 255
-0.38980013132095337 -0.18415960669517517 0.18158632516860962 0 0 255
-0.3941170573234558 -0.177038311958313 0.19716057181358337 0 0 255
-0.3945145905017853 -0.18163350224494934 0.21151673793792725 0 0 255
-0.4103013277053833 -0.18410123884677887 0.2111179381608963 0 0 255
-0.41188865900039673 -0.20200704038143158 0.22391439974308014 0 0 255
-0.4169658422470093 -0.19421657919883728 0.23400752246379852 0 0 255
-0.412386417388916 -0.1920652985572815 0.22785791754722595 0 0 255
-0.4045436680316925 -0.19035212695598602 0.21927976608276367 0 0 255
-0.3924831748008728 -0.18398700654506683 0.17900940775871277 0 0 255
-0.36074864864349365 -0.17035432159900665 0.14656592905521393 0 0 255
-0.3353321850299835 -0.14600853621959686 0.11766354739665985 0 0 255
-0.31370559334754944 -0.12210992723703384 0.08438234031200409 0 0 255
-0.3013378381729126 -0.12150116264820099 0.048120394349098206 0 0 255
-0.29677051305770874 -0.11561592668294907 0.03796197474002838 0 0 255
-0.28707388043403625 -0.11737509816884995 0.03127817064523697 0 0 255
-0.2866579294204712 -0.12587237358093262 0.02501026727259159 0 0 255
-0.28991633653640747 -0.12828734517097473 0.021301614120602608 0 0 255
-0.29088422656059265 -0.1254635900259018 0.023281140252947807 0 0 255
-0.26601725816726685 -0.11013870686292648 -0.007038378622382879 0 0 255
-0.24785654246807098 -0.09043896198272705 -0.0393112376332283 0 0 255
-0.23370100557804108 -0.08675272017717361 -0.05869755521416664 0 0 255
-0.23250427842140198 -0.08554523438215256 -0.07851941138505936 0 0 255
-0.1992070972919464 -0.0636686161160469 -0.10111305862665176 0 0 255
-0.18734276294708252 -0.044316645711660385 -0.11843634396791458 0 0 255
-0.1773563176393509 -0.06753592193126678 -0.161289781332016 0 0 255
-0.17192025482654572 -0.04700511693954468 -0.13604462146759033 0 0 255
-0.18204039335250854 -0.04807458445429802 -0.14825022220611572 0 0 255
-0.17091479897499084 -0.052377939224243164 -0.13747380673885345 0 0 255
-0.15140250325202942 -0.027504293248057365 -0.14807800948619843 0 0 255
-0.1180514246225357 -0.0030335092451423407 -0.17746195197105408 0 0 255
-0.0824555903673172 0.0010467220563441515 -0.2134941667318344 0 0 255
-0.06851295381784439 0.007195272948592901 -0.2348591834306717 0 0 255
-0.0643189400434494 -0.004593796096742153 -0.2298552542924881 0 0 255
-0.06723805516958237 0.011095576919615269 -0.22827482223510742 0 0 255
-0.07379034161567688 0.0025289678014814854 -0.22022655606269836 0 0 255
-0.07955894619226456 0.00045237012091092765 -0.21496762335300446 0 0 255
-0.08464036881923676 -0.014173497445881367 -0.2020316869020462 0 0 255
-0.09429296851158142 -0.013390649110078812 -0.19550403952598572 0 0 255
-0.08939754217863083 -0.011702065356075764 -0.19478033483028412 0 0 255
-0.09665002673864365 -0.008751041255891323 -0.19956521689891815 0 0 255
-0.09336666762828827 -0.005713331513106823 -0.20404957234859467 0 0 255
-0.10115598142147064 -0.002446434460580349 -0.19791856408119202 0 0 255
-0.11057929694652557 -0.014284121803939342 -0.19369624555110931 0 0 255
-0.11437951773405075 -0.014651155099272728 -0.18187367916107178 0 0 255
-0.11542242020368576 -0.018007881939411163 -0.1799778789281845 0 0 255
-0.12406030297279358 -0.009534607641398907 -0.1790267527103424 0 0 255
-0.12903721630573273 -0.0025730545166879892 -0.17282718420028687 0 0 255
-0.11135412752628326 -0.0006658064667135477 -0.1777513474225998 0 0 255
-0.09938912093639374 0.0017756834859028459 -0.1885019987821579 0 0 255
-0.10669538378715515 0.00011503560381243005 -0.18242719769477844 0 0 255
-0.12294957786798477 -0.008469655178487301 -0.17655351758003235 0 0 255
-0.1219254806637764 -0.008257766254246235 -0.16210225224494934 0 0 255
-0.12517637014389038 -0.004692429210990667 -0.1606387048959732 0 0 255
-0.12467637658119202 0.004998127929866314 -0.17700409889221191 0 0 255
-0.11434684693813324 0.023049991577863693 -0.1874094009399414 0 0 255
-0.09967846423387527 0.03115633875131607 -0.20132538676261902 0 0 255
-0.10670338571071625 0.030733786523342133 -0.18771077692508698 0 0 255
-0.12124769389629364 0.030481619760394096 -0.17867238819599152 0 0 255
-0.1274079978466034 0.0200177188962698 -0.15584607422351837 0 0 255
-0.15039366483688354 0.01291990652680397 -0.129240483045578 0 0 255
-0.16536371409893036 -0.005998427513986826 -0.12349078059196472 0 0 255
-0.17423942685127258 -0.0019394737901166081 -0.11387505382299423 0 0 255
-0.14984917640686035 0.006394717842340469 -0.1303822249174118 0 0 255
-0.13955190777778625 0.0126158082857728 -0.15483999252319336 0 0 255
-0.13844910264015198 0.011879606172442436 -0.15793679654598236 0 0 255
-0.14457471668720245 0.010824440978467464 -0.15240038931369781 0 0 255
-0.140714630484581 0.011938384734094143 -0.1639869213104248 0 0 255
-0.12468168139457703 0.011996939778327942 -0.17321009933948517 0 0 255
-0.11555399000644684 0.01001095212996006 -0.18123023211956024 0 0 255
-0.1278993934392929 0.0006230746512301266 -0.1666090339422226 0 0 255
-0.13789768517017365 0.0017794508021324873 -0.15907171368598938 0 0 255
-0.13186828792095184 0.003362242365255952 -0.16137443482875824 0 0 255
-0.129119873046875 -0.0006866886396892369 -0.16643273830413818 0 0 255
-0.13120809197425842 9.732082980917767e-05 -0.17740049958229065 0 0 255
-0.11695323884487152 0.0052504632622003555 -0.17904001474380493 0 0 255
-0.10256994515657425 0.021037867292761803 -0.17798112332820892 0 0 255
-0.0960150882601738 0.02321901172399521 -0.19314652681350708 0 0 255
-0.0929335430264473 0.02874325029551983 -0.2069815695285797 0 0 255
-0.08083127439022064 0.037305038422346115 -0.22121267020702362 0 0 255
-0.07774222642183304 0.04281935468316078 -0.22769679129123688 0 0 255
-0.07861930131912231 0.04491569846868515 -0.2373339682817459 0 0 255
-0.08188062906265259 0.05870484933257103 -0.215843066573143 0 0 255
-0.08868307620286942 0.0651060938835144 -0.2047589272260666 0 0 255
-0.08117128908634186 0.06574307382106781 -0.20821678638458252 0 0 255
-0.06133941933512688 0.09004925191402435 -0.22493737936019897 0 0 255
-0.04553079232573509 0.11456833779811859 -0.23700830340385437 0 0 255
-0.0476740263402462 0.11555209010839462 -0.24988208711147308 0 0 255
-0.053072694689035416 0.12851054966449738 -0.2283637374639511 0 0 255
-0.05661343038082123 0.13361503183841705 -0.23723003268241882 0 0 255
-0.05896627530455589 0.1303342878818512 -0.24998106062412262 0 0 255
-0.039434533566236496 0.15068738162517548 -0.2497406303882599 0 0 255
-0.053487956523895264 0.14007003605365753 -0.21118739247322083 0 0 255
-0.07516616582870483 0.12076649069786072 -0.21476876735687256 0 0 255
-0.07737912982702255 0.11129376292228699 -0.2120610475540161 0 0 255
-0.06424560397863388 0.10227067768573761 -0.21041347086429596 0 0 255
-0.06435126811265945 0.08949107676744461 -0.21585915982723236 0 0 255
-0.06265291571617126 0.062150657176971436 -0.19827695190906525 0 0 255
-0.11070096492767334 0.0217959675937891 -0.14577379822731018 0 0 255
-0.16915661096572876 -0.02761489525437355 -0.0997847318649292 0 0 255
-0.18683211505413055 -0.05066406726837158 -0.08950087428092957 0 0 255
-0.18998271226882935 -0.046509139239788055 -0.08175072818994522 0 0 255
-0.18227648735046387 -0.044471703469753265 -0.08971234411001205 0 0 255
-0.17753353714942932 -0.05784254148602486 -0.10227403044700623 0 0 255
-0.17871932685375214 -0.05611925199627876 -0.09896276146173477 0 0 255
-0.17836980521678925 -0.06519629061222076 -0.09428134560585022 0 0 255
-0.1797861009836197 -0.06657849252223969 -0.09135469794273376 0 0 255
-0.1777866780757904 -0.062122710049152374 -0.09312276542186737 0 0 255
-0.15978772938251495 -0.04919759929180145 -0.11429847776889801 0 0 255
-0.132184699177742 -0.031124912202358246 -0.13760295510292053 0 0 255
-0.12335571646690369 -0.013686245307326317 -0.1471104770898819 0 0 255
-0.12197203934192657 -0.025555206462740898 -0.15668626129627228 0 0 255
-0.1261208951473236 -0.03238699212670326 -0.1504940241575241 0 0 255
-0.12893575429916382 -0.016826307401061058 -0.14997351169586182 0 0 255
-0.11423758417367935 -0.007038824260234833 -0.16890962421894073 0 0 255
-0.10715071111917496 -0.0019054905278608203 -0.17466774582862854 0 0 255
-0.0983177199959755 0.011016208678483963 -0.19014793634414673 0 0 255
-0.12212077528238297 -0.010091478936374187 -0.16246961057186127 0 0 255
-0.14313450455665588 -0.034487299621105194 -0.15612292289733887 0 0 255
-0.12224483489990234 -0.05527424439787865 -0.1552402824163437 0 0 255
-0.10282484441995621 -0.032113127410411835 -0.16907326877117157 0 0 255
-0.0788373276591301 -0.02382265403866768 -0.18658244609832764 0 0 255
-0.0761396661400795 -0.012620365247130394 -0.20090973377227783 0 0 255
-0.07336895167827606 -0.014859884977340698 -0.2029942274093628 0 0 255
-0.06512656062841415 -0.012063492089509964 -0.21073180437088013 0 0 255
-0.057062361389398575 -0.011092139407992363 -0.20544029772281647 0 0 255
-0.05340617522597313 -0.005359632428735495 -0.20975269377231598 0 0 255
-0.06124138459563255 -0.014973628334701061 -0.21038413047790527 0 0 255
-0.07032815366983414 -0.031973544508218765 -0.20850753784179688 0 0 255
-0.08985288441181183 -0.04427572712302208 -0.1818293333053589 0 0 255
-0.09184703975915909 -0.0579957515001297 -0.20356743037700653 0 0 255
-0.09533035010099411 -0.057994294911623 -0.19271422922611237 0 0 255
-0.08281483501195908 -0.06232701614499092 -0.2073134332895279 0 0 255
-0.08472948521375656 -0.058697592467069626 -0.20909231901168823 0 0 255
-0.08649953454732895 -0.055273931473493576 -0.2046540230512619 0 0 255
-0.09025011211633682 -0.059412796050310135 -0.19444458186626434 0 0 255
-0.10361780226230621 -0.08587386459112167 -0.1744566112756729 0 0 255
-0.12305068224668503 -0.11267422139644623 -0.15463455021381378 0 0 255
-0.12341450154781342 -0.11434518545866013 -0.1563345193862915 0 0 255
-0.10033108294010162 -0.08700479567050934 -0.1921747475862503 0 0 255
-0.048679232597351074 -0.06378597021102905 -0.23044589161872864 0 0 255
-0.029989199712872505 -0.03720114380121231 -0.2528543770313263 0 0 255
-0.007772146724164486 -0.0259105172008276 -0.24486173689365387 0 0 255
-0.008953922428190708 -0.04399816691875458 -0.24281653761863708 0 0 255
-0.01988246478140354 -0.04206627234816551 -0.22090885043144226 0 0 255
-0.021210994571447372 -0.02390306629240513 -0.19653503596782684 0 0 255
-0.03185364976525307 -0.03984830155968666 -0.2151915580034256 0 0 255
-0.03008371591567993 -0.018222928047180176 -0.21367229521274567 0 0 255
-0.03934893757104874 -0.020823270082473755 -0.20187978446483612 0 0 255
-0.0512547492980957 -0.026809047907590866 -0.20755325257778168 0 0 255
-0.05159274861216545 -0.03433353453874588 -0.20478571951389313 0 0 255
-0.06209688261151314 -0.030467510223388672 -0.20061112940311432 0 0 255
-0.06792741268873215 -0.02833639830350876 -0.20446747541427612 0 0 255
-0.06567630916833878 -0.030754970386624336 -0.20217399299144745 0 0 255
-0.06216385215520859 -0.024979321286082268 -0.204168438911438 0 0 255
-0.06333079934120178 -0.02604062110185623 -0.208124041557312 0 0 255
-0.08117532730102539 -0.027477160096168518 -0.19174617528915405 0 0 255
-0.11123695969581604 -0.03496232256293297 -0.16624340415000916 0 0 255
-0.12677453458309174 -0.057015202939510345 -0.1513388305902481 0 0 255
-0.13906864821910858 -0.061243101954460144 -0.13624033331871033 0 0 255
-0.14388267695903778 -0.059716083109378815 -0.13275349140167236 0 0 255
-0.14715026319026947 -0.06621924787759781 -0.12497560679912567 0 0 255
-0.15755431354045868 -0.07084958255290985 -0.11302076280117035 0 0 255
-0.16128669679164886 -0.07914542406797409 -0.10896103829145432 0 0 255
-0.16197986900806427 -0.08254577219486237 -0.10821745544672012 0 0 255
-0.16029232740402222 -0.0815989300608635 -0.11049330234527588 0 0 255
-0.15133431553840637 -0.07643771916627884 -0.1164029985666275 0 0 255
-0.13903048634529114 -0.07085514813661575 -0.1251145303249359 0 0 255
-0.13873696327209473 -0.06802867352962494 -0.12610067427158356 0 0 255
-0.1526997983455658 -0.06506887078285217 -0.11601251363754272 0 0 255
-0.1713130623102188 -0.06296766549348831 -0.10128149390220642 0 0 255
-0.1836358606815338 -0.07249363511800766 -0.09741629660129547 0 0 255
-0.1860557347536087 -0.07572290301322937 -0.09693899005651474 0 0 255
-0.1787586361169815 -0.07563190162181854 -0.10496364533901215 0 0 255
-0.16972774267196655 -0.06770520657300949 -0.11665943264961243 0 0 255
-0.1596524864435196 -0.05551895499229431 -0.1279415786266327 0 0 255
-0.14708270132541656 -0.049700066447257996 -0.1361621767282486 0 0 255
-0.13933736085891724 -0.05238691344857216 -0.14676350355148315 0 0 255
-0.13581104576587677 -0.05168739706277847 -0.14616863429546356 0 0 255
-0.13941989839076996 -0.0483161024749279 -0.1438615620136261 0 0 255
-0.1435844451189041 -0.05708435922861099 -0.14387518167495728 0 0 255
-0.14755326509475708 -0.060676995664834976 -0.13543914258480072 0 0 255
-0.14515118300914764 -0.06152312085032463 -0.13212238252162933 0 0 255
-0.14329402148723602 -0.06538626551628113 -0.13724350929260254 0 0 255
-0.14455243945121765 -0.06505391001701355 -0.13717298209667206 0 0 255
-0.14608176052570343 -0.06120569258928299 -0.13505002856254578 0 0 255
-0.14397160708904266 -0.06559891998767853 -0.13877008855342865 0 0 255
-0.13996829092502594 -0.0676511600613594 -0.13763073086738586 0 0 255
-0.14429064095020294 -0.06264948099851608 -0.13545368611812592 0 0 255
-0.14524582028388977 -0.06397347897291183 -0.13736389577388763 0 0 255
-0.14005382359027863 -0.06197689101099968 -0.14100271463394165 0 0 255
-0.13365496695041656 -0.0551118440926075 -0.15140506625175476 0 0 255
-0.12242332100868225 -0.04810309037566185 -0.1614261269569397 0 0 255
-0.11389286816120148 -0.04047808796167374 -0.17018353939056396 0 0 255
-0.11273312568664551 -0.04112539812922478 -0.17034000158309937 0 0 255
-0.12066125869750977 -0.040245410054922104 -0.16353024542331696 0 0 255
-0.1261424571275711 -0.045040909200906754 -0.15668167173862457 0 0 255
-0.1262427121400833 -0.0523807555437088 -0.15823006629943848 0 0 255
-0.12117353826761246 -0.04460896924138069 -0.15626133978366852 0 0 255
-0.12046074122190475 -0.033680543303489685 -0.16280093789100647 0 0 255
-0.1262282133102417 -0.03542075678706169 -0.16484534740447998 0 0 255
-0.14048247039318085 -0.040688492357730865 -0.14904730021953583 0 0 255
-0.15049609541893005 -0.04597724601626396 -0.13711969554424286 0 0 255
-0.155291348695755 -0.05037492513656616 -0.13817080855369568 0 0 255
-0.158363938331604 -0.04997691512107849 -0.13660667836666107 0 0 255
-0.16209803521633148 -0.052357226610183716 -0.1281992644071579 0 0 255
-0.17073871195316315 -0.0560314878821373 -0.1235736608505249 0 0 255
-0.16952896118164062 -0.06184614822268486 -0.12256909906864166 0 0 255
-0.16494354605674744 -0.056706398725509644 -0.12268058955669403 0 0 255
-0.15806661546230316 -0.0542386919260025 -0.12915979325771332 0 0 255
-0.14934951066970825 -0.04772432520985603 -0.14353448152542114 0 0 255
-0.13427138328552246 -0.04170101135969162 -0.15399637818336487 0 0 255
-0.12453091889619827 -0.03126669302582741 -0.16565141081809998 0 0 255
-0.11572016030550003 -0.028060242533683777 -0.17338445782661438 0 0 255
-0.10791359096765518 -0.015877610072493553 -0.18163545429706573 0 0 255
-0.09862273931503296 -0.007318449672311544 -0.19157390296459198 0 0 255
-0.09601195901632309 0.0010957797057926655 -0.2006545066833496 0 0 255
-0.08717034757137299 0.005031920503824949 -0.20318609476089478 0 0 255
-0.08474133908748627 0.008982744067907333 -0.20364123582839966 0 0 255
-0.08767390251159668 0.00509744742885232 -0.20891477167606354 0 0 255
-0.0912126675248146 0.007040185853838921 -0.2039080411195755 0 0 255
-0.08990033715963364 0.010578962042927742 -0.20479342341423035 0 0 255
-0.08489751070737839 0.007056661415845156 -0.20566542446613312 0 0 255
-0.08459233492612839 0.004250077065080404 -0.20463959872722626 0 0 255
-0.08440857380628586 0.0040433271788060665 -0.20657683908939362 0 0 255
-0.08202029019594193 0.007684624288231134 -0.21051666140556335 0 0 255
-0.07799652218818665 0.014553762041032314 -0.21619561314582825 0 0 255
-0.08085491508245468 0.024067599326372147 -0.2146860510110855 0 0 255
-0.08823416382074356 0.018467899411916733 -0.2126799076795578 0 0 255
-0.0964418575167656 0.010919666849076748 -0.2027360051870346 0 0 255
-0.10194593667984009 0.011408311314880848 -0.18904411792755127 0 0 255
-0.1015816479921341 0.006411830894649029 -0.19017620384693146 0 0 255
-0.09798641502857208 0.0034568440169095993 -0.19511158764362335 0 0 255
-0.09489893168210983 0.005090625490993261 -0.19674500823020935 0 0 255
-0.09466483443975449 0.00015204890223685652 -0.19397561252117157 0 0 255
-0.10647814720869064 -0.004733932204544544 -0.18139012157917023 0 0 255
-0.1099710538983345 -0.012955660000443459 -0.18047364056110382 0 0 255
-0.10687831789255142 -0.013025792315602303 -0.176189586520195 0 0 255
-0.10875076055526733 -0.008135734125971794 -0.17687782645225525 0 0 255
-0.10825000703334808 -0.008613980375230312 -0.17972826957702637 0 0 255
-0.11054874956607819 -0.012680982239544392 -0.1755162626504898 0 0 255
-0.1154366284608841 -0.013497612439095974 -0.17004276812076569 0 0 255
-0.11615102738142014 -0.008175164461135864 -0.16641220450401306 0 0 255
-0.12581150233745575 -0.015116107650101185 -0.16531722247600555 0 0 255
-0.142894446849823 -0.021481405943632126 -0.1536615937948227 0 0 255
-0.16280461847782135 -0.02435738407075405 -0.13004305958747864 0 0 255
-0.18593376874923706 -0.03409760817885399 -0.11050283908843994 0 0 255
-0.20411783456802368 -0.04801134765148163 -0.08036558330059052 0 0 255
-0.21206100285053253 -0.047654904425144196 -0.07639709860086441 0 0 255
-0.21466395258903503 -0.05242794379591942 -0.07390442490577698 0 0 255
-0.22027812898159027 -0.050449661910533905 -0.07130894064903259 0 0 255
-0.2269836664199829 -0.05034017190337181 -0.05498916283249855 0 0 255
-0.24099822342395782 -0.05438726767897606 -0.05335085839033127 0 0 255
-0.24464301764965057 -0.05587830767035484 -0.041562262922525406 0 0 255
-0.24656584858894348 -0.05132002755999565 -0.034822460263967514 0 0 255
-0.25182676315307617 -0.0570068433880806 -0.04847608506679535 0 0 255
-0.26175105571746826 -0.043415579944849014 -0.02292909100651741 0 0 255
-0.28476524353027344 -0.040241532027721405 0.0033451823983341455 0 0 255
-0.31529900431632996 -0.052549008280038834 0.03200019523501396 0 0 255
-0.3266292214393616 -0.047940269112586975 0.057646024972200394 0 0 255
-0.31686872243881226 -0.061068616807460785 0.05404059216380119 0 0 255
-0.31370049715042114 -0.06333953142166138 0.055099327117204666 0 0 255
-0.3253173232078552 -0.05235769599676132 0.061139460653066635 0 0 255
-0.3242388665676117 -0.07134460657835007 0.07132501155138016 0 0 255
-0.3212083578109741 -0.07997764647006989 0.05755668133497238 0 0 255
-0.3032957911491394 -0.08494308590888977 0.0509587861597538 0 0 255
-0.2928924262523651 -0.08290413022041321 0.042243193835020065 0 0 255
-0.2764770984649658 -0.08433318883180618 0.022023942321538925 0 0 255
-0.25194069743156433 -0.08038841187953949 -0.00801723264157772 0 0 255
-0.2238762229681015 -0.07340685278177261 -0.04291161522269249 0 0 255
-0.19523367285728455 -0.07667598873376846 -0.07305556535720825 0 0 255
-0.17657053470611572 -0.07201862335205078 -0.08998636156320572 0 0 255
-0.16275696456432343 -0.061900652945041656 -0.10189186781644821 0 0 255
-0.15704134106636047 -0.06223190948367119 -0.11111611127853394 0 0 255
-0.16231733560562134 -0.06734686344861984 -0.1113143339753151 0 0 255
-0.1699458658695221 -0.07101154327392578 -0.11034271121025085 0 0 255
-0.16713657975196838 -0.07237493246793747 -0.10909749567508698 0 0 255
-0.1669175773859024 -0.07107003033161163 -0.1003328338265419 0 0 255
-0.17622357606887817 -0.08205096423625946 -0.09197459369897842 0 0 255
-0.18862444162368774 -0.089230477809906 -0.08388999104499817 0 0 255
-0.19289785623550415 -0.09003803133964539 -0.07601067423820496 0 0 255
-0.19785548746585846 -0.10133318603038788 -0.06820817291736603 0 0 255
-0.206724151968956 -0.10800838470458984 -0.05811324715614319 0 0 255
-0.2146909385919571 -0.10989711433649063 -0.04978654161095619 0 0 255
-0.2262837141752243 -0.10503007471561432 -0.0410953052341938 0 0 255
-0.22721248865127563 -0.11409877985715866 -0.045375626534223557 0 0 255
-0.22205032408237457 -0.11357084661722183 -0.04720429703593254 0 0 255
-0.21769848465919495 -0.10982037335634232 -0.05143130570650101 0 0 255
-0.22478711605072021 -0.11805585026741028 -0.04706120118498802 0 0 255
-0.22279806435108185 -0.12409953027963638 -0.05100752413272858 0 0 255
-0.2089439034461975 -0.12512269616127014 -0.05730508267879486 0 0 255
-0.18980878591537476 -0.12497057020664215 -0.08183732628822327 0 0 255
-0.17525243759155273 -0.12270567566156387 -0.08473579585552216 0 0 255
-0.17971661686897278 -0.12608397006988525 -0.08181978762149811 0 0 255
-0.19171226024627686 -0.12994585931301117 -0.07967018336057663 0 0 255
-0.21574798226356506 -0.13666249811649323 -0.0627698078751564 0 0 255
-0.2465370148420334 -0.14302164316177368 -0.01417502574622631 0 0 255
-0.26226353645324707 -0.1685575544834137 0.013721426948904991 0 0 255
-0.24526213109493256 -0.17148250341415405 0.004952533636242151 0 0 255
-0.2134966105222702 -0.1629919558763504 -0.02759629487991333 0 0 255
-0.19639480113983154 -0.14737071096897125 -0.06092091649770737 0 0 255
-0.19723476469516754 -0.14940239489078522 -0.0763794332742691 0 0 255
-0.19325774908065796 -0.1496581733226776 -0.05707738175988197 0 0 255
-0.19405966997146606 -0.15173731744289398 -0.058194033801555634 0 0 255
-0.1994169056415558 -0.15537029504776 -0.05374183505773544 0 0 255
-0.21353040635585785 -0.15410003066062927 -0.03600499778985977 0 0 255
-0.23829789459705353 -0.16519775986671448 -0.01936992071568966 0 0 255
-0.24747730791568756 -0.17492517828941345 -0.005872419103980064 0 0 255
-0.23970477283000946 -0.15588553249835968 -0.004792196676135063 0 0 255
-0.23061519861221313 -0.14010776579380035 -0.012643711641430855 0 0 255
-0.23013029992580414 -0.15141062438488007 -0.029238734394311905 0 0 255
-0.2305387258529663 -0.14057303965091705 -0.02949879691004753 0 0 255
-0.23722301423549652 -0.13974355161190033 -0.022070493549108505 0 0 255
-0.243597149848938 -0.1466650813817978 -0.01683647744357586 0 0 255
-0.24631793797016144 -0.13984805345535278 -0.016962764784693718 0 0 255
-0.23889149725437164 -0.12592929601669312 -0.019775480031967163 0 0 255
-0.23344039916992188 -0.13239188492298126 -0.03053618222475052 0 0 255
-0.22947123646736145 -0.13695339858531952 -0.04174591228365898 0 0 255
-0.23015999794006348 -0.1287417709827423 -0.035159241408109665 0 0 255
-0.23921789228916168 -0.1337563693523407 -0.038596417754888535 0 0 255
-0.24772775173187256 -0.12264413386583328 -0.037235841155052185 0 0 255
-0.23845043778419495 -0.11409977823495865 -0.042655397206544876 0 0 255
-0.22279471158981323 -0.10584262013435364 -0.04967440292239189 0 0 255
-0.2354576140642166 -0.09825749695301056 -0.038143135607242584 0 0 255
-0.2499990463256836 -0.10226407647132874 -0.04197947308421135 0 0 255
-0.24304690957069397 -0.0898076593875885 -0.03865431621670723 0 0 255
-0.2261165976524353 -0.08922961354255676 -0.054459668695926666 0 0 255
-0.21184922754764557 -0.0913352370262146 -0.07159038633108139 0 0 255
-0.19933079183101654 -0.08542097359895706 -0.08235257118940353 0 0 255
-0.19035261869430542 -0.08082304149866104 -0.09635801613330841 0 0 255
-0.17355984449386597 -0.07952506840229034 -0.10180728882551193 0 0 255
-0.16729924082756042 -0.08143485337495804 -0.11059795320034027 0 0 255
-0.15631647408008575 -0.07958853244781494 -0.11609213799238205 0 0 255
-0.1550789475440979 -0.07610798627138138 -0.12071947008371353 0 0 255
-0.15490847826004028 -0.08230558037757874 -0.1267566680908203 0 0 255
-0.15108972787857056 -0.08256295323371887 -0.12404616177082062 0 0 255
-0.152083158493042 -0.07366857677698135 -0.13038912415504456 0 0 255
-0.14620627462863922 -0.07921221107244492 -0.13223953545093536 0 0 255
-0.14372552931308746 -0.0804423838853836 -0.1377125084400177 0 0 255
-0.14592930674552917 -0.07873983681201935 -0.12707407772541046 0 0 255
-0.15788887441158295 -0.07278583943843842 -0.1216011792421341 0 0 255
-0.17363481223583221 -0.08218789845705032 -0.10848281532526016 0 0 255
-0.18888898193836212 -0.08659809827804565 -0.10440406948328018 0 0 255
-0.18953530490398407 -0.08955837786197662 -0.08947528153657913 0 0 255
-0.18398110568523407 -0.0856059119105339 -0.09628097712993622 0 0 255
-0.1710655391216278 -0.08578167110681534 -0.10664699971675873 0 0 255
-0.15930671989917755 -0.08292049914598465 -0.11273418366909027 0 0 255
-0.15435102581977844 -0.08439913392066956 -0.1215907633304596 0 0 255
-0.15274015069007874 -0.08532747626304626 -0.12377987056970596 0 0 255
-0.14618194103240967 -0.07709658890962601 -0.12875548005104065 0 0 255
-0.14128117263317108 -0.07408080995082855 -0.1347290426492691 0 0 255
-0.13690221309661865 -0.07264447957277298 -0.14465318620204926 0 0 255
-0.1256532371044159 -0.07236086577177048 -0.15147657692432404 0 0 255
-0.11738763004541397 -0.065271757543087 -0.159047931432724 0 0 255
-0.11285791546106339 -0.0581800602376461 -0.1667802631855011 0 0 255
-0.10687938332557678 -0.05753736570477486 -0.1713860034942627 0 0 255
-0.10633967071771622 -0.056255608797073364 -0.17342111468315125 0 0 255
-0.10802752524614334 -0.0544830746948719 -0.17340737581253052 0 0 255
-0.10733842849731445 -0.05183606594800949 -0.1726856529712677 0 0 255
-0.10675666481256485 -0.0488579086959362 -0.17344999313354492 0 0 255
-0.10683972388505936 -0.04913433641195297 -0.17612750828266144 0 0 255
-0.1069764718413353 -0.04980440437793732 -0.17549648880958557 0 0 255
-0.10386688262224197 -0.041596297174692154 -0.17884986102581024 0 0 255
-0.09161663800477982 -0.036751892417669296 -0.18515539169311523 0 0 255
-0.08850733190774918 -0.0365513376891613 -0.19453118741512299 0 0 255
-0.08688689023256302 -0.0370589978992939 -0.19715279340744019 0 0 255
-0.08769486844539642 -0.035412732511758804 -0.19655992090702057 0 0 255
-0.08817872405052185 -0.03352949023246765 -0.19770783185958862 0 0 255
-0.08763530105352402 -0.03377659618854523 -0.19893263280391693 0 0 255
-0.08536340296268463 -0.030714821070432663 -0.20007985830307007 0 0 255
-0.07898739725351334 -0.026341760531067848 -0.20185987651348114 0 0 255
-0.07725819200277328 -0.025504086166620255 -0.20917382836341858 0 0 255
-0.07488372176885605 -0.02430805005133152 -0.21291998028755188 0 0 255
-0.07783757895231247 -0.024464495480060577 -0.20701083540916443 0 0 255
-0.08116641640663147 -0.02277339994907379 -0.20329104363918304 0 0 255
-0.08059139549732208 -0.02110140025615692 -0.20083807408809662 0 0 255
-0.07730953395366669 -0.021373657509684563 -0.20333078503608704 0 0 255
-0.0703921839594841 -0.020237691700458527 -0.20927737653255463 0 0 255
-0.0643923431634903 -0.015219248831272125 -0.21705734729766846 0 0 255
-0.06254022568464279 -0.01297590509057045 -0.22303929924964905 0 0 255
-0.056527476757764816 -0.0057284333743155 -0.2248450219631195 0 0 255
-0.04988790303468704 -0.004592192824929953 -0.22646240890026093 0 0 255
-0.0518726222217083 -0.011072511784732342 -0.2293054610490799 0 0 255
-0.054652728140354156 -0.0027726360131055117 -0.22254766523838043 0 0 255
-0.05172664299607277 -0.007277560420334339 -0.22548234462738037 0 0 255
-0.05998900905251503 -0.01455775648355484 -0.22342556715011597 0 0 255
-0.06635944545269012 -0.016553550958633423 -0.21737392246723175 0 0 255
-0.07084132730960846 -0.01697654463350773 -0.21506424248218536 0 0 255
-0.06804080307483673 -0.013327355496585369 -0.21662017703056335 0 0 255
-0.061633702367544174 -0.01272048894315958 -0.22174398601055145 0 0 255
-0.05791591852903366 -0.016293108463287354 -0.22578062117099762 0 0 255
-0.05795494467020035 -0.016001421958208084 -0.23014402389526367 0 0 255
-0.04115056246519089 -0.0022624190896749496 -0.24197576940059662 0 0 255
-0.014168349094688892 0.010504650883376598 -0.2600010335445404 0 0 255
0.013969630934298038 0.027840977534651756 -0.2841733694076538 0 0 255
0.0355571024119854 0.03954194113612175 -0.304231196641922 0 0 255
0.05051276087760925 0.04895947873592377 -0.3153260052204132 0 0 255
0.06068500503897667 0.059355102479457855 -0.3195950388908386 0 0 255
0.06320460885763168 0.058553654700517654 -0.3187427222728729 0 0 255
0.05974099785089493 0.054450005292892456 -0.3153839707374573 0 0 255
0.05344957113265991 0.05318740755319595 -0.3090534210205078 0 0 255
0.04971812665462494 0.05343172326683998 -0.3044561743736267 0 0 255
0.04626525938510895 0.05184675753116608 -0.30145835876464844 0 0 255
0.04161543399095535 0.05040411651134491 -0.2990185618400574 0 0 255
0.03775249049067497 0.05206979438662529 -0.30052319169044495 0 0 255
0.03387625887989998 0.05055444315075874 -0.2974449694156647 0 0 255
0.027048775926232338 0.04742465540766716 -0.2905448377132416 0 0 255
0.017449162900447845 0.040719203650951385 -0.28359168767929077 0 0 255
0.011388950049877167 0.03408488631248474 -0.2784508466720581 0 0 255
0.007201690226793289 0.03026483580470085 -0.27264779806137085 0 0 255
0.0028871186077594757 0.025633960962295532 -0.2682735323905945 0 0 255
-0.006253324914723635 0.014474955387413502 -0.2628185749053955 0 0 255
-0.01563137024641037 0.009999720379710197 -0.25094613432884216 0 0 255
-0.0304977148771286 -0.00467281648889184 -0.24241730570793152 0 0 255
-0.046294573694467545 -0.009717236272990704 -0.23351313173770905 0 0 255
-0.05953478813171387 -0.013858607038855553 -0.22307105362415314 0 0 255
-0.07129593938589096 -0.027710622176527977 -0.2165495604276657 0 0 255
-0.07469358295202255 -0.029973696917295456 -0.21374647319316864 0 0 255
-0.06974726915359497 -0.024610811844468117 -0.21861650049686432 0 0 255
-0.058545053005218506 -0.016563579440116882 -0.22967274487018585 0 0 255
-0.049332451075315475 -0.012352685444056988 -0.23461933434009552 0 0 255
-0.0407993458211422 -0.010123379528522491 -0.242368683218956 0 0 255
-0.0395594984292984 -0.009572620503604412 -0.24381616711616516 0 0 255
-0.03727390244603157 -0.004792734049260616 -0.24759158492088318 0 0 255
-0.03159709274768829 -0.0007411372498609126 -0.24410589039325714 0 0 255
-0.031071960926055908 0.00015448660997208208 -0.2521663308143616 0 0 255
-0.024336403235793114 -0.0002605624031275511 -0.260517954826355 0 0 255
-0.0155528225004673 0.012414909899234772 -0.26434674859046936 0 0 255
-0.0014126994647085667 0.018951525911688805 -0.27110373973846436 0 0 255
0.0007965637487359345 0.018286311998963356 -0.27009308338165283 0 0 255
-0.008093776181340218 0.016205107793211937 -0.2648692727088928 0 0 255
-0.015388322994112968 0.012724177911877632 -0.25978875160217285 0 0 255
-0.017213331535458565 0.006860165856778622 -0.25720036029815674 0 0 255
-0.012592632323503494 0.005354040767997503 -0.25700801610946655 0 0 255
-0.01702303998172283 0.00867854617536068 -0.25137752294540405 0 0 255
-0.027012884616851807 0.0031126218382269144 -0.2488328218460083 0 0 255
-0.03859373554587364 0.0007605138816870749 -0.23558123409748077 0 0 255
-0.049562033265829086 -0.005263146013021469 -0.22847531735897064 0 0 255
-0.059931039810180664 -0.014527992345392704 -0.21893037855625153 0 0 255
-0.066335529088974 -0.01748259738087654 -0.20994676649570465 0 0 255
-0.07022243738174438 -0.02193516306579113 -0.21315935254096985 0 0 255
-0.06365446746349335 -0.020885832607746124 -0.21093201637268066 0 0 255
-0.06031801551580429 -0.026052793487906456 -0.21531350910663605 0 0 255
-0.06090430170297623 -0.035764794796705246 -0.21702630817890167 0 0 255
-0.058590419590473175 -0.04584885388612747 -0.21976248919963837 0 0 255
-0.054445113986730576 -0.04699001461267471 -0.2204544097185135 0 0 255
-0.04792409762740135 -0.04098929092288017 -0.22401277720928192 0 0 255
-0.04220940172672272 -0.04130139201879501 -0.23043566942214966 0 0 255
-0.04366406798362732 -0.044902365654706955 -0.22341829538345337 0 0 255
-0.05422983691096306 -0.05156509950757027 -0.21667395532131195 0 0 255
-0.06283365190029144 -0.06330709904432297 -0.21301844716072083 0 0 255
-0.06904350966215134 -0.0720616951584816 -0.20696768164634705 0 0 255
-0.058727703988552094 -0.07223984599113464 -0.22032013535499573 0 0 255
-0.04069345444440842 -0.06512594223022461 -0.22394466400146484 0 0 255
-0.03685649484395981 -0.05873554199934006 -0.22225408256053925 0 0 255
-0.05579551309347153 -0.06670266389846802 -0.21896924078464508 0 0 255
-0.06797521561384201 -0.06616843491792679 -0.1998506486415863 0 0 255
-0.08111947774887085 -0.056549325585365295 -0.19154168665409088 0 0 255
-0.08857586979866028 -0.06384100764989853 -0.1854245662689209 0 0 255
-0.09404019266366959 -0.07701030373573303 -0.19213062524795532 0 0 255
-0.08775843679904938 -0.07766161113977432 -0.18166014552116394 0 0 255
-0.08804409205913544 -0.07581586390733719 -0.18307575583457947 0 0 255
-0.09899186342954636 -0.07600504904985428 -0.1824342906475067 0 0 255
-0.10339216142892838 -0.08192706853151321 -0.16655613481998444 0 0 255
-0.11561498045921326 -0.0890553817152977 -0.16638590395450592 0 0 255
-0.12091068923473358 -0.0984514132142067 -0.14909628033638 0 0 255
-0.13063201308250427 -0.10351358354091644 -0.14745080471038818 0 0 255
-0.13656198978424072 -0.12108558416366577 -0.13584408164024353 0 0 255
-0.1395808756351471 -0.11874482780694962 -0.13319456577301025 0 0 255
-0.1412561535835266 -0.12046686559915543 -0.12649217247962952 0 0 255
-0.15163205564022064 -0.11783944815397263 -0.12774790823459625 0 0 255
-0.15021894872188568 -0.12557385861873627 -0.1214422658085823 0 0 255
-0.149537593126297 -0.11471443623304367 -0.12207993119955063 0 0 255
-0.15066401660442352 -0.11260727792978287 -0.11926383525133133 0 0 255
-0.15564346313476562 -0.10282184183597565 -0.12075097858905792 0 0 255
-0.16404417157173157 -0.10266464203596115 -0.11234162002801895 0 0 255
-0.17368535697460175 -0.11088444292545319 -0.11192598938941956 0 0 255
-0.17273695766925812 -0.10877779126167297 -0.1038348376750946 0 0 255
-0.1750403493642807 -0.10758224874734879 -0.1043810248374939 0 0 255
-0.1802387684583664 -0.11362627893686295 -0.10024804621934891 0 0 255
-0.1876826137304306 -0.1164885014295578 -0.09753581136465073 0 0 255
-0.19785162806510925 -0.1232939288020134 -0.07967643439769745 0 0 255
-0.21705523133277893 -0.12198636680841446 -0.05879263952374458 0 0 255
-0.24101950228214264 -0.11830426752567291 -0.031118223443627357 0 0 255
-0.25512009859085083 -0.11670368909835815 -0.01362090278416872 0 0 255
-0.26545172929763794 -0.12724745273590088 -0.008178234100341797 0 0 255
-0.26599541306495667 -0.13748842477798462 -0.008176333270967007 0 0 255
-0.25992879271507263 -0.13591815531253815 -0.01073247566819191 0 0 255
-0.2541956305503845 -0.14344318211078644 -0.016534388065338135 0 0 255
-0.250746488571167 -0.14225353300571442 -0.028133869171142578 0 0 255
-0.23183125257492065 -0.13210462033748627 -0.030863098800182343 0 0 255
-0.20980289578437805 -0.13690227270126343 -0.06023987755179405 0 0 255
-0.18905803561210632 -0.13727159798145294 -0.08622093498706818 0 0 255
-0.17561453580856323 -0.13068634271621704 -0.10012107342481613 0 0 255
-0.17463912069797516 -0.1273019164800644 -0.09937393665313721 0 0 255
-0.17901702225208282 -0.13212887942790985 -0.09331431239843369 0 0 255
-0.19072948396205902 -0.14086312055587769 -0.07722378522157669 0 0 255
-0.21311451494693756 -0.13412141799926758 -0.06385816633701324 0 0 255
-0.20901885628700256 -0.12929920852184296 -0.05931631475687027 0 0 255
-0.1992323249578476 -0.13739556074142456 -0.0753699541091919 0 0 255
-0.19665591418743134 -0.13048845529556274 -0.07054050266742706 0 0 255
-0.19328400492668152 -0.12043918669223785 -0.08745775371789932 0 0 255
-0.1929023265838623 -0.12246810644865036 -0.09568436443805695 0 0 255
-0.18521592020988464 -0.12389717251062393 -0.10536559671163559 0 0 255
-0.17251376807689667 -0.11573673039674759 -0.10161561518907547 0 0 255
-0.17270077764987946 -0.1102241575717926 -0.10627658665180206 0 0 255
-0.18080314993858337 -0.11829904466867447 -0.09860167652368546 0 0 255
-0.1999032199382782 -0.11882881075143814 -0.08009897172451019 0 0 255
-0.21496281027793884 -0.11924207210540771 -0.05938098579645157 0 0 255
-0.24264280498027802 -0.1265328824520111 -0.023822683840990067 0 0 255
-0.2855510413646698 -0.1418876051902771 0.01332060620188713 0 0 255
-0.3205951452255249 -0.14129140973091125 0.07112620025873184 0 0 255
-0.33655694127082825 -0.13688796758651733 0.08561825752258301 0 0 255
-0.32525455951690674 -0.14833752810955048 0.073128342628479 0 0 255
-0.3167088031768799 -0.13776864111423492 0.05889725312590599 0 0 255
-0.3047899305820465 -0.13490575551986694 0.04326122999191284 0 0 255
-0.2990422248840332 -0.126464381814003 0.04724757373332977 0 0 255
-0.3050374686717987 -0.13607238233089447 0.05224601924419403 0 0 255
-0.31797948479652405 -0.14114023745059967 0.05824689567089081 0 0 255
-0.31528162956237793 -0.14167867600917816 0.0674620047211647 0 0 255
-0.30651572346687317 -0.14673249423503876 0.0561140812933445 0 0 255
-0.2935184836387634 -0.14425602555274963 0.031039778143167496 0 0 255
-0.27379685640335083 -0.1473623365163803 -0.004913527052849531 0 0 255
-0.22176474332809448 -0.12865987420082092 -0.06567195802927017 0 0 255
-0.13889798521995544 -0.0918828472495079 -0.15162695944309235 0 0 255
-0.07206495106220245 -0.0630284920334816 -0.20612898468971252 0 0 255
-0.04750434681773186 -0.04306897521018982 -0.236043319106102 0 0 255
-0.05671310052275658 -0.04032830148935318 -0.23509137332439423 0 0 255
-0.07041867077350616 -0.04361462965607643 -0.21825729310512543 0 0 255
-0.07697603106498718 -0.04691171646118164 -0.21006543934345245 0 0 255
-0.09257762134075165 -0.050274983048439026 -0.20149999856948853 0 0 255
-0.1064092293381691 -0.052465345710515976 -0.18288183212280273 0 0 255
-0.1192016452550888 -0.058996591717004776 -0.17447102069854736 0 0 255
-0.132822185754776 -0.06157096102833748 -0.15857544541358948 0 0 255
-0.13663572072982788 -0.06751750409603119 -0.15281926095485687 0 0 255
-0.13764099776744843 -0.0665026307106018 -0.14734116196632385 0 0 255
-0.1341734528541565 -0.06600172817707062 -0.14563067257404327 0 0 255
-0.1360761672258377 -0.050939079374074936 -0.14954911172389984 0 0 255
-0.12425428628921509 -0.03558826074004173 -0.16028614342212677 0 0 255
-0.10977405309677124 -0.020432021468877792 -0.1763424277305603 0 0 255
-0.09779544174671173 -0.018934857100248337 -0.18449458479881287 0 0 255
-0.10139449685811996 -0.015656135976314545 -0.1874627321958542 0 0 255
-0.10373783111572266 -0.007068282924592495 -0.1847778856754303 0 0 255
-0.09798894822597504 -0.0010918744374066591 -0.1909158080816269 0 0 255
-0.09319661557674408 0.004713328089565039 -0.19205525517463684 0 0 255
-0.08653412014245987 0.011805005371570587 -0.2013329118490219 0 0 255
-0.08551633358001709 0.015002796426415443 -0.19816583395004272 0 0 255
-0.08965171873569489 0.00956963375210762 -0.20492582023143768 0 0 255
-0.09166141599416733 0.010555320419371128 -0.1991833746433258 0 0 255
-0.08869434893131256 0.020355727523565292 -0.19536082446575165 0 0 255
-0.09675581008195877 0.020349126309156418 -0.19828104972839355 0 0 255
-0.09815157949924469 0.019892463460564613 -0.19583921134471893 0 0 255
-0.10013800859451294 0.015870703384280205 -0.19902673363685608 0 0 255
-0.09777966141700745 0.01992415264248848 -0.19490286707878113 0 0 255
-0.08747071027755737 0.0262819342315197 -0.20062871277332306 0 0 255
-0.08253010362386703 0.027464734390378 -0.20700977742671967 0 0 255
-0.08259488642215729 0.028892474249005318 -0.20706434547901154 0 0 255
-0.0884774774312973 0.021361621096730232 -0.2022152692079544 0 0 255
-0.09553368389606476 0.02091243490576744 -0.19735486805438995 0 0 255
-0.09791263937950134 0.020130515098571777 -0.19706176221370697 0 0 255
-0.09857197850942612 0.018029412254691124 -0.19211196899414062 0 0 255
-0.10467369854450226 0.014301519840955734 -0.18490050733089447 0 0 255
-0.11444360017776489 0.010849794372916222 -0.17636795341968536 0 0 255
-0.11872958391904831 0.0109429145231843 -0.17467939853668213 0 0 255
-0.11839262396097183 0.010490975342690945 -0.17147989571094513 0 0 255
-0.11965323984622955 0.004399225581437349 -0.17179520428180695 0 0 255
-0.11653341352939606 0.006592926103621721 -0.17220385372638702 0 0 255
-0.11415837705135345 0.00458758557215333 -0.17676158249378204 0 0 255
-0.11254344880580902 0.0071106040850281715 -0.18622936308383942 0 0 255
-0.09766732901334763 0.014866437762975693 -0.19337022304534912 0 0 255
-0.08592875301837921 0.0330355279147625 -0.19486066699028015 0 0 255
-0.08875260502099991 0.03437702730298042 -0.19693543016910553 0 0 255
-0.09763899445533752 0.020618895068764687 -0.19426147639751434 0 0 255
-0.10948573797941208 0.021240200847387314 -0.18286728858947754 0 0 255
-0.11639915406703949 0.022523673251271248 -0.1807776838541031 0 0 255
-0.1138850748538971 0.017655882984399796 -0.17762556672096252 0 0 255
-0.1043333038687706 0.021431593224406242 -0.19409947097301483 0 0 255
-0.09609247744083405 0.027432920411229134 -0.20003125071525574 0 0 255
-0.09712082892656326 0.03413330391049385 -0.19459500908851624 0 0 255
-0.10367351770401001 0.033451247960329056 -0.18892118334770203 0 0 255
-0.11072473227977753 0.024902572855353355 -0.1832374781370163 0 0 255
-0.10806859284639359 0.027961136773228645 -0.17609696090221405 0 0 255
-0.10545530170202255 0.027813801541924477 -0.1720762699842453 0 0 255
-0.112350232899189 0.015160973183810711 -0.17595262825489044 0 0 255
-0.12741337716579437 0.0037635264452546835 -0.17076054215431213 0 0 255
-0.14773733913898468 -0.002423535566776991 -0.1470491737127304 0 0 255
-0.17071013152599335 -0.010981096886098385 -0.12250777333974838 0 0 255
-0.18615369498729706 -0.011941191740334034 -0.1015334203839302 0 0 255
-0.19244520366191864 -0.010796514339745045 -0.09403872489929199 0 0 255
-0.18847347795963287 0.00039308052510023117 -0.10242968052625656 0 0 255
-0.19099074602127075 0.009225341491401196 -0.10415276139974594 0 0 255
-0.1951630711555481 0.0041541834361851215 -0.1063103973865509 0 0 255
-0.2029116302728653 0.002029730938374996 -0.08722367137670517 0 0 255
-0.21510332822799683 -5.383912139222957e-05 -0.07573635876178741 0 0 255
-0.21759621798992157 -0.008731137961149216 -0.06623049825429916 0 0 255
-0.2028355747461319 -0.004977453965693712 -0.08182986825704575 0 0 255
-0.1932385116815567 0.0004589368181768805 -0.09357615560293198 0 0 255
-0.1855638027191162 0.006715739145874977 -0.11314550042152405 0 0 255
-0.1726282387971878 0.018883099779486656 -0.11658349633216858 0 0 255
-0.16158586740493774 0.03277159482240677 -0.11764667183160782 0 0 255
-0.16179868578910828 0.030327368527650833 -0.12995246052742004 0 0 255
-0.16082921624183655 0.025820862501859665 -0.12044557929039001 0 0 255
-0.17054954171180725 0.03427007049322128 -0.12390511482954025 0 0 255
-0.1759447157382965 0.023686764761805534 -0.1207534596323967 0 0 255
-0.1700528860092163 0.013708417303860188 -0.11510791629552841 0 0 255
-0.17306745052337646 0.008825957775115967 -0.10583948343992233 0 0 255
-0.17615336179733276 0.005294162780046463 -0.10657733678817749 0 0 255
-0.1824258267879486 0.004714358132332563 -0.09587845951318741 0 0 255
-0.18549823760986328 0.007547292392700911 -0.09555163979530334 0 0 255
-0.1881854236125946 0.004040204454213381 -0.09201136231422424 0 0 255
-0.18790878355503082 0.0025204408448189497 -0.10411334782838821 0 0 255
-0.17518967390060425 0.010259244590997696 -0.10745982825756073 0 0 255
-0.16833648085594177 0.018888194113969803 -0.11431658267974854 0 0 255
-0.16028065979480743 0.007139225024729967 -0.13001902401447296 0 0 255
-0.14605285227298737 0.016085447743535042 -0.14395055174827576 0 0 255
-0.13253647089004517 0.029355846345424652 -0.1590292900800705 0 0 255
-0.12940409779548645 0.02843424491584301 -0.17195387184619904 0 0 255
-0.12823201715946198 0.02706272155046463 -0.1743485927581787 0 0 255
-0.12353018671274185 0.030637294054031372 -0.17677970230579376 0 0 255
-0.12160128355026245 0.03512705862522125 -0.17840905487537384 0 0 255
-0.10600677132606506 0.03595032915472984 -0.18778015673160553 0 0 255
-0.09338826686143875 0.04062328115105629 -0.19024252891540527 0 0 255
-0.08822612464427948 0.036498237401247025 -0.20364049077033997 0 0 255
-0.07908890396356583 0.037188123911619186 -0.2160790115594864 0 0 255
-0.07252536714076996 0.045747000724077225 -0.22017787396907806 0 0 255
-0.07024858146905899 0.04162442684173584 -0.2316746860742569 0 0 255
-0.07345128804445267 0.03955807536840439 -0.21676646173000336 0 0 255
-0.08337211608886719 0.0371939055621624 -0.20613636076450348 0 0 255
-0.0897541269659996 0.031214222311973572 -0.20124629139900208 0 0 255
-0.08482074737548828 0.03471740335226059 -0.2015102058649063 0 0 255
-0.0696529969573021 0.03544921427965164 -0.2108488231897354 0 0 255
-0.06417787075042725 0.033625997602939606 -0.21501530706882477 0 0 255
-0.06872601807117462 0.030703146010637283 -0.21931499242782593 0 0 255
-0.08338052779436111 0.021197300404310226 -0.20538230240345 0 0 255
-0.09629996865987778 0.014997282065451145 -0.1972547322511673 0 0 255
-0.09940512478351593 0.009540099650621414 -0.17826582491397858 0 0 255
-0.10745467245578766 0.004661954008042812 -0.16946305334568024 0 0 255
-0.1187862753868103 -0.007538747042417526 -0.16750472784042358 0 0 255
-0.12957517802715302 -0.010424860753118992 -0.15741051733493805 0 0 255
-0.12807884812355042 -0.022698653861880302 -0.15680275857448578 0 0 255
-0.13430216908454895 -0.025569749996066093 -0.1515382081270218 0 0 255
-0.13483165204524994 -0.02306789718568325 -0.15288688242435455 0 0 255
-0.12835557758808136 -0.021809302270412445 -0.15217053890228271 0 0 255
-0.12819990515708923 -0.030011381953954697 -0.14936622977256775 0 0 255
-0.14898620545864105 -0.03701392188668251 -0.12935613095760345 0 0 255
-0.17574246227741241 -0.051718197762966156 -0.11502902954816818 0 0 255
-0.1781846284866333 -0.06418351083993912 -0.10404904186725616 0 0 255
-0.16144801676273346 -0.059882644563913345 -0.11588918417692184 0 0 255
-0.15616922080516815 -0.06007761135697365 -0.12552900612354279 0 0 255
-0.16871348023414612 -0.07410726696252823 -0.1306077092885971 0 0 255
-0.17930631339550018 -0.08721033483743668 -0.11491367220878601 0 0 255
-0.16858501732349396 -0.08952305465936661 -0.11592578887939453 0 0 255
-0.14905163645744324 -0.08304692059755325 -0.13409343361854553 0 0 255
-0.14269597828388214 -0.0811169221997261 -0.14804677665233612 0 0 255
-0.13950444757938385 -0.07314297556877136 -0.14518606662750244 0 0 255
-0.13592731952667236 -0.07432238757610321 -0.14074255526065826 0 0 255
-0.1504591554403305 -0.0938868597149849 -0.13209378719329834 0 0 255
