ply
format ascii 1.0
element vertex 700
property float x
property float y
property float z
property uchar red
property uchar green
property uchar blue
end_header
-0.7563304901123047 -1.3483386039733887 9.555411338806152 252 167 53
-0.7899452447891235 -1.4622058868408203 9.401985168457031 251 163 55
-0.7373014688491821 -1.2732046842575073 9.61379623413086 250 160 57
-0.7792216539382935 -1.421744704246521 9.4351167678833 250 159 58
-0.8153876662254333 -1.5452351570129395 9.278538703918457 248 149 64
-0.9124550819396973 -1.8167544603347778 8.956133842468262 244 137 71
-0.8681935667991638 -1.6994621753692627 9.052648544311523 242 132 75
-0.9117887616157532 -1.8725937604904175 8.856642723083496 240 128 77
-0.9216564297676086 -1.840569019317627 8.854297637939453 237 123 81
-0.9394664168357849 -1.9282007217407227 8.76042366027832 237 121 82
-0.952455461025238 -1.9195938110351562 8.70739459991455 235 118 84
-0.9644782543182373 -1.9482052326202393 8.676826477050781 233 114 87
-1.047040343284607 -2.071253776550293 8.541632652282715 232 113 88
-0.981313169002533 -1.9702922105789185 8.590625762939453 231 110 90
-0.9979831576347351 -2.019198417663574 8.523503303527832 231 110 90
-0.9903098344802856 -2.0115609169006348 8.520058631896973 230 109 90
-0.9872164130210876 -1.9885470867156982 8.47310733795166 231 110 90
-0.987043559551239 -1.9945733547210693 8.444390296936035 234 115 86
-1.0105257034301758 -2.036644220352173 8.32203197479248 236 119 84
-1.0359904766082764 -2.054243326187134 8.267176628112793 237 123 81
-1.0313308238983154 -2.059757947921753 8.218829154968262 239 126 78
-1.025123119354248 -2.093958854675293 8.12606430053711 245 139 70
-1.0567412376403809 -2.077352523803711 8.102816581726074 247 146 65
-1.0389434099197388 -2.0888290405273438 8.037458419799805 247 146 65
-1.1080297231674194 -2.1255857944488525 7.97175407409668 250 159 58
-1.1286736726760864 -2.0957844257354736 7.933292388916016 252 173 49
-1.1760962009429932 -2.1097631454467773 7.838001728057861 253 182 45
-1.176206350326538 -2.1200766563415527 7.7204999923706055 253 192 41
-1.2313227653503418 -2.1168322563171387 7.536527156829834 253 196 39
-1.2660478353500366 -2.109879970550537 7.501151084899902 251 208 36
-1.3589770793914795 -2.0978195667266846 7.280849933624268 251 209 36
-1.3245089054107666 -2.0776243209838867 7.297779083251953 250 214 36
-1.4487204551696777 -1.9815948009490967 7.156746864318848 249 219 36
-1.3156976699829102 -2.0708444118499756 7.238227844238281 248 223 36
-1.3736915588378906 -2.073093891143799 7.264734745025635 247 226 37
-1.3797740936279297 -2.0343551635742188 7.122128963470459 246 228 37
-1.3344143629074097 -1.9930626153945923 7.130382061004639 246 229 37
-1.3135833740234375 -2.0641024112701416 7.243960857391357 244 234 38
-1.3128212690353394 -2.0790114402770996 7.284578800201416 243 236 38
-1.2946715354919434 -2.0705296993255615 7.30363130569458 246 228 37
-1.2928202152252197 -2.1318857669830322 7.3999409675598145 250 213 36
-1.3129010200500488 -2.190539836883545 7.481021881103516 253 188 42
-1.3276363611221313 -2.1898865699768066 7.526782512664795 253 176 48
-1.3024216890335083 -2.21451735496521 7.557949066162109 252 169 52
-1.3691622018814087 -2.3003861904144287 7.719964027404785 251 163 55
-1.3795369863510132 -2.296018600463867 7.635979175567627 234 115 86
-1.3970608711242676 -2.2846410274505615 7.64369010925293 245 139 70
-1.4229347705841064 -2.300445318222046 7.666708946228027 252 170 51
-1.3892353773117065 -2.2836599349975586 7.683210849761963 252 170 51
-1.3752113580703735 -2.2758941650390625 7.6656880378723145 252 166 53
-1.501343011856079 -2.411607503890991 7.843013286590576 251 162 56
-1.4086413383483887 -2.2907943725585938 7.71019172668457 248 149 64
-1.4060829877853394 -2.290260076522827 7.772502899169922 243 135 72
-1.4260939359664917 -2.3012001514434814 7.800041675567627 239 125 79
-1.420201301574707 -2.309481620788574 7.857254505157471 234 116 85
-1.4680147171020508 -2.3269999027252197 7.942030906677246 236 119 84
-1.436698317527771 -2.3318536281585693 8.03662395477295 234 115 86
-1.4190162420272827 -2.305117607116699 7.973694324493408 235 118 84
-1.3937196731567383 -2.286858320236206 8.075210571289062 234 115 86
-1.396744728088379 -2.2895023822784424 8.152974128723145 231 110 90
-1.3727037906646729 -2.2786221504211426 8.247642517089844 231 110 90
-1.3913747072219849 -2.2989656925201416 8.248372077941895 227 103 95
-1.3805614709854126 -2.258721351623535 8.41978645324707 218 90 104
-1.2282226085662842 -2.254742383956909 8.428359985351562 213 83 109
-1.305224895477295 -2.229327917098999 8.49777603149414 207 75 116
-1.2911748886108398 -2.243485450744629 8.530906677246094 205 73 117
-1.2953641414642334 -2.224992036819458 8.527287483215332 207 75 116
-1.2063573598861694 -2.1422765254974365 8.614608764648438 209 79 113
-1.3499553203582764 -2.2860870361328125 8.4361572265625 212 82 110
-1.272740364074707 -2.173280954360962 8.595771789550781 215 87 107
-1.2049566507339478 -2.1128652095794678 8.661423683166504 216 88 106
-1.223143219947815 -2.1204636096954346 8.713517189025879 218 90 104
-1.1935043334960938 -2.0788300037384033 8.760223388671875 219 91 103
-1.2005916833877563 -2.0862741470336914 8.779763221740723 221 95 101
-1.1130703687667847 -1.9599279165267944 8.935112953186035 223 98 98
-1.0764936208724976 -1.9117894172668457 9.013662338256836 223 98 98
-1.023757815361023 -1.8422906398773193 9.090751647949219 225 101 96
-0.9766740202903748 -1.784044861793518 9.148797035217285 218 90 104
-0.927299439907074 -1.7180753946304321 9.227106094360352 217 89 105
-0.845329999923706 -1.6095737218856812 9.347875595092773 216 88 106
-0.7767383456230164 -1.5177459716796875 9.442410469055176 214 85 109
-0.7436561584472656 -1.4797475337982178 9.477108001708984 216 88 106
-0.682223916053772 -1.4120736122131348 9.545416831970215 218 90 104
-0.6237242817878723 -1.3170223236083984 9.634794235229492 225 101 96
-0.6458685994148254 -1.3461863994598389 9.610879898071289 232 112 89
-0.5621322989463806 -1.278660774230957 9.707780838012695 237 123 81
-0.7005202174186707 -1.398014783859253 9.566888809204102 240 128 77
-0.6156101226806641 -1.2986212968826294 9.64302921295166 242 133 74
-0.6475696563720703 -1.3693714141845703 9.630998611450195 241 130 76
-0.6128599643707275 -1.294245719909668 9.660429000854492 239 126 78
-0.39425984025001526 -1.0413196086883545 9.804676055908203 238 124 80
-0.5353046655654907 -1.1891357898712158 9.697914123535156 237 123 81
-0.5042016506195068 -1.1327592134475708 9.711617469787598 241 130 76
-0.3517705500125885 -1.0374950170516968 9.902647018432617 245 141 69
-0.3362133204936981 -0.8603659272193909 9.82522201538086 246 145 66
-0.4295026361942291 -1.001760482788086 9.750579833984375 247 146 65
-0.41930872201919556 -0.9653257131576538 9.74751091003418 243 134 73
-0.38142645359039307 -0.9082573652267456 9.760992050170898 237 123 81
-0.3161136507987976 -0.7764460444450378 9.787694931030273 230 109 90
-0.32066062092781067 -0.7873403429985046 9.793283462524414 220 94 102
-0.3210519254207611 -0.8241332173347473 9.850516319274902 215 87 107
-0.2931501567363739 -0.7122483253479004 9.797554016113281 214 85 109
-0.27246546745300293 -0.6426880359649658 9.790450096130371 212 82 110
-0.2391720414161682 -0.5910910964012146 9.811767578125 211 81 111
-0.22534878551959991 -0.5504301190376282 9.809133529663086 213 83 109
-0.17703895270824432 -0.4426632821559906 9.812681198120117 215 86 108
-0.17800270020961761 -0.4021451473236084 9.799504280090332 212 82 110
-0.1385391801595688 -0.34612563252449036 9.823835372924805 209 79 113
-0.11521659791469574 -0.3066692650318146 9.846677780151367 213 83 109
-0.12414579093456268 -0.32915303111076355 9.821617126464844 212 82 110
-0.13125482201576233 -0.330496609210968 9.830645561218262 213 83 109
-0.07961871474981308 -0.3336962163448334 9.821650505065918 212 82 110
0.03221302106976509 -0.39546307921409607 9.859305381774902 213 83 109
-0.09600947052240372 -0.2815435826778412 9.828754425048828 214 85 109
-0.07591888308525085 -0.21168647706508636 9.81452465057373 214 85 109
-0.1476012021303177 -0.2730957269668579 9.81440544128418 213 83 109
-0.15321223437786102 -0.1273941844701767 9.875450134277344 216 88 106
-0.29549354314804077 -0.03485303744673729 9.91151237487793 215 87 107
-0.2362731695175171 -0.04467926546931267 9.958123207092285 215 87 107
-0.18658630549907684 -0.04395897313952446 9.941797256469727 216 88 106
-0.20841574668884277 -0.036687325686216354 9.953149795532227 212 82 110
-0.22087515890598297 0.05507296696305275 10.003445625305176 211 81 111
-0.2162458747625351 0.031679507344961166 10.020380020141602 217 89 105
-0.23193451762199402 0.08986715227365494 10.042755126953125 217 89 105
-0.24288959801197052 0.13296429812908173 10.06569766998291 214 85 109
-0.24700142443180084 0.15572290122509003 10.067646026611328 214 85 109
-0.2590680420398712 0.17650650441646576 10.085882186889648 212 82 110
-0.2830880880355835 0.2197895646095276 10.105764389038086 212 82 110
-0.28066110610961914 0.21336141228675842 10.108853340148926 215 86 108
-0.3258911371231079 0.32682737708091736 10.158624649047852 214 85 109
-0.38598698377609253 0.35591503977775574 10.177652359008789 215 86 108
-0.37840089201927185 0.34168368577957153 10.174365043640137 215 87 107
-0.4626651406288147 0.442453533411026 10.226659774780273 215 87 107
-0.4537907540798187 0.44331637024879456 10.224220275878906 213 83 109
-0.4497939646244049 0.42622292041778564 10.232845306396484 217 89 105
-0.5386009812355042 0.5349255204200745 10.278517723083496 218 90 104
-0.5972415208816528 0.5943610072135925 10.302620887756348 213 83 109
-0.6356812119483948 0.6163358092308044 10.327149391174316 212 82 110
-0.7252562046051025 0.7041862607002258 10.375225067138672 214 85 109
-0.7914940714836121 0.8015848398208618 10.41637134552002 215 86 108
-0.7774642109870911 0.8014890551567078 10.403898239135742 214 85 109
-0.8531949520111084 0.8340598940849304 10.439349174499512 213 83 109
-0.8484498858451843 0.8700845241546631 10.438458442687988 214 85 109
-0.9229763746261597 0.7131434082984924 10.467207908630371 215 86 108
-0.9218522906303406 0.8844744563102722 10.471882820129395 216 88 106
-0.9672288298606873 0.8414911031723022 10.488012313842773 213 83 109
-0.9502158761024475 1.020487904548645 10.487430572509766 213 83 109
-0.8792964220046997 1.0142951011657715 10.457438468933105 213 83 109
-0.9773000478744507 1.1852099895477295 10.500463485717773 213 83 109
-0.920464038848877 1.141840934753418 10.472516059875488 214 85 109
-0.9145550727844238 1.2017543315887451 10.465641975402832 213 83 109
-0.864149272441864 1.268816351890564 10.44658374786377 212 82 110
-0.826926052570343 1.3389798402786255 10.42979621887207 213 83 109
-0.796596348285675 1.4331464767456055 10.410135269165039 212 82 110
-0.7398735880851746 1.4860355854034424 10.384228706359863 211 81 111
-0.6565924882888794 1.6321593523025513 10.343982696533203 210 80 112
-0.6689609289169312 1.6793075799942017 10.370055198669434 210 80 112
-0.5888069868087769 1.6776121854782104 10.311291694641113 209 79 113
-0.6342307329177856 1.7436392307281494 10.35075855255127 209 78 114
-0.4719202220439911 1.722300410270691 10.240434646606445 209 78 114
-0.48985132575035095 1.7468335628509521 10.258790016174316 209 78 114
-0.5006413459777832 1.7598963975906372 10.278630256652832 205 73 117
-0.4265090823173523 1.7340846061706543 10.26473617553711 209 78 114
-0.348004549741745 1.804182767868042 10.188403129577637 210 80 112
-0.17237043380737305 1.8520039319992065 10.081731796264648 214 85 109
-0.18177944421768188 1.8525898456573486 10.089056968688965 213 83 109
-0.147981196641922 1.8641718626022339 10.069292068481445 212 82 110
-0.02963343821465969 1.9193940162658691 9.993194580078125 209 78 114
0.13171710073947906 1.9604055881500244 9.887530326843262 211 81 111
0.10627421736717224 1.9134607315063477 9.916178703308105 209 78 114
0.22329552471637726 1.9137693643569946 9.849043846130371 209 79 113
0.3107700049877167 1.9140541553497314 9.8024320602417 210 80 112
0.3867749571800232 1.9201679229736328 9.750256538391113 209 79 113
0.5922967791557312 1.9146332740783691 9.647063255310059 207 75 116
0.5267898440361023 1.8771922588348389 9.700177192687988 210 80 112
0.7306045293807983 1.833145022392273 9.614094734191895 209 78 114
0.6721569299697876 1.8408623933792114 9.636999130249023 209 78 114
0.6773436069488525 1.7805161476135254 9.664480209350586 209 78 114
0.7406411170959473 1.7922358512878418 9.609554290771484 209 78 114
0.8134092092514038 1.7703135013580322 9.584582328796387 209 79 113
0.8548750877380371 1.801772117614746 9.565584182739258 209 78 114
0.9694305062294006 1.771977424621582 9.473445892333984 209 79 113
0.8417863249778748 1.835347056388855 9.578246116638184 212 82 110
0.8935794234275818 1.7339215278625488 9.552879333496094 212 82 110
0.8819143176078796 1.6985267400741577 9.560942649841309 212 82 110
0.9088553190231323 1.5523971319198608 9.555156707763672 214 85 109
0.9745665788650513 1.553985834121704 9.527379989624023 214 85 109
0.9099985361099243 1.5426908731460571 9.550763130187988 212 82 110
0.9117715954780579 1.5423399209976196 9.550050735473633 215 86 108
0.959141194820404 1.504252552986145 9.539689064025879 215 87 107
0.9032012224197388 1.4811662435531616 9.561797142028809 215 87 107
0.8944426774978638 1.4361852407455444 9.561163902282715 215 87 107
0.8866429924964905 1.3583707809448242 9.555465698242188 215 86 108
0.8334161639213562 1.2754238843917847 9.586673736572266 215 86 108
0.8497138619422913 1.2378764152526855 9.57628345489502 215 87 107
0.7990283370018005 1.1554498672485352 9.593070030212402 215 86 108
0.7616907358169556 1.056213617324829 9.612214088439941 215 87 107
0.6919182538986206 0.9461888670921326 9.642389297485352 215 87 107
0.663478672504425 0.8904728889465332 9.657180786132812 215 87 107
0.6182607412338257 0.7932472825050354 9.674017906188965 215 87 107
0.5831358432769775 0.7424939870834351 9.698113441467285 216 88 106
0.47284331917762756 0.5944347977638245 9.747390747070312 216 88 106
0.5360391139984131 0.6346906423568726 9.720307350158691 216 88 106
0.524147093296051 0.6100759506225586 9.6864652633667 215 87 107
0.5271376967430115 0.6339587569236755 9.721283912658691 215 87 107
0.5084532499313354 0.6713452339172363 9.734823226928711 215 87 107
0.4976043105125427 0.6477310657501221 9.743836402893066 215 86 108
0.44509753584861755 0.5330420732498169 9.775421142578125 215 87 107
0.3215741217136383 0.3647207021713257 9.889872550964355 215 87 107
0.34196552634239197 0.4343259930610657 9.84281063079834 214 85 109
0.3022049367427826 0.34568309783935547 9.896811485290527 212 82 110
0.3551645278930664 0.4431047737598419 9.869999885559082 209 79 113
0.3780897855758667 0.3947843015193939 9.818441390991211 208 77 115
0.2986460030078888 0.34066951274871826 9.877633094787598 208 77 115
0.2576563060283661 0.31566864252090454 9.909795761108398 204 72 118
0.2711850702762604 0.3283681869506836 9.907559394836426 206 74 117
0.2770495116710663 0.3024434447288513 9.906670570373535 204 72 118
0.19851335883140564 0.3086589574813843 9.976093292236328 203 71 119
0.1562720388174057 0.3252512216567993 10.01664924621582 206 74 117
0.0573166124522686 0.32937246561050415 10.12135124206543 207 75 116
-0.03213058412075043 0.29797592759132385 10.208033561706543 206 74 117
-0.08950625360012054 0.35245752334594727 10.258638381958008 206 74 117
-0.1155962198972702 0.31608036160469055 10.292688369750977 207 75 116
-0.11875193566083908 0.29401248693466187 10.303346633911133 206 74 117
-0.14030107855796814 0.26653817296028137 10.338064193725586 208 77 115
-0.12084057927131653 0.3654935359954834 10.296548843383789 212 82 110
-0.21292634308338165 0.2429419606924057 10.413287162780762 209 78 114
-0.15734000504016876 0.2413794845342636 10.364996910095215 210 80 112
-0.2014726847410202 0.2838379442691803 10.39453125 209 79 113
-0.19217416644096375 0.21918454766273499 10.41154670715332 207 75 116
-0.22378037869930267 0.1659322828054428 10.471134185791016 205 73 117
-0.2333655059337616 0.1553584188222885 10.475959777832031 203 71 119
-0.2602808475494385 0.10222404450178146 10.503487586975098 203 71 119
-0.2798078954219818 0.07483924925327301 10.562051773071289 202 70 120
-0.29303619265556335 0.044494688510894775 10.579879760742188 203 71 119
-0.31670454144477844 0.03231746330857277 10.623954772949219 202 70 120
-0.33030399680137634 0.024569634348154068 10.635835647583008 200 68 122
-0.23729568719863892 0.025966722518205643 10.537897109985352 204 72 118
-0.32892394065856934 0.028514117002487183 10.645875930786133 202 70 120
-0.4033915102481842 -0.011918878182768822 10.738147735595703 202 70 120
-0.39723098278045654 -0.009316272102296352 10.747851371765137 199 66 123
-0.4166810214519501 -0.020147180184721947 10.775506973266602 200 68 122
-0.37496310472488403 0.006473947316408157 10.739997863769531 200 68 122
-0.4931895136833191 -0.02891388349235058 10.867223739624023 202 70 120
-0.5306597352027893 -0.03485558554530144 10.915298461914062 205 73 117
-0.5788818597793579 -0.06808042526245117 11.007226943969727 204 72 118
-0.575553297996521 -0.07873931527137756 10.996031761169434 205 73 117
-0.6240421533584595 -0.07758758962154388 11.081070899963379 206 74 117
-0.6969691514968872 -0.07824452966451645 11.162043571472168 205 73 117
-0.7557594180107117 -0.08885372430086136 11.217594146728516 206 74 117
-0.7828592658042908 -0.07927151024341583 11.26362133026123 209 78 114
-0.8770840764045715 -0.08694712072610855 11.35208797454834 210 80 112
-0.8408021330833435 -0.09432649612426758 11.329280853271484 212 82 110
-0.8521384000778198 -0.0994037538766861 11.333415985107422 214 85 109
-0.9126570224761963 -0.05042596533894539 11.429245948791504 218 90 104
-0.8778462409973145 -0.09430904686450958 11.42561149597168 223 97 99
-0.9196367859840393 -0.09735926985740662 11.507874488830566 224 100 97
-0.9135376811027527 -0.13314855098724365 11.476530075073242 227 103 95
-0.8638888001441956 -0.12483042478561401 11.406170845031738 225 101 96
-0.8308547735214233 -0.14575901627540588 11.356098175048828 225 101 96
-0.6881094574928284 -0.15992584824562073 11.232815742492676 223 98 98
-0.6655449271202087 -0.1915198713541031 11.213777542114258 225 101 96
-0.6830594539642334 -0.20795398950576782 11.251864433288574 227 103 95
-0.6954826712608337 -0.23345664143562317 11.268266677856445 227 104 94
-0.6688781380653381 -0.21944719552993774 11.275639533996582 226 102 96
-0.7943944334983826 -0.12094876170158386 11.411659240722656 213 83 109
-0.8656207919120789 -0.06387753784656525 11.463482856750488 207 75 116
-0.7118331789970398 -0.2021797001361847 11.321532249450684 224 100 97
-0.7960979342460632 -0.12548644840717316 11.4302396774292 214 85 109
-0.8274075388908386 -0.08989765495061874 11.44455623626709 215 86 108
-0.8348343372344971 -0.07172305136919022 11.442696571350098 216 88 106
-0.8822882771492004 -0.03653432056307793 11.512378692626953 215 86 108
-0.8607466220855713 -0.03666618466377258 11.491825103759766 209 79 113
-0.8686910271644592 -0.008870468474924564 11.541910171508789 214 85 109
-0.905773401260376 -0.007496704813092947 11.518752098083496 215 87 107
-0.8442634344100952 -0.019917016848921776 11.553512573242188 214 85 109
-1.0524606704711914 0.07997719198465347 11.842453002929688 212 82 110
-0.8493089079856873 0.025397274643182755 11.540534973144531 217 89 105
-0.8256866335868835 0.03590773046016693 11.523761749267578 220 93 102
-0.7969236969947815 0.0458567813038826 11.503819465637207 223 98 98
-0.7777202725410461 0.025833794847130775 11.490667343139648 228 106 93
-0.7100219130516052 0.07095509022474289 11.428007125854492 232 112 89
-0.7330140471458435 0.024461936205625534 11.466689109802246 236 119 84
-0.6748500466346741 0.04961967095732689 11.388155937194824 239 125 79
-0.6259469985961914 0.109260693192482 11.350720405578613 240 128 77
-0.6172781586647034 0.1203693374991417 11.33649730682373 239 125 79
-0.5972017645835876 0.12510807812213898 11.316030502319336 238 124 80
-0.603192150592804 0.1278248280286789 11.346250534057617 239 125 79
-0.6088629364967346 0.188390851020813 11.418152809143066 240 128 77
-0.5034632086753845 0.2131972759962082 11.215193748474121 240 128 77
-0.5108226537704468 0.1947350651025772 11.208223342895508 239 125 79
-0.46913331747055054 0.2214576005935669 11.147690773010254 237 121 82
-0.5262694954872131 0.27384844422340393 11.274540901184082 236 119 84
-0.48353874683380127 0.21279528737068176 11.161364555358887 236 120 83
-0.437803715467453 0.21179814636707306 11.092663764953613 232 113 88
-0.41606417298316956 0.20914019644260406 11.04140853881836 223 98 98
-0.36184871196746826 0.19055452942848206 10.956154823303223 220 94 102
-0.28188878297805786 0.18608571588993073 10.837844848632812 221 95 101
-0.3687589466571808 0.2100830227136612 10.943861961364746 220 93 102
-0.21229040622711182 0.19835993647575378 10.703086853027344 215 87 107
-0.20430827140808105 0.18221546709537506 10.6801118850708 211 81 111
-0.13107830286026 0.1658710092306137 10.575309753417969 200 68 122
-0.04461496323347092 0.16662076115608215 10.435155868530273 194 61 128
-0.12605032324790955 0.17966434359550476 10.533488273620605 187 53 134
0.02380785346031189 0.13203254342079163 10.373835563659668 183 48 138
0.09341508150100708 0.09927134960889816 10.241908073425293 183 48 138
0.28097307682037354 0.03702979162335396 10.07652759552002 182 47 139
0.20036107301712036 0.09112486243247986 10.133007049560547 183 48 138
0.2142065167427063 0.06027338653802872 10.131179809570312 187 53 134
0.35221734642982483 0.04301559552550316 9.996100425720215 194 61 128
0.25687721371650696 0.1643373817205429 10.09531307220459 199 66 123
0.3626894950866699 0.006118849851191044 9.993526458740234 203 71 119
0.48721930384635925 -0.052614033222198486 9.895620346069336 205 73 117
0.5901878476142883 -0.08908867835998535 9.801288604736328 203 71 119
0.7582351565361023 -0.15746533870697021 9.6715669631958 200 68 122
0.9070683717727661 -0.234671950340271 9.539033889770508 202 70 120
0.998238742351532 -0.28704938292503357 9.481605529785156 200 68 122
0.9827152490615845 -0.23265203833580017 9.493470191955566 196 63 126
1.1478073596954346 -0.3530157506465912 9.350077629089355 193 60 128
1.1370327472686768 -0.33421581983566284 9.324775695800781 189 55 132
1.11544930934906 -0.2785507142543793 9.288798332214355 186 52 135
1.3226546049118042 -0.4110095202922821 9.184953689575195 184 50 137
1.2178033590316772 -0.36649882793426514 9.256294250488281 184 50 137
1.235996961593628 -0.36726781725883484 9.216208457946777 184 50 137
1.2081025838851929 -0.3499338626861572 9.250123023986816 183 48 138
1.3320245742797852 -0.4624875783920288 9.241753578186035 184 50 137
1.4274359941482544 -0.5346391201019287 9.228157997131348 183 48 138
1.6429039239883423 -0.6989700794219971 9.16926097869873 184 50 137
1.8204634189605713 -0.7980445027351379 9.115312576293945 184 50 137
1.8325867652893066 -0.8637001514434814 9.141081809997559 184 50 137
1.8805046081542969 -0.8576975464820862 9.046059608459473 184 50 137
1.8532966375350952 -0.8500402569770813 9.077493667602539 183 48 138
1.8323403596878052 -0.8336980938911438 9.064699172973633 190 56 131
2.0204107761383057 -1.0214074850082397 9.032694816589355 197 64 125
1.9407614469528198 -0.9539026618003845 9.160134315490723 200 68 122
2.076153039932251 -1.0827078819274902 9.233659744262695 200 68 122
2.0012624263763428 -1.039773941040039 9.161772727966309 201 69 121
2.0552592277526855 -1.055662751197815 9.15304183959961 200 68 122
2.150223731994629 -1.1695913076400757 9.265832901000977 200 68 122
2.384815216064453 -1.4324028491973877 9.390378952026367 198 65 124
2.3216235637664795 -1.4046292304992676 9.401994705200195 199 66 123
2.390947103500366 -1.5373953580856323 9.450845718383789 199 66 123
2.3848142623901367 -1.5049899816513062 9.426698684692383 197 64 125
2.440584421157837 -1.5856729745864868 9.47487735748291 199 66 123
2.4559452533721924 -1.6065257787704468 9.490796089172363 199 66 123
2.4174368381500244 -1.5599011182785034 9.453689575195312 197 64 125
2.517305612564087 -1.6764841079711914 9.486288070678711 196 63 126
2.6138644218444824 -1.763251781463623 9.6512451171875 198 65 124
2.49977707862854 -1.6534318923950195 9.559624671936035 197 64 125
2.5651206970214844 -1.7437549829483032 9.627984046936035 194 61 128
2.574885606765747 -1.7478352785110474 9.685129165649414 192 59 129
2.614345073699951 -1.77870512008667 9.726346969604492 193 60 128
2.6482629776000977 -1.8357133865356445 9.784528732299805 194 61 128
2.645942449569702 -1.8497824668884277 9.808767318725586 195 62 127
2.6518537998199463 -1.8577762842178345 9.834708213806152 196 63 126
2.646850109100342 -1.8671345710754395 9.837836265563965 196 63 126
2.6619887351989746 -1.894470453262329 9.88048267364502 196 63 126
2.6477673053741455 -1.8673280477523804 9.849091529846191 196 63 126
2.66843581199646 -1.8846285343170166 9.908724784851074 196 63 126
2.5789151191711426 -1.7995492219924927 9.848835945129395 196 63 126
2.6797804832458496 -1.8991807699203491 9.951889991760254 189 55 132
2.7833945751190186 -2.0197625160217285 10.098979949951172 187 53 134
2.6982312202453613 -1.9143186807632446 9.998584747314453 194 61 128
2.690666437149048 -1.9126763343811035 10.01660442352295 197 64 125
2.707515001296997 -1.9258800745010376 10.070002555847168 198 65 124
2.752115249633789 -1.9736565351486206 10.12686538696289 194 61 128
2.70853853225708 -1.928592324256897 10.054143905639648 203 71 119
2.660102605819702 -1.8812049627304077 10.033099174499512 205 73 117
2.628396511077881 -1.8496301174163818 10.011069297790527 204 72 118
2.62200927734375 -1.8469065427780151 9.983160972595215 202 70 120
2.456442356109619 -1.6775548458099365 9.795622825622559 200 68 122
2.695106029510498 -1.924718976020813 10.061885833740234 204 72 118
2.559462070465088 -1.774407982826233 9.962275505065918 209 79 113
2.6198477745056152 -1.84604012966156 10.024642944335938 214 85 109
2.5826382637023926 -1.8073582649230957 10.007973670959473 220 94 102
2.5475547313690186 -1.7662649154663086 9.969405174255371 224 100 97
2.531773567199707 -1.748490810394287 9.957841873168945 229 107 92
2.536231756210327 -1.751658320426941 9.969547271728516 231 110 90
2.4664454460144043 -1.675113558769226 9.898980140686035 223 98 98
2.372669219970703 -1.5674716234207153 9.815524101257324 209 78 114
2.3478262424468994 -1.5465426445007324 9.790521621704102 205 73 117
2.288156747817993 -1.467795968055725 9.719330787658691 188 54 133
2.22892689704895 -1.388077735900879 9.663531303405762 174 39 145
2.1925158500671387 -1.3237254619598389 9.588506698608398 162 28 154
2.23280930519104 -1.3699570894241333 9.64155101776123 159 26 155
2.1412220001220703 -1.2738356590270996 9.548812866210938 159 26 155
2.142862319946289 -1.2741034030914307 9.56014633178711 162 28 154
2.17385196685791 -1.3392434120178223 9.596580505371094 158 25 156
2.077936887741089 -1.175713062286377 9.457249641418457 159 26 155
2.034862518310547 -1.0919166803359985 9.385326385498047 151 19 160
1.984169602394104 -1.024896502494812 9.332864761352539 164 30 152
1.971375584602356 -0.995195746421814 9.303558349609375 167 33 151
1.745099425315857 -0.9752865433692932 9.277338027954102 162 28 154
1.905342936515808 -0.9045096039772034 9.230220794677734 154 21 158
1.9078236818313599 -0.8607306480407715 9.186531066894531 167 33 151
1.9029779434204102 -0.839203953742981 9.162609100341797 168 34 150
1.9263957738876343 -0.8383110761642456 9.171725273132324 167 33 151
1.8762048482894897 -0.7794997692108154 9.130661010742188 157 24 157
1.8825101852416992 -0.7106403112411499 9.065407752990723 162 28 154
1.8483459949493408 -0.6359570622444153 9.01564884185791 167 33 151
1.8316231966018677 -0.5902228355407715 8.989818572998047 158 25 156
1.89874267578125 -0.6134857535362244 8.969966888427734 164 30 152
1.8383735418319702 -0.49722641706466675 8.923043251037598 162 28 154
1.7636631727218628 -0.4684925377368927 8.926849365234375 151 19 160
1.7488430738449097 -0.43044328689575195 8.90481948852539 165 31 151
1.6390862464904785 -0.41172024607658386 8.929924011230469 163 29 153
1.6090281009674072 -0.37816110253334045 8.881269454956055 159 26 155
1.4822005033493042 -0.3698500692844391 8.948534965515137 169 35 149
1.4466620683670044 -0.3586325943470001 8.958834648132324 163 29 153
1.4952356815338135 -0.37098726630210876 8.938742637634277 163 29 153
1.369573950767517 -0.37867608666419983 8.996721267700195 159 26 155
1.2916131019592285 -0.42245185375213623 9.089744567871094 158 25 156
1.2572674751281738 -0.3745799958705902 9.026086807250977 160 27 155
1.0718246698379517 -0.3925993740558624 9.098997116088867 159 26 155
1.0540543794631958 -0.39315423369407654 9.104350090026855 168 34 150
1.0668247938156128 -0.39353156089782715 9.105834007263184 170 36 148
0.9595104455947876 -0.4022877812385559 9.171772956848145 172 37 147
1.070020318031311 -0.372221976518631 9.091773986816406 174 39 145
0.7944552898406982 -0.4361114799976349 9.234806060791016 174 39 145
0.7668896317481995 -0.4146457016468048 9.218301773071289 162 28 154
0.7853520512580872 -0.5922883749008179 9.212836265563965 157 24 157
0.7204903960227966 -0.40001553297042847 9.520081520080566 163 29 153
0.5373221039772034 -0.5355545282363892 9.407148361206055 172 37 147
0.480224072933197 -0.5496084690093994 9.43387508392334 163 29 153
0.481990247964859 -0.5248938798904419 9.352238655090332 162 28 154
0.4150010049343109 -0.5932661890983582 9.455862045288086 175 40 144
0.318312406539917 -0.5685511231422424 9.47255802154541 180 45 141
0.3190460503101349 -0.627484917640686 9.49880599975586 182 47 139
0.23068372905254364 -0.7138819098472595 9.571260452270508 181 46 140
0.22868379950523376 -0.6541435718536377 9.540772438049316 158 25 156
0.3263401389122009 -0.5415823459625244 9.449088096618652 169 35 149
0.1804630309343338 -0.694858193397522 9.604154586791992 167 33 151
0.23126673698425293 -0.6948501467704773 9.599530220031738 164 30 152
0.13083328306674957 -0.7787057757377625 9.706405639648438 167 33 151
0.17827731370925903 -0.7330864071846008 9.649938583374023 174 39 145
0.03806797042489052 -0.840533435344696 9.775192260742188 147 16 161
0.01729765720665455 -0.8608423471450806 9.79109001159668 157 24 157
-0.036619678139686584 -0.8878157734870911 9.838187217712402 167 33 151
0.0660797655582428 -0.8007317185401917 9.724213600158691 170 36 148
-0.09969046711921692 -0.963093101978302 9.877981185913086 165 31 151
-0.13808920979499817 -0.9891114830970764 9.930614471435547 159 26 155
-0.15838095545768738 -1.0276470184326172 9.94155216217041 155 23 158
-0.1888061761856079 -1.046846866607666 9.944400787353516 157 24 157
-0.20834462344646454 -1.067944049835205 9.981134414672852 172 37 147
-0.22693809866905212 -1.092099905014038 9.971517562866211 169 35 149
-0.26581069827079773 -1.13611900806427 10.038758277893066 162 28 154
-0.37013450264930725 -1.2214425802230835 10.002659797668457 173 38 146
-0.3018135726451874 -1.1707843542099 10.061220169067383 159 26 155
-0.3826243281364441 -1.2436987161636353 10.083515167236328 168 34 150
-0.30762070417404175 -1.1907885074615479 10.14235782623291 168 34 150
-0.34587645530700684 -1.2244359254837036 10.128965377807617 170 36 148
-0.3081437051296234 -1.1993865966796875 10.185964584350586 175 40 144
-0.35479432344436646 -1.2655911445617676 10.153186798095703 178 44 142
-0.33854931592941284 -1.2266567945480347 10.234382629394531 181 46 140
-0.358083575963974 -1.2695457935333252 10.268644332885742 183 48 138
-0.10932934284210205 -1.0563305616378784 10.368136405944824 183 48 138
-0.19200864434242249 -1.1206995248794556 10.30910587310791 190 56 131
-0.1352711170911789 -1.0789176225662231 10.339534759521484 195 62 127
-0.15035302937030792 -1.0970040559768677 10.36336898803711 194 61 128
-0.035691648721694946 -0.9746264219284058 10.418060302734375 192 59 129
-0.06075781583786011 -1.0081340074539185 10.36004638671875 188 54 133
0.04680096358060837 -0.9237863421440125 10.397327423095703 184 50 137
0.11162630468606949 -0.8706282377243042 10.45556640625 176 42 143
0.17493189871311188 -0.8043826222419739 10.439295768737793 172 37 147
0.29545649886131287 -0.709496796131134 10.469770431518555 162 28 154
0.35837695002555847 -0.658765971660614 10.509429931640625 163 29 153
0.26920679211616516 -0.7195131778717041 10.471174240112305 160 27 155
0.2834443151950836 -0.7331719994544983 10.483086585998535 163 29 153
0.44349536299705505 -0.6184996962547302 10.55182933807373 162 28 154
0.4622339606285095 -0.5247265100479126 10.516624450683594 167 33 151
0.4646836519241333 -0.5350337624549866 10.507112503051758 167 33 151
0.48434337973594666 -0.5377691388130188 10.522539138793945 176 42 143
0.4921952188014984 -0.5459161996841431 10.530409812927246 176 42 143
0.5390287041664124 -0.5517663955688477 10.564085006713867 183 48 138
0.585732102394104 -0.3605906665325165 10.493157386779785 185 51 136
0.6751840114593506 -0.22826720774173737 10.497655868530273 182 47 139
0.743731677532196 -0.06718162447214127 10.441230773925781 180 45 141
0.8462457060813904 0.14664854109287262 10.39692211151123 180 45 141
0.9060856103897095 0.24721507728099823 10.383893013000488 175 40 144
0.9858991503715515 0.4235512316226959 10.3173189163208 169 35 149
1.019415259361267 0.481570303440094 10.327900886535645 169 35 149
1.013128638267517 0.4893316328525543 10.305912017822266 169 35 149
1.0869438648223877 0.6546601057052612 10.268542289733887 170 36 148
1.0005215406417847 0.6863633990287781 10.311488151550293 172 37 147
1.1031477451324463 0.7151400446891785 10.282013893127441 172 37 147
1.1442298889160156 0.7395541071891785 10.301409721374512 172 37 147
1.178531289100647 0.8408191800117493 10.229948043823242 170 36 148
1.2087432146072388 0.8550181984901428 10.231587409973145 173 38 146
1.2042444944381714 0.8307126760482788 10.244976043701172 173 38 146
1.137044072151184 0.7466251254081726 10.288806915283203 173 38 146
1.1856402158737183 0.8492567539215088 10.199095726013184 172 37 147
1.177242636680603 0.8324527144432068 10.173298835754395 172 37 147
1.1957632303237915 0.9638940095901489 10.040755271911621 170 36 148
1.2413173913955688 0.9690845012664795 10.141881942749023 169 35 149
1.2272837162017822 0.9869465827941895 10.095690727233887 170 36 148
1.2508978843688965 1.0401066541671753 10.074004173278809 170 36 148
1.2251355648040771 1.011798620223999 10.070741653442383 170 36 148
1.1940125226974487 1.0002130270004272 10.020952224731445 155 23 158
1.2580496072769165 0.9938797354698181 10.076092720031738 154 21 158
1.1645772457122803 0.9925176501274109 9.988054275512695 150 18 160
1.1512962579727173 1.0007882118225098 9.946321487426758 147 16 161
1.0936188697814941 0.9521129727363586 9.896479606628418 133 6 166
1.0550527572631836 0.9693374037742615 9.848821640014648 124 2 167
1.0328729152679443 0.9186715483665466 9.820150375366211 121 1 168
0.9825059175491333 0.885801374912262 9.786399841308594 112 0 168
0.9397037029266357 0.8531953692436218 9.735552787780762 106 0 167
0.9304502010345459 0.8249381184577942 9.723166465759277 101 0 167
0.9138748049736023 0.7847872972488403 9.672038078308105 98 0 166
0.8796346187591553 0.7533595561981201 9.619354248046875 87 1 164
0.8667269945144653 0.7096198201179504 9.596000671386719 89 1 164
0.8404304385185242 0.6699249744415283 9.545398712158203 92 0 165
0.7654780745506287 0.5887089967727661 9.452601432800293 98 0 166
0.8165297508239746 0.5898435115814209 9.473028182983398 101 0 167
0.832353949546814 0.5909038782119751 9.479297637939453 101 0 167
0.8104411959648132 0.5710105299949646 9.458330154418945 101 0 167
0.7634710669517517 0.47551706433296204 9.358449935913086 106 0 167
0.7871291637420654 0.48493853211402893 9.384770393371582 112 0 168
0.7793504595756531 0.39398056268692017 9.312261581420898 111 0 168
0.7636028528213501 0.3314027786254883 9.256636619567871 111 0 168
0.7560848593711853 0.27622607350349426 9.216455459594727 108 0 168
0.7398659586906433 0.19314371049404144 9.158332824707031 111 0 168
0.7269023656845093 0.15029998123645782 9.134772300720215 106 0 167
0.732300341129303 0.13770930469036102 9.114935874938965 112 0 168
0.7461780905723572 0.06493780016899109 9.04406452178955 120 1 168
0.7448728084564209 0.15873809158802032 9.120162963867188 118 1 168
0.7035045027732849 0.06360819935798645 9.07606315612793 108 0 168
0.7012840509414673 0.02361150085926056 9.04503345489502 106 0 167
0.6910707354545593 -0.034220896661281586 9.02241325378418 90 0 165
0.6785041093826294 -0.10904524475336075 8.982773780822754 87 1 164
0.6706498861312866 -0.13392820954322815 8.965479850769043 79 2 162
0.6098520755767822 -0.3014327883720398 8.873734474182129 73 2 159
0.6361050009727478 -0.2868247926235199 8.903460502624512 58 4 154
0.623102068901062 -0.3616214096546173 8.870294570922852 49 4 150
0.6722226142883301 -0.34940633177757263 8.8338623046875 47 4 149
0.6270706057548523 -0.3884679079055786 8.83835506439209 45 4 148
0.6159076690673828 -0.43226358294487 8.812561988830566 41 5 147
0.5779661536216736 -0.5421245098114014 8.786184310913086 31 5 142
0.5670888423919678 -0.5422846674919128 8.784028053283691 31 5 142
0.6987853646278381 -0.6674133539199829 8.928247451782227 31 5 142
0.5395704507827759 -0.5307488441467285 8.772340774536133 27 6 140
0.5120867490768433 -0.6007409691810608 8.781210899353027 27 6 140
0.4068385064601898 -0.5409193634986877 8.863638877868652 35 5 144
0.4271465837955475 -0.5818973183631897 8.726909637451172 33 5 143
0.3192366659641266 -0.7039575576782227 8.798439025878906 41 5 147
0.28630340099334717 -0.7227493524551392 8.76843547821045 37 5 145
0.3093867897987366 -0.7720929384231567 8.961840629577637 43 5 148
0.1872071623802185 -0.8698719143867493 8.99888801574707 52 4 152
0.17340785264968872 -0.8742811679840088 9.025973320007324 59 3 154
0.17283673584461212 -0.9288713335990906 9.029705047607422 59 3 154
0.15709680318832397 -0.9799354076385498 9.107678413391113 66 3 157
0.2595565915107727 -0.9230614304542542 9.125483512878418 69 3 158
0.15323039889335632 -0.9835346937179565 9.040233612060547 68 3 158
0.23267780244350433 -0.9998945593833923 9.247354507446289 63 3 156
0.20376741886138916 -0.9909726977348328 9.268579483032227 63 3 156
0.17362846434116364 -1.0931669473648071 9.065801620483398 66 3 157
0.1141490563750267 -1.0541901588439941 9.108134269714355 64 3 156
0.09362868219614029 -1.080405354499817 9.116167068481445 56 4 153
0.12178976088762283 -1.1074988842010498 9.018244743347168 59 3 154
0.11354207247495651 -1.1323121786117554 8.987930297851562 61 3 155
0.30533072352409363 -1.3718981742858887 9.123732566833496 64 3 156
0.11233946681022644 -1.1208107471466064 8.926474571228027 63 3 156
0.06335549801588058 -1.1045361757278442 8.847841262817383 56 4 153
0.0751723125576973 -1.1523137092590332 8.804633140563965 56 4 153
0.2159135341644287 -1.28750479221344 8.761861801147461 54 4 152
0.18392972648143768 -1.2262848615646362 8.789039611816406 63 3 156
0.22456222772598267 -1.1975822448730469 8.855069160461426 69 3 158
0.26861661672592163 -1.2298880815505981 8.868886947631836 74 2 160
0.2913495600223541 -1.3028607368469238 8.732843399047852 81 1 162
0.328855037689209 -1.3366366624832153 8.744837760925293 82 1 163
0.360263466835022 -1.3615829944610596 8.752625465393066 89 1 164
0.3694376051425934 -1.381895899772644 8.709506034851074 89 1 164
0.3693973124027252 -1.4289116859436035 8.755487442016602 90 0 165
0.4912377893924713 -1.437394380569458 8.573304176330566 97 0 166
0.4998341202735901 -1.5094348192214966 8.528410911560059 97 0 166
0.404485285282135 -1.3689055442810059 8.61026668548584 98 0 166
0.4075586497783661 -1.3671684265136719 8.581814765930176 94 0 165
0.44181758165359497 -1.3430265188217163 8.54030990600586 84 1 163
0.3694200813770294 -1.2936806678771973 8.568877220153809 74 2 160
0.21964474022388458 -1.2075326442718506 8.594769477844238 68 3 158
0.12042845040559769 -1.1260435581207275 8.551599502563477 56 4 153
0.05824797973036766 -0.9878113865852356 8.503223419189453 51 4 151
-0.12228711694478989 -0.9163982272148132 8.287053108215332 64 3 156
-0.12917913496494293 -0.8438975214958191 8.24129581451416 74 2 160
-0.2168262004852295 -0.851800799369812 8.19125747680664 87 1 164
-0.37322139739990234 -0.7711934447288513 8.059240341186523 103 0 167
-0.3948899507522583 -0.7653875350952148 8.049617767333984 106 0 167
-0.34937191009521484 -0.7784255146980286 7.996828556060791 104 0 167
-0.43020468950271606 -0.7188140153884888 7.886111736297607 112 0 168
-0.4897139370441437 -0.6776182651519775 7.786046028137207 121 1 168
-0.4897923171520233 -0.6789530515670776 7.740903854370117 130 4 167
-0.6336712837219238 -0.5967521667480469 7.529897212982178 139 9 164
-0.5736830830574036 -0.6532468199729919 7.726916790008545 150 18 160
-0.6842108368873596 -0.5576481223106384 7.692684173583984 153 20 159
-0.6161999702453613 -0.5705554485321045 7.725217342376709 155 23 158
-0.6593230366706848 -0.5582346320152283 7.760185718536377 158 25 156
-0.6956948041915894 -0.5714910626411438 7.785772800445557 162 28 154
-0.7210460901260376 -0.5940399169921875 7.9007887840271 158 25 156
-0.7274877429008484 -0.6387584805488586 8.07199478149414 158 25 156
-0.6848964095115662 -0.7019563913345337 8.105249404907227 151 19 160
-0.8174135684967041 -0.6660944819450378 8.186507225036621 163 29 153
-0.8829841017723083 -0.6856182217597961 8.318277359008789 175 40 144
-0.932929515838623 -0.7334891557693481 8.335355758666992 178 44 142
-0.9069659113883972 -0.8351748585700989 8.318549156188965 191 57 130
-0.971082866191864 -0.6995988488197327 8.582165718078613 195 62 127
-0.8529512286186218 -0.6699079275131226 8.427909851074219 199 66 123
-0.8631505370140076 -0.6333853602409363 8.356225967407227 197 64 125
-0.6637598872184753 -0.7928357124328613 8.390216827392578 202 70 120
-0.828161358833313 -0.7125536799430847 8.529142379760742 202 70 120
-0.8775311708450317 -0.7203437089920044 8.59566593170166 201 69 121
-0.8255413174629211 -0.6193270683288574 8.331049919128418 195 62 127
-0.8136260509490967 -0.5268526673316956 8.12861156463623 184 50 137
-0.8353145122528076 -0.3901827335357666 7.927447319030762 177 43 143
-0.7913531064987183 -0.2759944796562195 7.676285266876221 173 38 146
-0.8096740245819092 -0.30940040946006775 7.7228922843933105 172 37 147
-0.8748074173927307 -0.1874278038740158 7.667407512664795 172 37 147
-0.8991002440452576 -0.11198318749666214 7.640470027923584 170 36 148
-0.9407853484153748 -0.0074442308396101 7.564859390258789 167 33 151
-0.9769719243049622 0.06858459115028381 7.532718181610107 162 28 154
-0.9751895070075989 0.025868618860840797 7.60340690612793 159 26 155
-0.9653221368789673 0.09091736376285553 7.539370059967041 163 29 153
-1.0539028644561768 0.2694859802722931 7.415380001068115 169 35 149
-1.0103137493133545 0.2796716094017029 7.439958095550537 172 37 147
-1.0816259384155273 0.3661488890647888 7.367859840393066 174 39 145
-1.1135377883911133 0.35746073722839355 7.3572163581848145 174 39 145
-1.1081945896148682 0.3254358172416687 7.432796478271484 174 39 145
-1.0976580381393433 0.2871010899543762 7.500169277191162 172 37 147
-1.0977494716644287 0.3009747564792633 7.492616653442383 170 36 148
-1.0888594388961792 0.3017694652080536 7.54369592666626 167 33 151
-1.0563116073608398 0.26793211698532104 7.560525894165039 165 31 151
-1.0780390501022339 0.27779248356819153 7.594979763031006 167 33 151
-1.0721344947814941 0.2694662809371948 7.680535793304443 164 30 152
-1.0616536140441895 0.24626679718494415 7.747187614440918 164 30 152
-1.0576609373092651 0.24823881685733795 7.7110185623168945 163 29 153
-1.0879238843917847 0.2455434799194336 7.795845031738281 159 26 155
-1.054213523864746 0.20737698674201965 7.831421852111816 149 17 161
-1.0421807765960693 0.185628741979599 7.886276721954346 143 13 163
-1.0013582706451416 0.12283820658922195 8.09595775604248 146 15 162
-1.047122836112976 0.1697075366973877 8.001653671264648 147 16 161
-1.0140159130096436 0.14278823137283325 8.100061416625977 154 21 158
-1.0267585515975952 0.13071954250335693 8.089098930358887 155 23 158
-1.0140668153762817 0.09080366045236588 8.201436996459961 159 26 155
-0.9804711937904358 0.09493067860603333 8.17139720916748 160 27 155
-0.9713216423988342 0.09386207908391953 8.190262794494629 164 30 152
-0.9581759572029114 0.061847783625125885 8.274127960205078 165 31 151
-1.033838152885437 0.17294630408287048 8.176976203918457 162 28 154
-0.9216861128807068 0.05326875299215317 8.266551971435547 170 36 148
-0.9173185229301453 0.029887758195400238 8.285299301147461 174 39 145
-0.8888320326805115 -0.005518225021660328 8.321982383728027 177 43 143
-0.876630961894989 0.015092754736542702 8.362360954284668 176 42 143
-0.8588820695877075 0.0034123738296329975 8.399831771850586 175 40 144
-0.8421264886856079 -0.03496450185775757 8.439151763916016 165 31 151
-0.9072374701499939 -0.011610370129346848 8.39767074584961 157 24 157
-0.7606050968170166 -0.07142706215381622 8.546489715576172 153 20 159
-1.0121994018554688 -0.17819170653820038 8.330582618713379 151 19 160
-0.9418722987174988 -0.006596954073756933 8.469141006469727 149 17 161
-0.8167913556098938 0.01129843294620514 8.52004623413086 150 18 160
-0.8952256441116333 0.01370170060545206 8.462237358093262 153 20 159
-0.7606531381607056 -0.21874666213989258 8.540308952331543 144 14 163
-0.7473307251930237 0.016286689788103104 8.591976165771484 137 8 165
-0.8093875646591187 0.16892072558403015 8.569597244262695 144 14 163
-0.6338843107223511 0.11498680710792542 8.684552192687988 147 16 161
-0.699625551700592 0.009060376323759556 8.632187843322754 144 14 163
-0.6750591397285461 0.010778768919408321 8.652413368225098 149 17 161
-0.5849371552467346 -0.0017954546492546797 8.742072105407715 144 14 163
-0.5591720342636108 0.010382158681750298 8.744176864624023 143 13 163
-0.5020074844360352 0.04548947513103485 8.806608200073242 146 15 162
-0.5126421451568604 0.01790301688015461 8.773470878601074 137 8 165
-0.44144442677497864 0.07739270478487015 8.813313484191895 137 8 165
-0.5041622519493103 -0.012465974316000938 8.797758102416992 140 10 164
-0.45898863673210144 -0.03415638208389282 8.83521556854248 142 12 164
-0.5142383575439453 -0.052847255021333694 8.795584678649902 142 12 164
-0.43887799978256226 -0.0315331295132637 8.86560344696045 146 15 162
-0.45229992270469666 -0.016637474298477173 8.842049598693848 146 15 162
-0.4566747546195984 -0.010876225307583809 8.8316068649292 147 16 161
-0.42809775471687317 -0.028801899403333664 8.863988876342773 151 19 160
-0.28167256712913513 0.02175826020538807 8.960041999816895 157 24 157
-0.1452828049659729 0.05462942272424698 9.054488182067871 162 28 154
0.17124684154987335 0.0988396480679512 9.271581649780273 162 28 154
0.24505382776260376 0.13018359243869781 9.344550132751465 164 30 152
0.32547882199287415 0.25026094913482666 9.489007949829102 165 31 151
0.24960803985595703 0.3784085512161255 9.625311851501465 164 30 152
0.12800812721252441 0.5998685359954834 9.62574577331543 170 36 148
0.21523812413215637 0.529030442237854 9.714922904968262 169 35 149
0.14784760773181915 0.5911703705787659 9.805824279785156 168 34 150
0.2140205055475235 0.5384041666984558 9.757908821105957 170 36 148
0.20800507068634033 0.49395978450775146 9.794249534606934 174 39 145
0.2586977481842041 0.5894943475723267 9.849210739135742 172 37 147
0.2874327301979065 0.43801581859588623 9.71231460571289 173 38 146
0.3079049587249756 0.40247035026550293 9.763090133666992 173 38 146
0.4039786756038666 0.2977507710456848 9.715578079223633 168 34 150
0.4335451126098633 0.1427641361951828 9.720555305480957 162 28 154
0.38814112544059753 0.31526610255241394 9.678590774536133 160 27 155
0.531408429145813 0.09439360350370407 9.459268569946289 157 24 157
0.4618326425552368 0.21001657843589783 9.547420501708984 155 23 158
0.356697142124176 0.28516873717308044 9.630892753601074 158 25 156
0.45157143473625183 0.2420361489057541 9.567829132080078 159 26 155
0.4289669692516327 0.21570295095443726 9.493646621704102 157 24 157
0.6542237997055054 0.20033198595046997 9.422524452209473 158 25 156
0.3433109521865845 0.24297243356704712 9.599579811096191 155 23 158
0.41020452976226807 0.20012742280960083 9.542202949523926 158 25 156
