ply
format ascii 1.0
element vertex 721
property float x
property float y
property float z
property uchar red
property uchar green
property uchar blue
end_header
-0.3585539162158966 9.434296607971191 10.407808303833008 249 153 61
-0.2989083230495453 9.44931697845459 10.333047866821289 249 153 61
-0.16390134394168854 9.493425369262695 10.18413257598877 250 157 58
-0.02502041682600975 9.52707290649414 9.990368843078613 250 159 58
0.13847607374191284 9.558168411254883 9.792797088623047 250 159 58
0.21134336292743683 9.579161643981934 9.690738677978516 250 157 58
0.1627577394247055 9.50104808807373 9.742083549499512 250 159 58
0.27275192737579346 9.600314140319824 9.616852760314941 250 159 58
0.29721203446388245 9.616759300231934 9.578155517578125 250 159 58
0.31789630651474 9.641902923583984 9.619972229003906 250 160 57
0.29119521379470825 9.630019187927246 9.599947929382324 250 159 58
0.3316202163696289 9.664812088012695 9.575396537780762 250 159 58
0.37993234395980835 9.672491073608398 9.53933334350586 250 157 58
0.41945576667785645 9.709123611450195 9.494851112365723 250 157 58
0.49323293566703796 9.715391159057617 9.463410377502441 250 157 58
0.5598357915878296 9.757525444030762 9.391474723815918 250 157 58
0.6342955827713013 9.802833557128906 9.321147918701172 250 159 58
0.9273532032966614 9.884361267089844 9.20315170288086 250 159 58
1.0903136730194092 9.937104225158691 9.12336254119873 250 159 58
1.2588917016983032 10.05288314819336 8.953339576721191 250 160 57
1.3985165357589722 10.04139518737793 8.950543403625488 250 159 58
1.198830008506775 10.215760231018066 8.748624801635742 250 159 58
1.2891814708709717 10.124110221862793 8.719978332519531 250 159 58
1.2823402881622314 10.218212127685547 8.593969345092773 250 159 58
1.2917048931121826 10.244479179382324 8.59286880493164 250 159 58
1.324931263923645 10.31436538696289 8.490407943725586 250 157 58
1.2288413047790527 10.252591133117676 8.572165489196777 250 157 58
1.291990041732788 10.304211616516113 8.48935317993164 250 157 58
1.289467692375183 10.26988410949707 8.564064979553223 250 157 58
1.2298531532287598 10.321451187133789 8.496201515197754 250 157 58
1.3491888046264648 10.302433013916016 8.54593276977539 250 156 59
1.2920925617218018 10.309943199157715 8.57015323638916 250 157 58
1.5810376405715942 10.200812339782715 8.634142875671387 250 156 59
1.345057487487793 10.208976745605469 8.737032890319824 249 154 60
1.261932611465454 10.207000732421875 8.750798225402832 250 159 58
1.327866792678833 10.27541446685791 8.659828186035156 250 159 58
1.2127909660339355 10.22500991821289 8.720041275024414 249 154 60
1.169049620628357 10.331043243408203 8.61972713470459 250 156 59
1.5744991302490234 10.114349365234375 8.858926773071289 250 157 58
1.862085223197937 9.95436954498291 9.028658866882324 250 156 59
1.8198449611663818 9.92763900756836 9.055858612060547 249 153 61
1.8872690200805664 9.904397964477539 9.06818962097168 248 149 64
1.9383516311645508 9.865151405334473 9.12503433227539 249 154 60
1.8997447490692139 9.88138484954834 9.098381996154785 249 153 61
1.970000147819519 9.865422248840332 9.128021240234375 248 152 62
1.695845127105713 9.867413520812988 9.149078369140625 247 147 65
1.8197020292282104 9.817529678344727 9.216300010681152 246 142 68
2.0488593578338623 9.70184326171875 9.295601844787598 245 141 69
2.052297353744507 9.833515167236328 9.170360565185547 244 138 71
2.1709585189819336 9.75589656829834 9.25869083404541 245 139 70
2.13623309135437 9.808252334594727 9.201929092407227 246 143 67
2.2498748302459717 9.772906303405762 9.232062339782715 249 153 61
2.4234206676483154 9.73583984375 9.284222602844238 250 159 58
2.596122980117798 9.686102867126465 9.355979919433594 251 164 54
2.5636212825775146 9.692670822143555 9.287961959838867 253 175 49
2.7115707397460938 9.650491714477539 9.383599281311035 253 184 44
2.7400689125061035 9.639588356018066 9.400262832641602 253 187 43
2.753347396850586 9.625079154968262 9.368841171264648 253 190 41
2.8559560775756836 9.594979286193848 9.4635648727417 252 199 38
2.8958888053894043 9.560914039611816 9.483999252319336 251 211 36
2.96089768409729 9.557613372802734 9.493819236755371 252 204 37
3.0770263671875 9.533132553100586 9.563483238220215 252 206 37
3.141106605529785 9.566750526428223 9.540711402893066 252 199 38
3.4590706825256348 9.419191360473633 9.733261108398438 251 208 36
3.276888608932495 9.460125923156738 9.669206619262695 251 208 36
3.413058042526245 9.35637092590332 9.721375465393066 251 211 36
3.392134666442871 9.37916088104248 9.746835708618164 250 214 36
3.517620801925659 9.36805534362793 9.805095672607422 251 209 36
3.5938243865966797 9.269535064697266 9.88305377960205 251 211 36
3.674748420715332 9.199734687805176 9.969376564025879 250 213 36
3.7754714488983154 9.178382873535156 10.026294708251953 250 216 36
3.679649829864502 9.23438835144043 9.98698616027832 252 203 37
3.7678062915802 9.14997386932373 10.056427955627441 252 204 37
3.8816165924072266 9.048944473266602 10.18503475189209 252 203 37
3.8355801105499268 9.084786415100098 10.127291679382324 252 203 37
3.7875988483428955 9.166537284851074 10.120413780212402 252 201 38
3.8587779998779297 9.064443588256836 10.179805755615234 252 206 37
3.848212957382202 9.051329612731934 10.346590042114258 250 214 36
3.964188814163208 8.939716339111328 10.457050323486328 250 213 36
3.869422435760498 9.041563987731934 10.566652297973633 252 203 37
3.86374568939209 9.001836776733398 10.616835594177246 252 201 38
3.8854427337646484 8.982945442199707 10.723966598510742 250 213 36
3.856292486190796 8.986741065979004 10.77251148223877 252 199 38
3.8580210208892822 8.973122596740723 10.947717666625977 253 198 38
3.843538522720337 8.98324203491211 11.047575950622559 252 201 38
3.8271329402923584 8.987597465515137 11.129395484924316 252 206 37
3.8129141330718994 9.104657173156738 11.174280166625977 252 203 37
3.769922971725464 9.110114097595215 11.400471687316895 251 209 36
3.750523567199707 9.05858325958252 11.511985778808594 251 211 36
3.7226645946502686 9.193521499633789 11.698168754577637 253 196 39
3.8130035400390625 9.090860366821289 11.540188789367676 252 201 38
3.6900296211242676 9.214554786682129 11.729090690612793 251 211 36
3.6508941650390625 9.203080177307129 11.644490242004395 251 211 36
3.6710283756256104 9.273591041564941 11.773001670837402 252 203 37
3.7620716094970703 9.382589340209961 11.83318042755127 252 204 37
3.6916863918304443 9.305683135986328 11.715608596801758 252 204 37
3.690363645553589 9.311410903930664 11.762368202209473 253 198 38
3.6360278129577637 9.381495475769043 11.86800479888916 250 213 36
3.681472063064575 9.229259490966797 11.761752128601074 251 209 36
3.6078853607177734 9.506978034973145 11.8391695022583 253 198 38
3.5116124153137207 9.655632019042969 11.888927459716797 252 203 37
3.532414674758911 9.771743774414062 11.867844581604004 252 199 38
3.4389054775238037 10.043899536132812 11.943163871765137 252 201 38
3.3812241554260254 10.135485649108887 11.950399398803711 252 203 37
3.361658811569214 10.27968692779541 11.968554496765137 252 206 37
3.4605789184570312 10.172871589660645 11.947839736938477 251 211 36
3.4158482551574707 10.221992492675781 11.967325210571289 251 211 36
3.3967690467834473 10.372756958007812 11.985967636108398 253 198 38
3.5420124530792236 10.342370986938477 11.84863567352295 252 199 38
3.445216417312622 10.446635246276855 11.995956420898438 252 204 37
3.3722918033599854 10.380544662475586 11.981245040893555 251 209 36
3.346363067626953 10.389005661010742 12.004744529724121 251 209 36
3.287539005279541 10.52574348449707 12.015294075012207 251 208 36
3.308427095413208 10.453744888305664 12.014588356018066 252 206 37
3.268842935562134 10.478530883789062 12.022039413452148 253 196 39
3.2772843837738037 10.512475967407227 11.997632026672363 253 188 42
3.2497270107269287 10.649270057678223 11.953429222106934 253 181 45
3.2132325172424316 10.599579811096191 12.023425102233887 253 195 40
3.169323205947876 10.729796409606934 12.003022193908691 249 219 36
3.1173179149627686 10.840608596801758 12.01279354095459 250 214 36
3.08683180809021 10.866661071777344 12.004279136657715 252 204 37
2.9968018531799316 11.064208984375 12.022317886352539 253 195 40
3.0406625270843506 11.051688194274902 12.035280227661133 252 203 37
3.004128932952881 11.096552848815918 12.00800895690918 252 206 37
3.0177083015441895 11.102152824401855 12.066167831420898 252 203 37
2.9671714305877686 11.111394882202148 11.966031074523926 252 201 38
2.956331729888916 11.136661529541016 11.977714538574219 253 198 38
2.9893956184387207 11.338637351989746 12.088425636291504 252 204 37
2.8515260219573975 11.280467987060547 12.117799758911133 252 206 37
2.9638755321502686 11.239808082580566 12.050448417663574 252 199 38
2.9693875312805176 11.167757034301758 12.004257202148438 251 211 36
2.8753702640533447 11.124335289001465 11.897706031799316 247 224 36
2.937142848968506 11.190461158752441 11.951913833618164 251 211 36
2.8200736045837402 11.101031303405762 11.863078117370605 250 213 36
2.76652193069458 11.091197967529297 11.81718921661377 250 214 36
2.6947267055511475 10.988879203796387 11.741387367248535 250 213 36
2.7549962997436523 10.921792030334473 11.796218872070312 251 211 36
2.6378726959228516 10.879952430725098 11.693140983581543 252 206 37
2.609062910079956 10.874425888061523 11.677668571472168 249 217 36
2.5521368980407715 10.874032974243164 11.674378395080566 251 209 36
2.4691381454467773 11.00529956817627 11.603588104248047 252 206 37
2.5242631435394287 10.935344696044922 11.631793975830078 252 201 38
2.593428373336792 10.854116439819336 11.682805061340332 251 208 36
2.5615150928497314 10.736617088317871 11.654043197631836 250 213 36
2.5365123748779297 10.880767822265625 11.647643089294434 253 198 38
2.5707435607910156 10.729228019714355 11.662938117980957 250 216 36
2.5431969165802 10.599929809570312 11.631514549255371 252 203 37
2.5239548683166504 10.337979316711426 11.636955261230469 251 208 36
2.493579864501953 10.007080078125 11.618905067443848 251 209 36
2.460005283355713 9.841917991638184 11.609175682067871 252 206 37
2.4533066749572754 9.747526168823242 11.647119522094727 248 221 36
2.6432418823242188 9.73735523223877 11.85628890991211 251 208 36
2.4407575130462646 9.639901161193848 11.610159873962402 251 208 36
2.4143173694610596 9.532532691955566 11.612372398376465 251 208 36
2.374511480331421 9.479288101196289 11.554841995239258 251 209 36
2.369187355041504 9.454996109008789 11.558655738830566 251 211 36
2.3139309883117676 9.14968490600586 11.61070728302002 250 213 36
2.307772636413574 9.136136054992676 11.576872825622559 250 214 36
2.344547986984253 9.039209365844727 11.794548034667969 250 216 36
2.373002290725708 8.985170364379883 11.836350440979004 249 217 36
2.352598190307617 8.904046058654785 11.832515716552734 249 217 36
2.5751750469207764 8.933587074279785 11.783799171447754 247 224 36
2.3489646911621094 8.868547439575195 11.839475631713867 250 214 36
2.3425705432891846 8.912734031677246 11.813895225524902 250 214 36
2.3497729301452637 8.913135528564453 11.873455047607422 252 206 37
2.311445951461792 8.96508502960205 11.686613082885742 251 208 36
2.3604156970977783 9.020479202270508 11.800652503967285 251 208 36
2.3256919384002686 9.004498481750488 11.737273216247559 252 206 37
2.363976240158081 9.086548805236816 11.746916770935059 252 201 38
2.3485636711120605 9.119690895080566 11.714653015136719 251 209 36
2.2952818870544434 9.116016387939453 11.594712257385254 253 198 38
2.289935350418091 9.024316787719727 11.615751266479492 252 199 38
2.234832286834717 8.879598617553711 11.546652793884277 252 199 38
2.2343966960906982 8.991954803466797 11.47546672821045 253 198 38
2.128579616546631 8.790743827819824 11.32320499420166 253 188 42
2.115382432937622 8.818177223205566 11.271257400512695 253 198 38
1.8709545135498047 8.305463790893555 10.726153373718262 248 149 64
1.9031739234924316 8.469545364379883 10.93513298034668 252 167 53
1.8523660898208618 8.39922046661377 10.88228702545166 248 152 62
1.7506757974624634 8.287553787231445 10.968875885009766 249 154 60
1.800143837928772 8.346641540527344 10.805318832397461 250 156 59
1.9694043397903442 8.56428337097168 11.002591133117676 253 184 44
2.100353956222534 8.723398208618164 11.151534080505371 251 211 36
1.993595838546753 8.593823432922363 11.060213088989258 253 192 41
1.9022533893585205 8.449942588806152 10.895230293273926 251 164 54
1.8761780261993408 8.396639823913574 10.968734741210938 252 166 53
1.8511935472488403 8.374920845031738 10.749917984008789 252 170 51
1.9431407451629639 8.507266998291016 10.862765312194824 253 178 47
1.8473832607269287 8.357199668884277 10.626069068908691 249 154 60
1.8298389911651611 8.326507568359375 10.416528701782227 247 147 65
1.8413742780685425 8.31924057006836 10.349722862243652 240 129 77
1.6024930477142334 8.11832332611084 10.006756782531738 253 184 44
1.7852877378463745 8.232695579528809 10.082494735717773 253 182 45
1.784460186958313 8.265487670898438 10.158750534057617 253 184 44
1.8005117177963257 8.268156051635742 10.172696113586426 253 185 43
1.7599499225616455 8.226068496704102 10.078972816467285 253 181 45
1.797813892364502 8.240986824035645 10.06479263305664 253 179 46
1.7860196828842163 8.208253860473633 10.098283767700195 253 179 46
1.812926173210144 8.190261840820312 10.095775604248047 253 179 46
1.8665587902069092 8.321101188659668 10.153670310974121 253 179 46
1.787204623222351 8.207856178283691 10.060131072998047 253 179 46
1.818049430847168 8.209726333618164 9.865127563476562 252 169 52
1.7711342573165894 8.247491836547852 10.076581001281738 251 164 54
1.8140904903411865 8.219700813293457 9.840620040893555 250 160 57
1.7718678712844849 8.22453498840332 9.865447044372559 250 160 57
1.8143119812011719 8.215372085571289 9.804926872253418 249 153 61
1.8249893188476562 8.243366241455078 9.752572059631348 248 152 62
1.8238054513931274 8.20513916015625 9.75605297088623 248 150 63
1.842599630355835 8.200554847717285 9.686020851135254 245 139 70
1.8620660305023193 8.181079864501953 9.593743324279785 246 143 67
1.8828822374343872 8.169281005859375 9.499579429626465 245 139 70
1.9028546810150146 8.157687187194824 9.418961524963379 243 135 72
1.9139121770858765 8.147781372070312 9.360992431640625 243 135 72
1.919897198677063 8.149465560913086 9.345671653747559 242 133 74
1.9307613372802734 8.130630493164062 9.3026762008667 242 133 74
1.947965383529663 8.140585899353027 9.336832046508789 240 129 77
1.921727180480957 8.136229515075684 9.31240463256836 238 124 80
1.9249117374420166 8.136674880981445 9.28799819946289 236 119 84
1.9323608875274658 8.123553276062012 9.243122100830078 229 107 92
1.9361356496810913 8.123856544494629 9.240377426147461 224 100 97
1.9428271055221558 8.126407623291016 9.252585411071777 217 89 105
1.9375947713851929 8.118369102478027 9.184215545654297 209 79 113
1.8616167306900024 8.10168170928955 9.15113353729248 208 77 115
1.8496670722961426 8.108469009399414 9.165009498596191 208 77 115
1.801973819732666 8.095656394958496 9.086372375488281 208 77 115
1.763005018234253 8.063077926635742 9.045979499816895 210 80 112
1.6234562397003174 8.038325309753418 8.979669570922852 207 75 116
1.7485051155090332 8.07456111907959 8.974995613098145 210 80 112
1.698628544807434 8.103105545043945 8.965296745300293 209 78 114
1.687567114830017 8.123215675354004 8.961353302001953 207 75 116
1.6207900047302246 8.160566329956055 8.897415161132812 204 72 118
1.5369614362716675 8.162041664123535 8.859140396118164 202 70 120
1.4699121713638306 8.208653450012207 8.800482749938965 209 78 114
1.4850811958312988 8.16103744506836 8.825142860412598 215 86 108
1.6404094696044922 8.165367126464844 8.9462251663208 212 82 110
1.3687704801559448 8.198065757751465 8.748663902282715 213 83 109
1.3468810319900513 8.456332206726074 8.819622993469238 214 85 109
1.1795202493667603 8.241771697998047 8.633028984069824 215 87 107
1.1380075216293335 8.209920883178711 8.583130836486816 222 96 100
1.0613048076629639 8.228882789611816 8.542533874511719 224 100 97
1.11647629737854 8.19632625579834 8.558950424194336 224 100 97
0.9177465438842773 8.218957901000977 8.44151782989502 219 91 103
1.014588713645935 8.19118881225586 8.513806343078613 220 94 102
0.8700587749481201 8.239578247070312 8.42870044708252 219 91 103
0.7755153179168701 8.324434280395508 8.343406677246094 217 89 105
0.6565849781036377 8.298369407653809 8.327049255371094 213 83 109
0.49689093232154846 8.37452507019043 8.242920875549316 203 71 119
0.30076202750205994 8.423368453979492 8.148608207702637 196 63 126
0.4034949541091919 8.395917892456055 8.208053588867188 194 61 128
0.35114559531211853 8.411142349243164 8.224435806274414 192 59 129
0.34005048871040344 8.42989444732666 8.171636581420898 181 46 140
0.2568117082118988 8.547565460205078 8.061613082885742 175 40 144
0.2446630746126175 8.481364250183105 8.119623184204102 183 48 138
0.1230289414525032 8.55392837524414 8.040115356445312 184 50 137
-0.018108995631337166 8.54740047454834 7.93206262588501 187 53 134
-0.12816011905670166 8.681503295898438 7.8378729820251465 189 55 132
-0.20235122740268707 8.71440601348877 7.788153648376465 192 59 129
-0.17371766269207 8.677783966064453 7.850061893463135 187 53 134
-0.31328749656677246 8.805949211120605 7.687289237976074 184 50 137
-0.29711171984672546 8.774012565612793 7.707353591918945 187 53 134
-0.325344443321228 8.808175086975098 7.676738739013672 182 47 139
-0.36879417300224304 8.863127708435059 7.609197616577148 174 39 145
-0.5146245360374451 8.975372314453125 7.471527576446533 172 37 147
-0.48896417021751404 8.797279357910156 7.49090051651001 160 27 155
-0.4179440438747406 8.91048526763916 7.545800685882568 147 16 161
-0.4170348048210144 8.92788314819336 7.5446624755859375 151 19 160
-0.5583504438400269 9.0494384765625 7.35954475402832 149 17 161
-0.5303479433059692 9.088235855102539 7.391044616699219 147 16 161
-0.5399913191795349 9.223895072937012 7.3161797523498535 147 16 161
-0.5459907054901123 9.376758575439453 7.2567830085754395 146 15 162
-0.5976712107658386 9.512474060058594 7.144582748413086 144 14 163
-0.6293877959251404 9.510218620300293 7.117141246795654 155 23 158
-0.6160412430763245 9.598440170288086 7.111562252044678 162 28 154
-0.6468687653541565 9.57819652557373 7.076024532318115 159 26 155
-0.689671516418457 9.512945175170898 7.017943859100342 151 19 160
-0.6680982112884521 9.641388893127441 7.031977653503418 143 13 163
-0.7219905853271484 9.607586860656738 6.947964191436768 142 12 164
-0.6891306042671204 9.75905704498291 6.976764678955078 146 15 162
-0.6649977564811707 9.844573020935059 7.001574516296387 155 23 158
-0.5738740563392639 9.975852012634277 7.0386786460876465 160 27 155
-0.6593787670135498 10.049222946166992 6.9803338050842285 165 31 151
-0.642667829990387 10.189640045166016 7.0042290687561035 181 46 140
-0.6257584691047668 10.338054656982422 6.971826076507568 193 60 128
-0.6132181286811829 10.351353645324707 6.982296943664551 208 77 115
-0.5693262815475464 10.389121055603027 7.056666851043701 215 86 108
-0.5861591100692749 10.557073593139648 7.097648620605469 219 91 103
-0.5580340027809143 10.691336631774902 7.109153747558594 226 102 96
-0.565176784992218 10.685070037841797 7.111550807952881 234 116 85
-0.6163422465324402 10.243066787719727 6.9310302734375 180 45 141
-0.6157926917076111 10.430008888244629 7.0391035079956055 184 50 137
-0.6084607839584351 10.547928810119629 7.012546539306641 188 54 133
-0.5680421590805054 11.049296379089355 7.329610824584961 246 143 67
-0.5681145191192627 10.976755142211914 7.262698650360107 246 142 68
-0.5076043605804443 11.308024406433105 7.522316932678223 244 138 71
-0.5590505599975586 11.186287879943848 7.310693740844727 243 134 73
-0.5652070641517639 11.197505950927734 7.2726521492004395 246 142 68
-0.5684502124786377 11.416708946228027 7.444371223449707 242 132 75
-0.5805561542510986 11.43197250366211 7.396963119506836 242 133 74
-0.5560718774795532 11.368362426757812 7.427115440368652 245 139 70
-0.575160801410675 11.313361167907715 7.403210163116455 246 142 68
-0.5397897958755493 11.307012557983398 7.613883972167969 247 147 65
-0.5531359910964966 11.469484329223633 7.639894485473633 250 156 59
-0.5371367931365967 11.583418846130371 7.801370620727539 252 169 52
-0.5299014449119568 11.61526107788086 7.876419544219971 253 179 46
-0.561040461063385 11.719747543334961 7.950332164764404 253 188 42
-0.553577184677124 11.715958595275879 8.010225296020508 253 196 39
-0.5109454393386841 11.77788257598877 8.092082023620605 253 193 40
-0.48449501395225525 11.860135078430176 8.208097457885742 253 192 41
-0.4871344566345215 11.872621536254883 8.199517250061035 253 188 42
-0.4603860378265381 11.937820434570312 8.266789436340332 253 185 43
-0.4552592933177948 11.99487018585205 8.363984107971191 253 182 45
-0.45625337958335876 11.937663078308105 8.341717720031738 253 190 41
-0.43132054805755615 11.960128784179688 8.387859344482422 253 195 40
-0.3475055694580078 12.193572998046875 8.655550956726074 253 198 38
-0.34386804699897766 12.120356559753418 8.699014663696289 252 199 38
-0.37288543581962585 12.092514991760254 8.64109992980957 251 208 36
-0.2797617018222809 12.171637535095215 8.872876167297363 251 208 36
-0.2506263852119446 12.205033302307129 8.966036796569824 252 206 37
-0.3010491728782654 12.229385375976562 8.999577522277832 252 206 37
-0.19082914292812347 12.265396118164062 9.125003814697266 252 204 37
-0.1730387806892395 12.277691841125488 9.167098045349121 252 201 38
-0.11831696331501007 12.327988624572754 9.305704116821289 253 195 40
-0.02991994097828865 12.37940502166748 9.497204780578613 253 187 43
0.012958413921296597 12.384217262268066 9.565298080444336 253 185 43
0.061204779893159866 12.406453132629395 9.650415420532227 253 187 43
0.024189656600356102 12.508576393127441 9.641215324401855 253 181 45
0.11102712154388428 12.434983253479004 9.735239028930664 253 179 46
0.052301470190286636 12.430200576782227 9.721142768859863 253 179 46
0.13890860974788666 12.461772918701172 9.867806434631348 253 176 48
0.12121506780385971 12.458497047424316 9.836213111877441 252 169 52
0.19943565130233765 12.455068588256836 9.93848705291748 252 169 52
0.20411936938762665 12.448748588562012 9.946196556091309 252 167 53
0.356582909822464 12.601588249206543 10.094351768493652 252 169 52
0.21773767471313477 12.45637035369873 9.955565452575684 252 173 49
0.2586713135242462 12.415206909179688 10.002396583557129 253 175 49
0.260008305311203 12.503087997436523 10.068753242492676 253 179 46
0.43665340542793274 12.354382514953613 10.22741413116455 253 185 43
0.34709757566452026 12.392769813537598 10.156664848327637 253 193 40
0.41173112392425537 12.354997634887695 10.218724250793457 253 198 38
0.5029385089874268 12.327855110168457 10.34526538848877 252 203 37
0.5967106819152832 12.273702621459961 10.441189765930176 251 211 36
0.5852288603782654 12.295387268066406 10.451632499694824 250 214 36
0.7465251684188843 12.199061393737793 10.60261058807373 250 216 36
0.6894345879554749 12.226981163024902 10.53713321685791 250 214 36
0.8056723475456238 12.182880401611328 10.678573608398438 246 229 37
0.849399983882904 12.165878295898438 10.727410316467285 245 233 38
0.8904204964637756 12.139671325683594 10.761869430541992 245 233 38
0.9311900734901428 12.097628593444824 10.779003143310547 244 234 38
1.0143649578094482 12.083240509033203 10.88562297821045 242 240 38
1.0427342653274536 12.0581636428833 10.90583324432373 241 243 38
1.043225646018982 12.041945457458496 10.909253120422363 241 243 38
1.0502820014953613 12.03381633758545 10.893426895141602 243 238 38
1.0956206321716309 11.995856285095215 10.92111587524414 244 234 38
1.0740742683410645 11.986271858215332 10.86523723602295 246 228 37
1.1333913803100586 11.971732139587402 10.933185577392578 248 223 36
1.1648021936416626 11.880716323852539 10.895466804504395 251 211 36
1.3147600889205933 11.739694595336914 10.971928596496582 252 203 37
1.4549217224121094 11.61312484741211 11.060774803161621 240 129 77
1.5985467433929443 11.450919151306152 11.106252670288086 239 126 78
1.5594838857650757 11.456122398376465 11.080581665039062 248 152 62
1.596401572227478 11.401391983032227 11.077369689941406 253 181 45
1.5622339248657227 11.313536643981934 11.091316223144531 253 184 44
1.6482588052749634 11.329755783081055 11.050844192504883 253 179 46
1.6369969844818115 11.323643684387207 11.045726776123047 253 179 46
1.717470407485962 11.278326034545898 11.08833122253418 253 179 46
1.7220933437347412 11.277939796447754 11.100296020507812 253 184 44
1.7128833532333374 11.30765438079834 11.116312980651855 253 176 48
1.6145966053009033 11.39501667022705 11.178584098815918 253 181 45
1.671715259552002 11.313274383544922 11.096951484680176 253 184 44
1.7235726118087769 11.297554016113281 11.122687339782715 253 188 42
1.842880368232727 11.130553245544434 11.074522018432617 253 193 40
1.969279408454895 10.988515853881836 11.06236457824707 252 201 38
1.977657437324524 10.921113014221191 11.081350326538086 252 201 38
2.0038058757781982 10.922430992126465 11.086645126342773 251 208 36
2.0304577350616455 10.968423843383789 11.083539962768555 250 214 36
2.1795854568481445 10.774443626403809 11.048934936523438 250 214 36
2.059030771255493 10.850533485412598 11.078577995300293 250 214 36
2.099353551864624 10.846457481384277 11.050182342529297 249 219 36
2.0980546474456787 10.886960983276367 11.031316757202148 250 213 36
2.197932481765747 10.764328956604004 11.008026123046875 252 204 37
2.1351373195648193 10.762003898620605 11.004243850708008 253 192 41
2.0990102291107178 10.769217491149902 10.993309020996094 253 193 40
2.1992928981781006 10.547316551208496 11.004240036010742 253 198 38
2.1921932697296143 10.490349769592285 10.992599487304688 252 201 38
2.2346935272216797 10.402743339538574 10.977234840393066 252 201 38
2.1984848976135254 10.198029518127441 10.98326301574707 252 201 38
2.269873857498169 10.115742683410645 10.971799850463867 251 208 36
2.254472017288208 9.80778694152832 10.92308521270752 251 209 36
2.150127649307251 9.933995246887207 10.865394592285156 252 206 37
2.244149923324585 9.769867897033691 10.94553279876709 252 204 37
2.2407610416412354 9.775567054748535 10.968417167663574 253 196 39
2.3435471057891846 9.949475288391113 11.143195152282715 252 203 37
2.234330654144287 9.678516387939453 10.981339454650879 251 208 36
2.2220351696014404 9.807475090026855 10.968827247619629 252 201 38
1.7261210680007935 9.045705795288086 10.11123275756836 234 116 85
2.1105294227600098 9.841866493225098 10.843994140625 250 214 36
2.2137973308563232 9.670557022094727 10.927966117858887 250 214 36
2.171844244003296 9.602725982666016 10.876683235168457 252 206 37
2.123908042907715 9.544418334960938 10.814592361450195 253 196 39
2.093370199203491 9.442716598510742 10.778203964233398 253 192 41
2.0254507064819336 9.361197471618652 10.669118881225586 253 188 42
2.055201768875122 9.357990264892578 10.685920715332031 253 187 43
1.9718437194824219 9.285449028015137 10.607117652893066 253 184 44
1.9398863315582275 9.265349388122559 10.564352989196777 253 178 47
1.845361590385437 9.14061450958252 10.465005874633789 252 173 49
1.7498815059661865 9.03318977355957 10.355326652526855 252 169 52
1.878686785697937 9.167405128479004 10.467041015625 252 169 52
1.8628425598144531 9.182613372802734 10.406373977661133 251 163 55
1.6826969385147095 8.959345817565918 10.187105178833008 252 170 51
1.834705114364624 9.130629539489746 10.382957458496094 252 166 53
1.852805733680725 9.121980667114258 10.384200096130371 251 163 55
1.8240721225738525 9.079126358032227 10.347835540771484 250 160 57
1.6968854665756226 9.037907600402832 10.162199974060059 250 157 58
1.6415879726409912 8.988505363464355 10.081546783447266 250 156 59
1.689894437789917 9.026333808898926 10.158490180969238 250 159 58
1.7345622777938843 9.011723518371582 10.157967567443848 250 160 57
1.641456127166748 8.990424156188965 10.097759246826172 250 160 57
1.5001816749572754 8.899323463439941 9.90416145324707 250 160 57
1.4773861169815063 8.950804710388184 9.852261543273926 250 159 58
1.4597125053405762 8.942037582397461 9.835453033447266 250 159 58
1.388161540031433 8.926795959472656 9.72476577758789 250 159 58
1.2432701587677002 8.883611679077148 9.54228687286377 250 160 57
1.1546334028244019 8.884413719177246 9.37999439239502 251 162 56
0.9925817847251892 8.853313446044922 9.154722213745117 251 163 55
0.9512994289398193 8.86638069152832 9.05496883392334 250 160 57
1.0104109048843384 8.87971305847168 9.157865524291992 251 162 56
0.9200385808944702 8.83899211883545 9.080101013183594 251 162 56
0.854293704032898 8.82425594329834 9.009263038635254 250 160 57
0.7466203570365906 8.793977737426758 8.882125854492188 250 157 58
0.8198250532150269 8.881224632263184 8.772541046142578 249 153 61
0.8068431615829468 8.883560180664062 8.777488708496094 248 150 63
0.7988973259925842 8.858184814453125 8.889715194702148 249 153 61
0.806273341178894 8.85384750366211 8.91716194152832 249 153 61
0.8027482032775879 8.797891616821289 8.973060607910156 249 154 60
0.7760766744613647 8.880443572998047 8.735514640808105 248 149 64
0.7865728735923767 8.882901191711426 8.70289134979248 244 137 71
0.6813068985939026 8.749895095825195 8.839866638183594 242 132 75
0.7703768610954285 8.978592872619629 8.426661491394043 236 120 83
0.7564059495925903 9.053229331970215 8.198922157287598 229 108 91
0.7584907412528992 9.136198997497559 7.860817909240723 225 101 96
0.7537122964859009 9.165750503540039 7.766566276550293 220 93 102
0.7695384621620178 9.216058731079102 7.6085734367370605 215 87 107
0.7903813123703003 9.258027076721191 7.512715816497803 215 86 108
0.7616664171218872 9.271758079528809 7.354696273803711 218 90 104
0.8317936658859253 9.338766098022461 7.254037857055664 223 97 99
0.8429551124572754 9.364669799804688 7.148499488830566 226 102 96
0.8654076457023621 9.355175971984863 7.169145107269287 229 107 92
0.8893163204193115 9.414587020874023 7.1049933433532715 227 104 94
0.9431588649749756 9.529474258422852 6.951408386230469 229 108 91
0.9197291135787964 9.449689865112305 7.048449516296387 230 109 90
0.9058153629302979 9.450521469116211 7.0058207511901855 231 110 90
0.9895937442779541 9.532448768615723 6.951088905334473 231 110 90
1.097036361694336 9.626330375671387 6.869356632232666 231 110 90
1.091858148574829 9.63470458984375 6.858372211456299 231 110 90
1.1417648792266846 9.676924705505371 6.79833984375 231 110 90
1.3138542175292969 9.863779067993164 6.621511459350586 232 112 89
1.1864757537841797 9.733657836914062 6.811532974243164 232 112 89
1.2999765872955322 9.802966117858887 6.846113681793213 232 112 89
1.4254341125488281 9.938433647155762 6.7769575119018555 232 112 89
1.5436997413635254 9.998985290527344 6.839764595031738 232 112 89
1.6275100708007812 10.054475784301758 6.839930057525635 232 112 89
1.7053313255310059 10.124403953552246 6.833983421325684 232 112 89
1.7653895616531372 10.153023719787598 6.869958877563477 232 112 89
1.8745615482330322 10.244539260864258 6.869890213012695 233 114 87
1.810364842414856 10.179206848144531 6.8914594650268555 234 115 86
1.887900710105896 10.227080345153809 6.908820152282715 234 115 86
1.9229516983032227 10.204211235046387 6.979384422302246 235 118 84
1.9681248664855957 10.210259437561035 7.036370277404785 236 119 84
2.0040218830108643 10.332722663879395 6.997192859649658 237 123 81
2.0800063610076904 10.219062805175781 7.177125930786133 239 125 79
2.1105499267578125 10.150341987609863 7.2970685958862305 240 129 77
2.1682393550872803 10.19285774230957 7.295749664306641 241 130 76
2.2414803504943848 10.035533905029297 7.4432759284973145 242 133 74
2.156054735183716 10.09421443939209 7.400455951690674 244 137 71
2.146700382232666 10.10267162322998 7.453124046325684 244 138 71
2.271456718444824 10.080161094665527 7.635986804962158 244 138 71
2.1521284580230713 10.103626251220703 7.553757667541504 242 133 74
2.161332845687866 10.124579429626465 7.462795257568359 236 120 83
2.137843608856201 10.158743858337402 7.436717510223389 230 109 90
2.121330976486206 10.042610168457031 7.619425296783447 233 114 87
2.0808615684509277 10.104846954345703 7.633854389190674 238 124 80
2.008620262145996 10.076457023620605 7.874488353729248 239 125 79
1.9218509197235107 10.076608657836914 8.002678871154785 241 130 76
1.9165949821472168 10.068134307861328 7.96575927734375 244 137 71
1.8565561771392822 10.07697868347168 8.095073699951172 247 147 65
1.8564527034759521 10.070693969726562 8.12740707397461 247 146 65
1.8238511085510254 10.024046897888184 8.248600006103516 246 145 66
1.8335968255996704 10.08584213256836 8.20174503326416 248 149 64
1.8296374082565308 10.074745178222656 8.209992408752441 247 147 65
1.8787494897842407 10.042509078979492 8.162529945373535 246 142 68
1.6927907466888428 10.169658660888672 8.354146957397461 245 139 70
1.7562007904052734 10.13181209564209 8.354277610778809 246 142 68
1.8010389804840088 10.18388843536377 8.328189849853516 246 143 67
1.7301747798919678 10.173050880432129 8.449783325195312 246 143 67
1.6905478239059448 10.186590194702148 8.482884407043457 246 143 67
1.6387139558792114 10.232335090637207 8.61568546295166 246 145 66
1.5988731384277344 10.210906028747559 8.608221054077148 246 142 68
1.7302484512329102 10.164405822753906 8.525712966918945 246 142 68
1.5602844953536987 10.256749153137207 8.710114479064941 245 139 70
1.5152238607406616 10.282252311706543 8.78789234161377 244 137 71
1.5972682237625122 10.242698669433594 8.701066017150879 243 134 73
1.4959919452667236 10.306272506713867 8.768857955932617 240 129 77
1.414504885673523 10.34030532836914 8.928897857666016 239 126 78
1.3670440912246704 10.373560905456543 8.99096965789795 239 126 78
1.423771619796753 10.281756401062012 8.865157127380371 239 125 79
1.373500108718872 10.363296508789062 8.961151123046875 237 123 81
1.3502174615859985 10.381957054138184 9.100857734680176 237 121 82
1.3275885581970215 10.383224487304688 9.028035163879395 236 120 83
1.3553582429885864 10.383275032043457 9.114761352539062 236 119 84
1.3748053312301636 10.381704330444336 9.060525894165039 234 116 85
1.2775527238845825 10.415692329406738 9.255975723266602 231 110 90
1.278917908668518 10.42636489868164 9.313328742980957 229 108 91
1.292576789855957 10.416666030883789 9.380409240722656 230 109 90
1.3254828453063965 10.402877807617188 9.357193946838379 230 109 90
1.3194938898086548 10.406578063964844 9.390456199645996 227 104 94
1.378345251083374 10.391124725341797 9.435364723205566 223 97 99
1.3754253387451172 10.390206336975098 9.45106029510498 215 87 107
1.4873144626617432 10.388190269470215 9.580870628356934 215 87 107
1.5299972295761108 10.378400802612305 9.606959342956543 221 95 101
1.5990105867385864 10.274298667907715 9.598737716674805 225 101 96
1.5922808647155762 10.34334945678711 9.661317825317383 230 109 90
1.7139052152633667 10.4573974609375 9.810422897338867 229 108 91
1.6446998119354248 10.35859489440918 9.731669425964355 230 109 90
1.6146273612976074 10.380894660949707 9.757488250732422 229 108 91
1.674325704574585 10.357672691345215 9.734017372131348 230 109 90
1.757132887840271 10.352587699890137 9.779443740844727 231 110 90
1.8194663524627686 10.398427963256836 9.920354843139648 229 107 92
1.9061949253082275 10.339820861816406 9.852426528930664 229 107 92
1.955260157585144 10.332489013671875 9.859289169311523 229 107 92
2.070971965789795 10.325448036193848 9.906082153320312 229 107 92
1.9787957668304443 10.368524551391602 9.957262992858887 230 109 90
2.1336541175842285 10.30855655670166 9.889540672302246 230 109 90
2.0937745571136475 10.38888168334961 9.96876335144043 227 103 95
2.1465370655059814 10.281752586364746 9.917203903198242 227 104 94
2.1160314083099365 10.298494338989258 9.888806343078613 225 101 96
2.25342059135437 10.249305725097656 9.839322090148926 227 103 95
2.2854795455932617 10.247554779052734 9.836712837219238 228 106 93
2.2172937393188477 10.323758125305176 9.950138092041016 226 102 96
2.3552372455596924 10.215743064880371 9.79251480102539 227 104 94
2.480743885040283 10.091730117797852 9.66288948059082 227 104 94
2.4607162475585938 10.183113098144531 9.742033004760742 229 107 92
2.4945003986358643 10.182180404663086 9.74355411529541 228 106 93
2.461552381515503 10.181516647338867 9.740086555480957 227 104 94
2.5128331184387207 10.148597717285156 9.700399398803711 226 102 96
2.6043319702148438 10.074772834777832 9.593724250793457 226 102 96
2.622488021850586 10.031325340270996 9.558462142944336 228 106 93
2.7785892486572266 9.923837661743164 9.396429061889648 227 104 94
2.94852614402771 9.797348976135254 9.212313652038574 229 107 92
3.015594482421875 9.751228332519531 9.141316413879395 227 103 95
2.9609158039093018 9.721943855285645 9.135239601135254 227 104 94
3.1130177974700928 9.672445297241211 9.032639503479004 229 108 91
3.1571474075317383 9.66443157196045 9.020526885986328 227 104 94
3.1275620460510254 9.561567306518555 8.90067195892334 229 108 91
3.0005617141723633 9.504633903503418 8.93896484375 226 102 96
3.246264696121216 9.44355297088623 8.780303001403809 228 106 93
3.2195537090301514 9.565315246582031 8.88035774230957 227 104 94
3.2170326709747314 9.614784240722656 8.951398849487305 229 107 92
3.2472879886627197 9.538671493530273 8.863714218139648 227 104 94
3.140120029449463 9.579866409301758 8.925477027893066 227 103 95
3.165088415145874 9.628654479980469 8.967852592468262 224 100 97
2.975620985031128 9.456725120544434 8.803122520446777 228 106 93
3.0784964561462402 9.547378540039062 8.902506828308105 229 108 91
3.095761775970459 9.461183547973633 8.785737037658691 230 109 90
3.1221888065338135 9.386190414428711 8.70611572265625 229 107 92
3.081909656524658 9.275396347045898 8.573654174804688 228 106 93
3.0581040382385254 9.196303367614746 8.491806030273438 228 106 93
3.014443874359131 8.997804641723633 8.295307159423828 228 106 93
3.0463173389434814 8.967461585998535 8.260298728942871 228 106 93
3.0115129947662354 8.79998779296875 8.059676170349121 228 106 93
2.960286855697632 8.805678367614746 8.047314643859863 229 107 92
2.8940117359161377 8.742053031921387 7.973639965057373 229 107 92
3.0065667629241943 8.638056755065918 7.86347770690918 225 101 96
2.839763879776001 8.767791748046875 7.9255218505859375 220 94 102
2.7898600101470947 8.733616828918457 7.842043876647949 214 85 109
2.760770320892334 8.764208793640137 7.865363121032715 214 85 109
2.806441068649292 8.802864074707031 7.831421852111816 218 90 104
2.7139599323272705 8.81148624420166 7.770697593688965 226 102 96
2.7217628955841064 8.819314002990723 7.768072605133057 232 113 88
2.557117462158203 8.910462379455566 7.643101692199707 234 116 85
2.4501664638519287 8.84109878540039 7.700334548950195 237 121 82
2.2549047470092773 8.848220825195312 7.637898921966553 243 135 72
2.1589767932891846 8.856514930725098 7.682875633239746 246 143 67
2.1336543560028076 8.846799850463867 7.666939735412598 247 147 65
2.106271982192993 8.844246864318848 7.691283702850342 248 149 64
2.0902557373046875 8.842243194580078 7.707021713256836 248 152 62
1.9500881433486938 8.83836555480957 7.669398307800293 250 159 58
1.79066002368927 8.915242195129395 7.651376247406006 251 162 56
1.70695161819458 8.933615684509277 7.681769371032715 252 166 53
1.6189631223678589 8.976617813110352 7.641767978668213 252 170 51
1.7145010232925415 8.914952278137207 7.66456937789917 253 176 48
1.5376695394515991 9.008031845092773 7.628888130187988 251 164 54
1.4617679119110107 9.040121078491211 7.604572296142578 252 172 50
1.4674192667007446 8.948860168457031 7.69413948059082 252 169 52
1.344659686088562 9.08524227142334 7.59923791885376 252 170 51
1.2303485870361328 9.119805335998535 7.566743850708008 252 166 53
1.2576508522033691 9.120906829833984 7.578564167022705 252 173 49
1.155766487121582 9.159383773803711 7.525724411010742 253 176 48
1.1289973258972168 9.17432975769043 7.5373148918151855 253 176 48
1.0915566682815552 9.195723533630371 7.517876625061035 253 176 48
0.9895899891853333 9.244636535644531 7.470828056335449 253 185 43
0.9050319194793701 9.298388481140137 7.430970191955566 253 188 42
0.8447797298431396 9.33559513092041 7.404475212097168 253 190 41
0.7918504476547241 9.370415687561035 7.3668742179870605 253 196 39
0.7229692339897156 9.395116806030273 7.342833042144775 252 203 37
0.7329228520393372 9.40900707244873 7.333756446838379 251 208 36
0.6924002766609192 9.43677806854248 7.294127941131592 251 209 36
0.8037980198860168 9.446847915649414 7.016013145446777 253 179 46
0.5592102408409119 9.573429107666016 7.15077543258667 251 208 36
0.6024864315986633 9.521293640136719 7.196087837219238 253 185 43
0.5948115587234497 9.490392684936523 7.247546195983887 253 182 45
0.5719171762466431 9.553872108459473 7.1634321212768555 253 179 46
0.5547177195549011 9.584280014038086 7.131363391876221 252 204 37
0.6065127849578857 9.534076690673828 7.188077926635742 252 203 37
0.5068318843841553 9.646063804626465 7.069030284881592 252 203 37
0.4788479506969452 9.657983779907227 7.058126926422119 252 203 37
0.4736488163471222 9.66913890838623 7.050252914428711 251 208 36
0.3597300052642822 9.80160903930664 6.887401103973389 251 209 36
0.43505120277404785 9.764835357666016 6.927900314331055 251 211 36
0.41849806904792786 9.7774658203125 6.914451599121094 250 213 36
0.4665278196334839 9.75362491607666 6.9498291015625 250 216 36
0.44347792863845825 9.795912742614746 6.872147083282471 249 219 36
0.4146316945552826 9.834805488586426 6.818059921264648 248 221 36
0.4374983608722687 9.90620231628418 6.711461544036865 252 206 37
0.4242698550224304 9.873620986938477 6.7758469581604 253 196 39
0.4234585165977478 9.841710090637207 6.851251602172852 253 196 39
0.42941126227378845 9.911704063415527 6.718046188354492 253 190 41
0.4160962700843811 9.979853630065918 6.6422200202941895 253 176 48
0.38349324464797974 10.0037260055542 6.581130027770996 253 187 43
0.37284067273139954 10.01564884185791 6.567402362823486 253 193 40
0.3870013952255249 10.09013843536377 6.464125156402588 253 193 40
0.3860589861869812 10.09245491027832 6.391631126403809 253 193 40
0.32126685976982117 10.00318431854248 6.492162227630615 253 195 40
0.3384011685848236 10.054725646972656 6.452877521514893 253 196 39
0.32034945487976074 10.086871147155762 6.379024982452393 253 190 41
0.44978824257850647 9.97484016418457 6.5070648193359375 252 201 38
0.3406461179256439 10.076810836791992 6.479450702667236 253 192 41
0.2655285894870758 10.167251586914062 6.476296901702881 252 173 49
0.17136363685131073 10.259044647216797 6.4282755851745605 253 176 48
0.43188807368278503 10.125615119934082 6.443307399749756 253 198 38
0.3973190486431122 10.140880584716797 6.393563270568848 253 196 39
0.4826028048992157 10.174701690673828 6.342251300811768 253 196 39
0.5135993957519531 10.20928955078125 6.294318199157715 253 196 39
0.5012243986129761 10.287005424499512 6.18370246887207 253 196 39
0.5641219615936279 10.226166725158691 6.267158508300781 253 198 38
0.5411280393600464 10.293343544006348 6.176992416381836 253 193 40
0.4978329837322235 10.18493366241455 6.310885906219482 253 182 45
0.5773706436157227 10.24538803100586 6.243991851806641 253 182 45
0.5790322422981262 10.230743408203125 6.2572760581970215 253 179 46
0.5844476222991943 10.224616050720215 6.271480083465576 253 178 47
0.6585515141487122 10.169710159301758 6.33379602432251 252 166 53
0.6921873688697815 10.1314115524292 6.3919572830200195 247 146 65
0.7504239082336426 10.090715408325195 6.4497199058532715 246 142 68
0.77132648229599 10.06427001953125 6.483697414398193 248 149 64
0.7899712920188904 10.052398681640625 6.497958660125732 245 139 70
0.8530371785163879 9.979802131652832 6.59405517578125 246 142 68
0.8679220080375671 9.9445161819458 6.624204635620117 244 138 71
0.8311724662780762 10.000936508178711 6.563615322113037 240 129 77
0.8981882333755493 9.969317436218262 6.608338356018066 239 125 79
0.9022998809814453 9.894676208496094 6.684987545013428 236 119 84
0.9835628271102905 9.765692710876465 6.8299689292907715 237 123 81
1.0265154838562012 9.700207710266113 6.895932197570801 236 120 83
1.0456591844558716 9.646174430847168 6.950324535369873 234 116 85
1.1179382801055908 9.527976036071777 7.077369213104248 234 115 86
1.102206826210022 9.570899963378906 7.038673400878906 235 118 84
1.1714777946472168 9.458163261413574 7.145037651062012 237 121 82
1.2734736204147339 9.311601638793945 7.297099590301514 236 120 83
1.1664185523986816 9.440690994262695 7.17203950881958 236 120 83
1.1504130363464355 9.413999557495117 7.205141544342041 236 119 84
1.218611240386963 9.290837287902832 7.330636501312256 236 119 84
1.1876914501190186 9.272183418273926 7.341075420379639 234 116 85
1.2010889053344727 9.205733299255371 7.4079766273498535 233 114 87
1.217672348022461 9.139659881591797 7.479244232177734 232 112 89
1.2353664636611938 9.041696548461914 7.589423179626465 231 110 90
1.2469688653945923 8.9866361618042 7.636659145355225 233 114 87
1.2423807382583618 9.047992706298828 7.5402092933654785 234 116 85
1.2745296955108643 8.858455657958984 7.7305498123168945 234 115 86
1.2648476362228394 8.85926342010498 7.712705612182617 232 113 88
1.2240639925003052 8.816959381103516 7.743508338928223 232 113 88
1.2324055433273315 8.729999542236328 7.793502330780029 231 110 90
1.1662917137145996 8.551143646240234 7.991962909698486 232 112 89
1.2811052799224854 8.703607559204102 7.829915523529053 231 110 90
1.409217119216919 8.556462287902832 7.975643157958984 235 118 84
1.31118905544281 8.691424369812012 7.857272624969482 235 118 84
1.3010252714157104 8.714406967163086 7.852649688720703 236 119 84
1.3273838758468628 8.637925148010254 7.884285926818848 236 119 84
1.3564046621322632 8.610355377197266 7.907356262207031 236 119 84
1.3785675764083862 8.52780532836914 7.921102523803711 237 121 82
1.4462071657180786 8.37154769897461 7.988593578338623 237 121 82
1.5234732627868652 8.206880569458008 8.062891006469727 233 114 87
1.5364834070205688 8.176453590393066 8.0763578414917 232 113 88
1.59024977684021 8.054311752319336 8.112641334533691 233 114 87
1.611789345741272 8.019861221313477 8.13359546661377 234 115 86
1.6846446990966797 7.930002689361572 8.230265617370605 230 109 90
1.6607838869094849 7.897837162017822 8.16567325592041 231 110 90
1.6085941791534424 7.977316856384277 8.12488842010498 232 112 89
1.6547614336013794 7.885209083557129 8.14603328704834 217 89 105
1.6896920204162598 7.811018943786621 8.159829139709473 216 88 106
1.7094589471817017 7.801529407501221 8.157297134399414 211 81 111
1.7301126718521118 7.741756916046143 8.170485496520996 209 79 113
1.7619978189468384 7.65468168258667 8.183633804321289 210 80 112
1.790940761566162 7.688411235809326 8.185583114624023 212 82 110
1.8274909257888794 7.67561674118042 8.1982421875 215 87 107
1.8415039777755737 7.658907413482666 8.209883689880371 214 85 109
1.876732587814331 7.642028331756592 8.21898078918457 208 77 115
1.9660546779632568 7.640030860900879 8.278227806091309 215 86 108
1.8884962797164917 7.644187927246094 8.225419044494629 212 82 110
1.9236907958984375 7.613401412963867 8.229045867919922 220 93 102
1.920772910118103 7.623403072357178 8.218949317932129 222 96 100
1.9443285465240479 7.613912105560303 8.231477737426758 224 100 97
1.9505466222763062 7.641602516174316 8.240574836730957 230 109 90
1.978737235069275 7.73910665512085 8.223908424377441 234 115 86
1.9880424737930298 7.765854835510254 8.22884464263916 245 139 70
2.0444681644439697 7.730376243591309 8.33912181854248 248 152 62
2.0262858867645264 7.7840166091918945 8.235715866088867 252 167 53
2.039536714553833 7.837558746337891 8.234221458435059 253 182 45
2.141155958175659 7.93291711807251 8.334293365478516 253 190 41
2.0398428440093994 7.838468551635742 8.23280143737793 253 193 40
1.9162861108779907 7.722527980804443 8.156875610351562 253 190 41
1.9682822227478027 7.7912797927856445 8.2510986328125 253 188 42
1.988139033317566 7.764141082763672 8.27200698852539 253 195 40
2.0082318782806396 7.846951961517334 8.138421058654785 252 199 38
