ply
format ascii 1.0
element vertex 756
property float x
property float y
property float z
property uchar red
property uchar green
property uchar blue
end_header
8.026644706726074 8.437338829040527 9.136146545410156 239 248 33
8.001082420349121 8.473134994506836 9.151165008544922 239 248 33
8.013718605041504 8.47008228302002 9.190211296081543 239 248 33
7.981408596038818 8.48495864868164 9.084717750549316 239 248 33
8.000863075256348 8.490337371826172 9.261396408081055 239 248 33
7.995347499847412 8.5160551071167 9.39097785949707 239 248 33
7.980662822723389 8.546205520629883 9.470890998840332 239 248 33
7.967183589935303 8.577005386352539 9.601712226867676 239 248 33
7.962822437286377 8.597503662109375 9.7162446975708 239 248 33
7.952225685119629 8.626790046691895 9.786953926086426 239 248 33
7.963310718536377 8.611247062683105 9.851102828979492 239 248 33
7.871414661407471 8.7174072265625 9.87366008758545 239 248 33
7.996747016906738 8.596590995788574 10.031997680664062 239 248 33
8.011246681213379 8.600756645202637 10.045905113220215 239 248 33
8.076211929321289 8.524847984313965 10.143980026245117 239 248 33
8.142064094543457 8.462682723999023 10.281457901000977 239 248 33
8.186683654785156 8.477018356323242 10.190171241760254 239 248 33
8.16961669921875 8.44915771484375 10.2274751663208 239 248 33
8.233464241027832 8.342641830444336 10.359256744384766 239 248 33
8.24590015411377 8.308646202087402 10.395174980163574 239 248 33
8.276433944702148 8.299586296081543 10.508618354797363 239 248 33
8.298587799072266 8.23901653289795 10.538294792175293 239 248 33
8.318053245544434 8.195121765136719 10.538137435913086 239 248 33
8.318790435791016 8.199329376220703 10.548324584960938 239 248 33
8.363075256347656 8.130228042602539 10.596907615661621 239 248 33
8.352082252502441 8.082773208618164 10.469441413879395 239 248 33
8.361861228942871 8.050787925720215 10.498079299926758 239 248 33
8.387713432312012 7.976619720458984 10.479578971862793 239 248 33
8.408452987670898 7.910463333129883 10.426380157470703 239 248 33
8.45866870880127 7.794335842132568 10.433357238769531 239 248 33
8.45871353149414 7.746201992034912 10.356962203979492 239 248 33
8.471795082092285 7.7009196281433105 10.307997703552246 239 248 33
8.491829872131348 7.618408203125 10.262829780578613 239 248 33
8.509427070617676 7.5868120193481445 10.242501258850098 239 248 33
8.57259750366211 7.411309719085693 10.134992599487305 239 248 33
8.54299259185791 7.440478324890137 10.147241592407227 239 248 33
8.553215026855469 7.282192707061768 10.053879737854004 239 248 33
8.561064720153809 7.180312633514404 9.998641014099121 239 248 33
8.563156127929688 7.106260776519775 9.953164100646973 239 248 33
8.57357120513916 7.015638828277588 9.904801368713379 239 248 33
8.569974899291992 6.967922210693359 9.878978729248047 239 248 33
8.581513404846191 6.866400241851807 9.818233489990234 239 248 33
8.590475082397461 6.8273773193359375 9.792080879211426 239 248 33
8.5858793258667 6.773143291473389 9.761438369750977 239 248 33
8.601259231567383 6.7038187980651855 9.715083122253418 239 248 33
8.603872299194336 6.663546085357666 9.698176383972168 239 248 33
8.608597755432129 6.57796049118042 9.635104179382324 239 248 33
8.615508079528809 6.518466472625732 9.587726593017578 239 248 33
8.755570411682129 6.416168212890625 9.47226619720459 239 248 33
8.628807067871094 6.374745845794678 9.481505393981934 239 248 33
8.623709678649902 6.380073070526123 9.488781929016113 239 248 33
8.641026496887207 6.22046422958374 9.360116958618164 239 248 33
8.654969215393066 6.119551658630371 9.284697532653809 239 248 33
8.663980484008789 6.028665542602539 9.210959434509277 239 248 33
8.683669090270996 5.886992931365967 9.098930358886719 239 248 33
8.702375411987305 5.7169189453125 8.95820140838623 239 248 33
8.673749923706055 5.73236608505249 9.00182056427002 239 248 33
8.72683048248291 5.530145168304443 8.809009552001953 239 248 33
8.736784934997559 5.466301441192627 8.749654769897461 239 248 33
8.752619743347168 5.436047077178955 8.723291397094727 239 248 33
8.763408660888672 5.36505126953125 8.65605354309082 239 248 33
8.753557205200195 5.276081562042236 8.594748497009277 239 248 33
8.751165390014648 5.255125045776367 8.580636978149414 239 248 33
8.800993919372559 5.311102867126465 8.585393905639648 239 248 33
8.799476623535156 5.098000526428223 8.410502433776855 239 248 33
8.76429271697998 5.111287593841553 8.453887939453125 12 7 134
8.786499977111816 4.91840124130249 8.280675888061523 12 7 134
8.746668815612793 4.958904266357422 8.366304397583008 12 7 134
8.772175788879395 4.861562728881836 8.282538414001465 12 7 134
8.683588981628418 4.745466709136963 8.282496452331543 12 7 134
8.711349487304688 4.680063247680664 8.214200019836426 12 7 134
8.675511360168457 4.684879779815674 8.24808406829834 12 7 134
8.691036224365234 4.681040287017822 8.228286743164062 12 7 134
8.67646598815918 4.624292850494385 8.2014741897583 12 7 134
8.68327808380127 4.596328258514404 8.175292015075684 12 7 134
8.776688575744629 4.684488296508789 8.193105697631836 12 7 134
8.614880561828613 4.59627628326416 8.225676536560059 12 7 134
8.5623140335083 4.586994647979736 8.261897087097168 12 7 134
8.52523136138916 4.598260879516602 8.298613548278809 12 7 134
8.453436851501465 4.561156749725342 8.345121383666992 12 7 134
8.445302963256836 4.585777759552002 8.350878715515137 12 7 134
8.369011878967285 4.612847328186035 8.4337739944458 12 7 134
8.256085395812988 4.637948989868164 8.545130729675293 12 7 134
8.139800071716309 4.686856269836426 8.683629035949707 12 7 134
8.108282089233398 4.682900905609131 8.695883750915527 12 7 134
8.072546005249023 4.7316484451293945 8.757225036621094 12 7 134
8.046676635742188 4.723492622375488 8.782708168029785 12 7 134
8.02070426940918 4.7453532218933105 8.827324867248535 12 7 134
7.96786642074585 4.819775104522705 8.915931701660156 12 7 134
7.905138969421387 4.892473220825195 9.034660339355469 12 7 134
7.916449546813965 4.893744945526123 9.024764060974121 12 7 134
7.951242446899414 4.908151149749756 9.085347175598145 12 7 134
7.823022842407227 5.031299114227295 9.208255767822266 12 7 134
7.797005653381348 5.086476802825928 9.279144287109375 12 7 134
7.760119438171387 5.16978120803833 9.368203163146973 12 7 134
7.740661144256592 5.196995735168457 9.406935691833496 12 7 134
7.683001518249512 5.298370361328125 9.51072883605957 12 7 134
7.663435935974121 5.378176212310791 9.579446792602539 12 7 134
7.647920608520508 5.437650680541992 9.635540008544922 12 7 134
7.6195220947265625 5.458206653594971 9.670315742492676 12 7 134
7.625940799713135 5.535505771636963 9.717154502868652 12 7 134
7.609130382537842 5.660014629364014 9.767129898071289 12 7 134
7.598304271697998 5.641471862792969 9.7829008102417 12 7 134
7.590078830718994 5.75810432434082 9.828143119812012 12 7 134
7.595198631286621 5.784249782562256 9.843862533569336 12 7 134
7.5949015617370605 5.791132926940918 9.863361358642578 12 7 134
7.600893020629883 5.974096775054932 9.86776351928711 12 7 134
7.598474979400635 6.080789566040039 9.905448913574219 12 7 134
7.610263824462891 6.100766181945801 9.912313461303711 12 7 134
7.614429950714111 6.237582206726074 9.893147468566895 12 7 134
7.620500564575195 6.401193141937256 9.897281646728516 12 7 134
7.631278038024902 6.501512050628662 9.903555870056152 12 7 134
7.637914180755615 6.578281402587891 9.914972305297852 12 7 134
7.646523475646973 6.614904403686523 9.877984046936035 12 7 134
7.664371967315674 6.714497089385986 9.911398887634277 12 7 134
7.6589860916137695 6.812533855438232 9.854299545288086 12 7 134
7.663573265075684 6.803162574768066 9.808204650878906 12 7 134
7.6633992195129395 6.850754737854004 9.837441444396973 12 7 134
7.6531829833984375 6.882147312164307 9.795494079589844 12 7 134
7.651665687561035 6.9143218994140625 9.732590675354004 12 7 134
7.658780097961426 6.98419189453125 9.752718925476074 12 7 134
7.516870975494385 7.133884429931641 9.583999633789062 12 7 134
7.66403341293335 7.053967475891113 9.695394515991211 12 7 134
7.703987121582031 7.137967586517334 9.62096881866455 12 7 134
7.7186713218688965 7.197825908660889 9.585672378540039 12 7 134
7.740795135498047 7.291340351104736 9.539510726928711 12 7 134
7.761155605316162 7.38178014755249 9.503901481628418 12 7 134
7.76696252822876 7.407597064971924 9.453621864318848 12 7 134
7.783814907073975 7.4604668617248535 9.398271560668945 12 7 134
7.791501522064209 7.536942481994629 9.441445350646973 12 7 134
7.8058953285217285 7.566066265106201 9.298110008239746 12 7 134
7.790367126464844 7.525042533874512 9.253332138061523 12 7 134
7.807685375213623 7.547857284545898 9.202878952026367 12 7 134
7.862979888916016 7.542807579040527 9.070106506347656 12 7 134
7.828788757324219 7.579064846038818 9.061203002929688 12 7 134
7.846002578735352 7.5739030838012695 9.032974243164062 12 7 134
7.847943305969238 7.606808185577393 8.820242881774902 12 7 134
7.860491752624512 7.634067535400391 8.692140579223633 12 7 134
7.743875980377197 7.776251792907715 8.65754508972168 12 7 134
7.924739837646484 7.619856834411621 8.438673973083496 12 7 134
7.7917375564575195 7.736756801605225 8.421406745910645 12 7 134
7.872782230377197 7.65384578704834 8.358774185180664 12 7 134
7.863711357116699 7.65439510345459 8.321746826171875 12 7 134
7.845512390136719 7.719880104064941 8.257831573486328 12 7 134
7.878397464752197 7.646063327789307 8.26264476776123 12 7 134
7.868339538574219 7.658883571624756 8.25317096710205 12 7 134
7.867979049682617 7.615193843841553 8.097533226013184 12 7 134
7.875602722167969 7.57737922668457 7.937728404998779 12 7 134
7.876683235168457 7.568002700805664 7.853135108947754 12 7 134
7.879935264587402 7.531966209411621 7.670533180236816 12 7 134
7.87947940826416 7.498497486114502 7.536070346832275 12 7 134
7.879302024841309 7.43679141998291 7.271499156951904 12 7 134
7.863624572753906 7.427853584289551 7.209624767303467 12 7 134
7.873991966247559 7.448084831237793 7.225235462188721 12 7 134
7.86534309387207 7.35679817199707 6.998540878295898 12 7 134
7.86543607711792 7.318358898162842 6.873249530792236 12 7 134
7.85050106048584 7.3440446853637695 6.953596591949463 12 7 134
7.802055835723877 7.343997955322266 6.869490623474121 12 7 134
7.784183979034424 7.349508762359619 6.894821643829346 12 7 134
7.774948596954346 7.331879138946533 6.809747695922852 12 7 134
7.7189741134643555 7.357638359069824 6.845499515533447 12 7 134
7.753777503967285 7.261011600494385 6.733017444610596 12 7 134
7.78851842880249 7.2268781661987305 6.704920768737793 12 7 134
7.766918182373047 7.067342758178711 6.5003886222839355 12 7 134
7.791633605957031 7.11464262008667 6.54015588760376 12 7 134
7.796070575714111 7.021096229553223 6.404561996459961 12 7 134
7.798939228057861 6.942052364349365 6.311651229858398 12 7 134
7.789430618286133 6.926810264587402 6.257345199584961 12 7 134
7.8007283210754395 6.914355754852295 6.168732643127441 12 7 134
7.813396453857422 6.915539264678955 6.226070880889893 12 7 134
7.8118438720703125 6.896337032318115 6.211952209472656 12 7 134
7.819350242614746 6.904491901397705 6.258122444152832 12 7 134
7.8350958824157715 6.8511481285095215 6.212606906890869 12 7 134
7.946463584899902 6.938570022583008 6.259032249450684 12 7 134
7.83054256439209 6.814655780792236 6.239725112915039 12 7 134
7.816557884216309 6.77431058883667 6.274168968200684 12 7 134
7.806092262268066 6.634359836578369 6.2364935874938965 12 7 134
7.764442443847656 6.592902660369873 6.400125026702881 12 7 134
7.799898147583008 6.713308811187744 6.325941562652588 12 7 134
7.7887797355651855 6.696078777313232 6.320895195007324 12 7 134
7.784518241882324 6.688904285430908 6.323451042175293 12 7 134
7.75849723815918 6.6530585289001465 6.254364967346191 12 7 134
7.806463718414307 6.708499431610107 6.4625725746154785 12 7 134
7.954567909240723 6.8518266677856445 6.615167140960693 12 7 134
7.826671123504639 6.731258392333984 6.559432506561279 12 7 134
7.81951904296875 6.707821369171143 6.6181488037109375 12 7 134
7.84916877746582 6.73586893081665 6.754936695098877 12 7 134
7.875196933746338 6.763692855834961 6.833400249481201 12 7 134
7.88601016998291 6.781457424163818 6.864863872528076 12 7 134
7.879932880401611 6.771573066711426 6.855123043060303 12 7 134
7.929159641265869 6.829654693603516 7.079904556274414 12 7 134
7.9556169509887695 6.833131790161133 7.184099197387695 12 7 134
7.992856979370117 6.862857341766357 7.3214240074157715 12 7 134
8.027517318725586 6.9022369384765625 7.450406551361084 12 7 134
8.065959930419922 6.929604530334473 7.620670795440674 12 7 134
8.105997085571289 6.933811187744141 7.7498979568481445 12 7 134
8.134939193725586 6.973799228668213 7.841899394989014 12 7 134
8.157605171203613 6.979732036590576 7.9514031410217285 12 7 134
8.212408065795898 6.979118824005127 8.12359619140625 12 7 134
8.25070571899414 6.990860939025879 8.207612991333008 12 7 134
8.282896041870117 6.985976696014404 8.343985557556152 12 7 134
8.306331634521484 7.0001115798950195 8.344734191894531 12 7 134
8.408058166503906 7.019227027893066 8.528261184692383 12 7 134
8.344164848327637 6.964276313781738 8.57479190826416 12 7 134
8.369311332702637 6.956372261047363 8.687857627868652 12 7 134
8.386725425720215 6.9247846603393555 8.606952667236328 12 7 134
8.394352912902832 6.898126125335693 8.87557315826416 12 7 134
8.399388313293457 6.939456462860107 8.945453643798828 12 7 134
8.423413276672363 6.852753162384033 9.089866638183594 12 7 134
8.43904972076416 6.815842151641846 9.176271438598633 12 7 134
8.428030014038086 6.9006476402282715 9.128856658935547 12 7 134
8.509573936462402 6.7211222648620605 9.361227035522461 12 7 134
8.45210075378418 6.7823381423950195 9.35809326171875 12 7 134
8.440763473510742 6.76050329208374 9.418610572814941 12 7 134
8.370071411132812 6.792150497436523 9.442330360412598 12 7 134
8.465420722961426 6.676275730133057 9.550639152526855 12 7 134
8.481341361999512 6.580258846282959 9.674768447875977 12 7 134
8.499855995178223 6.534184455871582 9.69837474822998 12 7 134
8.538147926330566 6.38509464263916 9.858922958374023 12 7 134
8.56329345703125 6.288205623626709 9.93687915802002 12 7 134
8.576741218566895 6.252336502075195 9.969590187072754 12 7 134
8.620379447937012 6.205694198608398 10.056032180786133 12 7 134
8.6051664352417 6.175602436065674 10.002257347106934 12 7 134
8.690657615661621 5.993597984313965 10.221847534179688 12 7 134
8.605298042297363 6.119091033935547 10.079187393188477 12 7 134
8.628334999084473 6.042665958404541 10.113994598388672 12 7 134
8.635540008544922 6.033348083496094 10.107043266296387 12 7 134
8.644270896911621 6.007497310638428 10.224520683288574 12 7 134
8.668423652648926 5.838723659515381 10.038451194763184 12 7 134
8.678624153137207 5.729042053222656 10.011199951171875 12 7 134
8.694252014160156 5.6703643798828125 10.024874687194824 12 7 134
8.6940279006958 5.544585704803467 10.0040283203125 12 7 134
8.69252872467041 5.484743118286133 9.892768859863281 12 7 134
8.695484161376953 5.390903949737549 9.9108304977417 12 7 134
8.529047012329102 5.534580707550049 9.861067771911621 12 7 134
8.62517261505127 5.401778697967529 9.958189964294434 12 7 134
8.616966247558594 5.3933539390563965 9.967944145202637 12 7 134
8.561049461364746 5.420582294464111 10.008894920349121 12 7 134
8.555900573730469 5.393309593200684 9.997986793518066 12 7 134
8.557337760925293 5.309907913208008 9.975173950195312 12 7 134
8.500042915344238 5.16703987121582 9.951417922973633 12 7 134
8.472071647644043 5.266060829162598 10.046710968017578 12 7 134
8.518327713012695 5.177171230316162 9.88576602935791 12 7 134
8.67911434173584 5.310290336608887 9.849346160888672 12 7 134
8.814444541931152 5.312992095947266 9.730683326721191 12 7 134
9.000120162963867 5.280428886413574 9.523493766784668 12 7 134
9.111237525939941 5.253316879272461 9.412365913391113 12 7 134
9.17230224609375 5.222070217132568 9.335214614868164 12 7 134
9.240838050842285 5.225065231323242 9.258536338806152 12 7 134
9.245372772216797 5.204864501953125 9.254165649414062 12 7 134
9.290432929992676 5.214527130126953 9.203568458557129 12 7 134
9.418149948120117 5.177831172943115 9.057312965393066 12 7 134
9.383416175842285 5.207460880279541 9.100566864013672 12 7 134
9.431431770324707 5.204220771789551 9.0466947555542 12 7 134
9.593101501464844 5.202075958251953 8.877891540527344 12 7 134
9.574222564697266 5.201524257659912 8.884374618530273 12 7 134
9.657414436340332 5.29671573638916 8.7977876663208 12 7 134
9.54137897491455 5.224900245666504 8.91383171081543 12 7 134
9.692583084106445 5.2394232749938965 8.75214958190918 12 7 134
9.729548454284668 5.249087333679199 8.713685989379883 12 7 134
9.89173412322998 5.313765525817871 8.567212104797363 12 7 134
9.821579933166504 5.26069450378418 8.607185363769531 12 7 134
9.761808395385742 5.26324462890625 8.67612075805664 12 7 134
9.91358757019043 5.279740333557129 8.517071723937988 12 7 134
9.903216361999512 5.274314880371094 8.52430248260498 12 7 134
9.913323402404785 5.28566837310791 8.49655818939209 12 7 134
10.077220916748047 5.2823262214660645 8.31999683380127 12 7 134
10.123397827148438 5.2738189697265625 8.245125770568848 12 7 134
10.229586601257324 5.27747106552124 8.163647651672363 12 7 134
10.277790069580078 5.270269393920898 8.097280502319336 12 7 134
10.27869987487793 5.249439716339111 8.011974334716797 12 7 134
10.37062931060791 5.287379264831543 8.04282283782959 12 7 134
10.308310508728027 5.2314677238464355 7.969433307647705 12 7 134
10.439967155456543 5.260932445526123 7.841197490692139 12 7 134
10.261722564697266 5.205744743347168 7.9400835037231445 12 7 134
10.372373580932617 5.219042778015137 7.911486625671387 12 7 134
10.34714126586914 5.180745601654053 7.891409397125244 12 7 134
10.451326370239258 5.242391109466553 7.941891193389893 12 7 134
10.613746643066406 5.210330009460449 7.901243686676025 12 7 134
10.700858116149902 5.308543682098389 8.055035591125488 12 7 134
10.6604642868042 5.367268085479736 7.991883277893066 12 7 134
10.648984909057617 5.331822872161865 7.9631757736206055 12 7 134
10.764974594116211 5.407745838165283 8.008994102478027 12 7 134
10.802804946899414 5.451053142547607 8.017232894897461 12 7 134
10.86471176147461 5.510401725769043 8.012462615966797 12 7 134
10.914008140563965 5.535487651824951 8.047699928283691 12 7 134
10.884775161743164 5.55264949798584 8.027059555053711 12 7 134
10.909758567810059 5.554675579071045 8.030815124511719 12 7 134
10.895647048950195 5.569648265838623 7.980393409729004 12 7 134
10.978422164916992 5.648005962371826 8.042484283447266 12 7 134
10.964736938476562 5.618856906890869 8.043038368225098 12 7 134
10.98133659362793 5.628340244293213 8.04631519317627 12 7 134
11.004125595092773 5.66654109954834 8.054532051086426 12 7 134
10.99758529663086 5.663607120513916 8.069747924804688 12 7 134
11.039267539978027 5.69585657119751 8.082110404968262 12 7 134
11.012287139892578 5.673722267150879 8.091621398925781 12 7 134
11.034652709960938 5.6929450035095215 8.10372543334961 12 7 134
11.02871322631836 5.664017200469971 8.13398551940918 12 7 134
11.015978813171387 5.65523624420166 8.14418888092041 12 7 134
11.043652534484863 5.7206878662109375 8.134322166442871 12 7 134
11.021981239318848 5.705089092254639 8.14478874206543 12 7 134
11.045151710510254 5.7328386306762695 8.13185977935791 12 7 134
11.019316673278809 5.63481330871582 8.170782089233398 12 7 134
10.995678901672363 5.545541763305664 8.196009635925293 12 7 134
10.988027572631836 5.4930267333984375 8.195101737976074 12 7 134
10.985457420349121 5.47661828994751 8.21150016784668 12 7 134
10.948915481567383 5.381664752960205 8.234424591064453 12 7 134
10.837113380432129 5.164576530456543 8.310345649719238 12 7 134
10.938722610473633 5.263005256652832 8.268527030944824 12 7 134
10.889814376831055 5.200067043304443 8.281895637512207 12 7 134
10.881442070007324 5.135096073150635 8.291097640991211 12 7 134
10.845608711242676 5.0240936279296875 8.33055305480957 12 7 134
10.903977394104004 5.081225395202637 8.270658493041992 12 7 134
10.785916328430176 4.954578876495361 8.360868453979492 12 7 134
10.88250732421875 5.073183536529541 8.26425838470459 12 7 134
10.943745613098145 5.0815229415893555 8.273181915283203 12 7 134
10.766545295715332 4.888833999633789 8.34899616241455 12 7 134
10.810712814331055 4.918769836425781 8.32054328918457 12 7 134
10.803550720214844 4.944965839385986 8.34680461883545 12 7 134
10.736749649047852 4.828437328338623 8.359842300415039 12 7 134
10.759323120117188 4.856266975402832 8.345853805541992 12 7 134
10.637638092041016 4.6815009117126465 8.399612426757812 12 7 134
10.70959758758545 4.75762939453125 8.373163223266602 12 7 134
10.634183883666992 4.5746307373046875 8.382686614990234 12 7 134
10.487811088562012 4.484144687652588 8.428744316101074 12 7 134
10.434929847717285 4.458225250244141 8.45167350769043 12 7 134
10.430384635925293 4.465472221374512 8.453994750976562 12 7 134
10.44306755065918 4.415964126586914 8.447790145874023 12 7 134
10.348217964172363 4.3492608070373535 8.474331855773926 12 7 134
10.392523765563965 4.419217109680176 8.46147632598877 12 7 134
10.33479118347168 4.343325138092041 8.483216285705566 12 7 134
10.31512451171875 4.350787162780762 8.493975639343262 12 7 134
10.397065162658691 4.202259540557861 8.409611701965332 12 7 134
10.244982719421387 4.35955286026001 8.51489543914795 12 7 134
10.153943061828613 4.329270362854004 8.546025276184082 12 7 134
10.118668556213379 4.3647356033325195 8.567239761352539 12 7 134
10.033738136291504 4.28792142868042 8.597902297973633 12 7 134
9.932703018188477 4.344388961791992 8.647326469421387 12 7 134
10.00597095489502 4.316778659820557 8.600337028503418 12 7 134
9.795328140258789 4.412411212921143 8.710243225097656 12 7 134
9.825286865234375 4.31237268447876 8.669134140014648 12 7 134
9.784342765808105 4.412374019622803 8.715487480163574 12 7 134
9.64713191986084 4.455942153930664 8.83798885345459 12 7 134
9.726269721984863 4.393220901489258 8.727651596069336 12 7 134
9.608734130859375 4.475545883178711 8.783064842224121 12 7 134
9.628357887268066 4.5677032470703125 8.8201265335083 12 7 134
9.534945487976074 4.816551685333252 8.940713882446289 12 7 134
9.49893569946289 4.889795780181885 8.97396183013916 12 7 134
9.476176261901855 5.000504970550537 9.01655387878418 12 7 134
9.453720092773438 5.037867069244385 9.04158878326416 12 7 134
9.423332214355469 5.153977870941162 9.118874549865723 12 7 134
9.524162292480469 5.072211265563965 9.00205135345459 12 7 134
9.433364868164062 5.079639911651611 9.022541046142578 12 7 134
9.284799575805664 5.321852207183838 9.250770568847656 12 7 134
9.364300727844238 5.3095221519470215 9.202919960021973 12 7 134
9.339195251464844 5.45846700668335 9.299294471740723 12 7 134
9.301180839538574 5.517229080200195 9.306031227111816 12 7 134
9.283197402954102 5.731441974639893 9.474483489990234 12 7 134
9.279319763183594 5.838240623474121 9.537140846252441 12 7 134
9.259673118591309 5.9875030517578125 9.600247383117676 12 7 134
9.26899528503418 6.09856653213501 9.705324172973633 12 7 134
9.266533851623535 6.326075077056885 9.850589752197266 12 7 134
9.267953872680664 6.2961812019348145 9.833490371704102 12 7 134
9.323871612548828 6.525307655334473 10.007643699645996 12 7 134
9.319379806518555 6.657097816467285 10.076505661010742 12 7 134
9.401911735534668 6.869318962097168 10.27647590637207 12 7 134
9.38512897491455 6.847607135772705 10.246134757995605 12 7 134
9.402714729309082 6.872347831726074 10.270774841308594 12 7 134
9.343993186950684 6.9164042472839355 10.274996757507324 12 7 134
9.46031379699707 7.059109687805176 10.405338287353516 12 7 134
9.482426643371582 7.083751678466797 10.429892539978027 12 7 134
9.507878303527832 7.126363277435303 10.473335266113281 12 7 134
9.538572311401367 7.228607654571533 10.55499267578125 12 7 134
9.556151390075684 7.241394519805908 10.554067611694336 12 7 134
9.585126876831055 7.31427526473999 10.616765975952148 12 7 134
9.640175819396973 7.430500507354736 10.70398998260498 12 7 134
9.679166793823242 7.505924224853516 10.762006759643555 12 7 134
9.725786209106445 7.602610111236572 10.834793090820312 12 7 134
9.765250205993652 7.698138236999512 10.894619941711426 12 7 134
9.902142524719238 7.867710590362549 11.048828125 12 7 134
9.877220153808594 7.950305938720703 11.066025733947754 12 7 134
9.917109489440918 8.03602409362793 11.123001098632812 12 7 134
9.898009300231934 8.002421379089355 11.098331451416016 12 7 134
9.964985847473145 8.125003814697266 11.19153881072998 12 7 134
10.043551445007324 8.23951244354248 11.292043685913086 12 7 134
10.032807350158691 8.2406005859375 11.281542778015137 12 7 134
10.06806468963623 8.316520690917969 11.344523429870605 12 7 134
10.132802963256836 8.428275108337402 11.434198379516602 12 7 134
10.157344818115234 8.468371391296387 11.474396705627441 12 7 134
10.127506256103516 8.41865062713623 11.439436912536621 12 7 134
10.198210716247559 8.555537223815918 11.547788619995117 12 7 134
10.136043548583984 8.437450408935547 11.461431503295898 12 7 134
10.140616416931152 8.443650245666504 11.46036434173584 12 7 134
10.139200210571289 8.441539764404297 11.472607612609863 12 7 134
10.135390281677246 8.433632850646973 11.47031307220459 12 7 134
10.21212100982666 8.566699028015137 11.538459777832031 12 7 134
10.13357925415039 8.429695129394531 11.477602005004883 12 7 134
10.105307579040527 8.381036758422852 11.434319496154785 12 7 134
10.097956657409668 8.361390113830566 11.435897827148438 12 7 134
10.04369068145752 8.270349502563477 11.372126579284668 12 7 134
10.015790939331055 8.224043846130371 11.376996040344238 12 7 134
9.945956230163574 8.160371780395508 11.363391876220703 12 7 134
9.895957946777344 8.057021141052246 11.308852195739746 12 7 134
9.850722312927246 8.007938385009766 11.294872283935547 12 7 134
9.915332794189453 8.016861915588379 11.147821426391602 12 7 134
9.690889358520508 7.993194103240967 11.370742797851562 12 7 134
9.702391624450684 7.9405999183654785 11.257645606994629 12 7 134
9.723758697509766 7.9092793464660645 11.204998970031738 12 7 134
9.630887031555176 7.852591514587402 11.177940368652344 12 7 134
9.687017440795898 7.92332124710083 11.297895431518555 12 7 134
9.765962600708008 7.87645959854126 11.14648723602295 12 7 134
9.808412551879883 7.853854656219482 11.101405143737793 12 7 134
9.817859649658203 7.833000659942627 11.025138854980469 12 7 134
9.685376167297363 7.821310997009277 11.097359657287598 12 7 134
9.838801383972168 7.792263031005859 10.892669677734375 12 7 134
9.853559494018555 7.743997097015381 10.774084091186523 12 7 134
9.890523910522461 7.717329025268555 10.647429466247559 12 7 134
9.904094696044922 7.680047035217285 10.55008602142334 12 7 134
9.902544975280762 7.662597179412842 10.5408296585083 12 7 134
10.009757041931152 7.544623374938965 10.316206932067871 12 7 134
9.933037757873535 7.653374195098877 10.41777515411377 12 7 134
9.939446449279785 7.667540073394775 10.353715896606445 12 7 134
9.903072357177734 7.61066198348999 10.405338287353516 12 7 134
9.94740104675293 7.740546226501465 10.341154098510742 12 7 134
9.934959411621094 7.673452377319336 10.336202621459961 12 7 134
9.95878791809082 7.703886032104492 10.197294235229492 12 7 134
9.972599029541016 7.726813793182373 10.05358600616455 12 7 134
10.000136375427246 7.760188102722168 9.890998840332031 12 7 134
10.025280952453613 7.804408550262451 9.702281951904297 12 7 134
10.031839370727539 7.839335918426514 9.629034042358398 12 7 134
10.044964790344238 7.864973068237305 9.527737617492676 12 7 134
10.067924499511719 7.919851779937744 9.362533569335938 12 7 134
10.077923774719238 7.946063995361328 9.237850189208984 12 7 134
10.08527660369873 7.9690375328063965 9.239686012268066 12 7 134
10.09316349029541 8.01200008392334 9.014012336730957 12 7 134
10.094969749450684 8.012787818908691 8.97064208984375 12 7 134
10.091389656066895 8.023493766784668 8.943507194519043 12 7 134
10.0834321975708 8.031558990478516 8.88382339477539 12 7 134
10.094450950622559 8.054534912109375 8.763933181762695 12 7 134
10.049015998840332 7.993892192840576 8.689857482910156 12 7 134
10.103933334350586 8.079253196716309 8.635272026062012 12 7 134
10.10245418548584 8.088556289672852 8.484527587890625 12 7 134
10.10704231262207 8.108705520629883 8.41797161102295 12 7 134
10.117731094360352 8.142200469970703 8.255875587463379 12 7 134
10.12165641784668 8.171150207519531 8.061713218688965 12 7 134
10.13382625579834 8.214972496032715 7.854140281677246 12 7 134
10.130824089050293 8.238061904907227 7.666532039642334 12 7 134
10.129436492919922 8.276568412780762 7.467345714569092 12 7 134
10.136085510253906 8.295187950134277 7.446739196777344 12 7 134
10.115715980529785 8.283469200134277 7.343691349029541 12 7 134
10.119623184204102 8.290959358215332 7.329311370849609 12 7 134
10.109038352966309 8.2969970703125 7.211323261260986 12 7 134
10.087189674377441 8.306205749511719 7.21368408203125 12 7 134
10.068474769592285 8.336502075195312 7.017815589904785 12 7 134
10.044299125671387 8.311443328857422 7.063689708709717 12 7 134
10.024517059326172 8.288955688476562 7.0067033767700195 12 7 134
9.97708511352539 8.355605125427246 6.923532485961914 12 7 134
9.985737800598145 8.250650405883789 6.840731620788574 12 7 134
9.990144729614258 8.208529472351074 6.826362133026123 12 7 134
9.949234962463379 8.131438255310059 6.6497392654418945 12 7 134
9.98595142364502 8.063261985778809 6.711357116699219 12 7 134
9.993560791015625 8.106429100036621 6.759191513061523 12 7 134
9.984488487243652 7.971619129180908 6.6510844230651855 12 7 134
9.97750186920166 7.881831169128418 6.534967422485352 12 7 134
9.987704277038574 7.910118103027344 6.607386589050293 12 7 134
9.984640121459961 7.875515937805176 6.6269941329956055 12 7 134
9.97812271118164 7.8561320304870605 6.586341857910156 12 7 134
9.97623062133789 7.896409034729004 6.587609767913818 12 7 134
9.972941398620605 7.808349132537842 6.577423572540283 12 7 134
9.977289199829102 7.674801349639893 6.7136454582214355 12 7 134
9.974507331848145 7.543179035186768 6.784493923187256 12 7 134
9.976388931274414 7.4697651863098145 6.856334209442139 12 7 134
9.971790313720703 7.4771270751953125 6.835438251495361 12 7 134
9.967249870300293 7.3431854248046875 6.940161228179932 12 7 134
10.014338493347168 7.283236026763916 6.992140769958496 12 7 134
9.9686918258667 7.263031959533691 7.017745494842529 12 7 134
9.960055351257324 7.21720552444458 7.079605579376221 12 7 134
9.954916954040527 7.2423906326293945 7.0218305587768555 12 7 134
9.955918312072754 7.184942245483398 7.113875389099121 12 7 134
9.946138381958008 7.2548699378967285 7.059584617614746 12 7 134
9.910860061645508 7.078885555267334 7.151860237121582 12 7 134
9.972543716430664 7.121069431304932 7.254350662231445 12 7 134
9.971640586853027 7.079734802246094 7.315217018127441 12 7 134
9.980486869812012 7.069565773010254 7.367624759674072 12 7 134
9.980241775512695 7.017842769622803 7.493169784545898 12 7 134
9.996341705322266 6.991525173187256 7.529076099395752 12 7 134
9.992011070251465 6.956490993499756 7.617556095123291 12 7 134
10.00856876373291 6.853484630584717 7.83413028717041 12 7 134
10.01352596282959 6.792071342468262 7.949800968170166 12 7 134
10.012701034545898 6.748605728149414 8.049661636352539 12 7 134
10.01388168334961 6.708134651184082 8.129761695861816 12 7 134
10.020809173583984 6.6411213874816895 8.270301818847656 12 7 134
9.95948314666748 6.487919330596924 8.41236400604248 12 7 134
10.020291328430176 6.6064910888671875 8.418911933898926 12 7 134
10.03990650177002 6.614644527435303 8.404731750488281 12 7 134
10.017542839050293 6.5453782081604 8.5974760055542 12 7 134
9.99935245513916 6.518698215484619 8.764761924743652 12 7 134
9.99972152709961 6.5099287033081055 8.784039497375488 12 7 134
9.972990036010742 6.442812442779541 8.922088623046875 12 7 134
9.965435028076172 6.443532466888428 9.155875205993652 12 7 134
9.954529762268066 6.425726413726807 9.266584396362305 12 7 134
9.943497657775879 6.424091339111328 9.365532875061035 12 7 134
9.913507461547852 6.438014507293701 9.52161693572998 12 7 134
9.92774486541748 6.429683685302734 9.53034782409668 12 7 134
9.873088836669922 6.420199871063232 9.675322532653809 12 7 134
9.912514686584473 6.399484634399414 9.682428359985352 12 7 134
9.780695915222168 6.262265682220459 9.875728607177734 12 7 134
9.892541885375977 6.389455795288086 9.785898208618164 12 7 134
9.884001731872559 6.310286521911621 10.039602279663086 12 7 134
9.879639625549316 6.32720947265625 9.951367378234863 12 7 134
9.84024429321289 6.297403335571289 10.087129592895508 12 7 134
9.834282875061035 6.27081823348999 10.177690505981445 12 7 134
9.793283462524414 6.262103080749512 10.287010192871094 12 7 134
9.905691146850586 6.271051406860352 10.240961074829102 12 7 134
9.809416770935059 6.158058166503906 10.425078392028809 12 7 134
9.75784969329834 6.225330829620361 10.469176292419434 12 7 134
9.752965927124023 6.2047038078308105 10.494403839111328 12 7 134
9.702962875366211 6.215027809143066 10.553357124328613 12 7 134
9.609368324279785 6.201788902282715 10.74117660522461 12 7 134
9.56995677947998 6.320582866668701 10.688600540161133 12 7 134
9.592222213745117 6.211672306060791 10.68338394165039 12 7 134
9.564013481140137 6.18515682220459 10.687494277954102 12 7 134
9.505481719970703 6.172066688537598 10.742207527160645 12 7 134
9.447972297668457 6.183801651000977 10.822171211242676 12 7 134
9.426281929016113 6.1665167808532715 10.780999183654785 12 7 134
9.367188453674316 6.149433612823486 10.835744857788086 12 7 134
9.361440658569336 6.161069393157959 10.797293663024902 12 7 134
9.319741249084473 6.071637153625488 10.759902954101562 12 7 134
9.22102165222168 6.009110927581787 10.756891250610352 12 7 134
9.24681282043457 6.019273281097412 10.761124610900879 12 7 134
9.113344192504883 5.888423919677734 10.688672065734863 12 7 134
9.081952095031738 5.866023063659668 10.683282852172852 12 7 134
9.227065086364746 6.0178093910217285 10.727205276489258 12 7 134
9.111611366271973 5.897252082824707 10.532062530517578 12 7 134
8.926974296569824 5.715555667877197 10.577056884765625 12 7 134
9.026320457458496 5.82635498046875 10.663705825805664 12 7 134
8.98241138458252 5.778363227844238 10.64262866973877 12 7 134
8.916633605957031 5.707839488983154 10.576522827148438 12 7 134
8.923662185668945 5.7067670822143555 10.617315292358398 12 7 134
8.982633590698242 5.74589729309082 10.698068618774414 12 7 134
8.814638137817383 5.569093227386475 10.552713394165039 12 7 134
8.677382469177246 5.425468444824219 10.609177589416504 12 7 134
8.751795768737793 5.4906907081604 10.502132415771484 12 7 134
8.846370697021484 5.574831485748291 10.594254493713379 12 7 134
8.73793888092041 5.4564971923828125 10.469087600708008 12 7 134
8.648223876953125 5.3647050857543945 10.414698600769043 12 7 134
8.664196014404297 5.395439624786377 10.41557502746582 12 7 134
8.65600872039795 5.372500419616699 10.412693977355957 12 7 134
8.629121780395508 5.329957962036133 10.352941513061523 12 7 134
8.573932647705078 5.274362564086914 10.306733131408691 12 7 134
8.529678344726562 5.214265823364258 10.24763011932373 12 7 134
8.408122062683105 5.08366584777832 10.13337516784668 12 7 134
8.472135543823242 5.164690971374512 10.196484565734863 12 7 134
8.38236141204834 5.061450958251953 10.091480255126953 12 7 134
8.33548355102539 5.027246475219727 10.056065559387207 12 7 134
8.286952018737793 4.960056781768799 9.999155044555664 12 7 134
8.13659381866455 4.88892126083374 9.910248756408691 12 7 134
8.208147048950195 4.891918182373047 9.923284530639648 12 7 134
8.21755313873291 4.907060146331787 9.936766624450684 12 7 134
8.256245613098145 4.864460468292236 9.912341117858887 12 7 134
8.172708511352539 4.859542369842529 9.89999008178711 12 7 134
8.135958671569824 4.841015815734863 9.873787879943848 12 7 134
8.190129280090332 4.863528728485107 9.904122352600098 12 7 134
8.115015983581543 4.851198196411133 9.881149291992188 12 7 134
8.038378715515137 4.821073055267334 9.829154014587402 12 7 134
7.998267650604248 4.8056640625 9.811386108398438 12 7 134
7.937108039855957 4.784451961517334 9.779327392578125 12 7 134
7.872614860534668 4.781982898712158 9.754827499389648 12 7 134
7.820072650909424 4.792708873748779 9.772652626037598 12 7 134
7.803086280822754 4.775855541229248 9.733418464660645 12 7 134
7.720200538635254 4.7459282875061035 9.686098098754883 12 7 134
7.730648994445801 4.765411376953125 9.697599411010742 12 7 134
7.724775314331055 4.749425888061523 9.673602104187012 12 7 134
7.66713285446167 4.752246856689453 9.634509086608887 12 7 134
7.648327827453613 4.73925256729126 9.62313175201416 12 7 134
7.873889446258545 4.836237907409668 9.643218994140625 12 7 134
7.589031219482422 4.734346389770508 9.580948829650879 12 7 134
7.554812431335449 4.736429691314697 9.576227188110352 12 7 134
7.525264263153076 4.748714923858643 9.579585075378418 12 7 134
7.501520156860352 4.750271320343018 9.56029224395752 12 7 134
7.44586706161499 4.759434223175049 9.560577392578125 12 7 134
7.398514270782471 4.780833721160889 9.550344467163086 12 7 134
7.24993371963501 4.844271659851074 9.571853637695312 12 7 134
7.369572162628174 4.822708606719971 9.59742546081543 12 7 134
7.27255916595459 4.845209121704102 9.555520057678223 12 7 134
7.325826168060303 4.859846115112305 9.668173789978027 12 7 134
7.298450469970703 4.935534954071045 9.721556663513184 12 7 134
7.291651248931885 4.942475318908691 9.746153831481934 12 7 134
7.33403205871582 5.0368146896362305 9.8253755569458 12 7 134
7.311966419219971 5.0224409103393555 9.83731746673584 12 7 134
7.3183794021606445 5.003559589385986 9.86009407043457 12 7 134
7.311619758605957 5.050085544586182 9.890643119812012 12 7 134
7.304657459259033 5.048440933227539 9.931957244873047 12 7 134
7.3607025146484375 5.136887550354004 10.01680850982666 12 7 134
7.2976250648498535 5.099307060241699 9.983762741088867 12 7 134
7.329501152038574 5.206661701202393 9.97993278503418 12 7 134
7.362221717834473 5.382439136505127 10.079586029052734 12 7 134
7.343721389770508 5.3599748611450195 10.034172058105469 12 7 134
7.3426513671875 5.46820592880249 10.106758117675781 12 7 134
7.3827128410339355 5.567389965057373 10.07741928100586 12 7 134
7.398650169372559 5.68402624130249 10.116708755493164 12 7 134
7.382915019989014 5.7240118980407715 10.176985740661621 12 7 134
7.383240222930908 5.76884651184082 10.211712837219238 12 7 134
7.400174140930176 5.843797206878662 10.221294403076172 12 7 134
7.427515506744385 5.873648643493652 10.168681144714355 12 7 134
7.449606895446777 5.896343231201172 10.119416236877441 12 7 134
7.439254283905029 5.912493705749512 10.156476974487305 12 7 134
7.424718856811523 5.960138320922852 10.182697296142578 12 7 134
7.477965354919434 5.975326061248779 10.133387565612793 12 7 134
7.622676372528076 6.153191566467285 9.967310905456543 12 7 134
7.513155937194824 6.006351470947266 10.096628189086914 12 7 134
7.629890441894531 6.18452787399292 9.912113189697266 12 7 134
7.6506733894348145 6.171748638153076 9.886712074279785 12 7 134
7.698489665985107 6.261840343475342 9.806772232055664 12 7 134
7.763181686401367 6.309547424316406 9.722126007080078 12 7 134
7.804114818572998 6.401815414428711 9.621159553527832 12 7 134
7.81545352935791 6.403200149536133 9.57756233215332 12 7 134
7.8560471534729 6.427041053771973 9.562576293945312 12 7 134
7.921509742736816 6.553476333618164 9.355740547180176 12 7 134
7.955564022064209 6.605352878570557 9.306985855102539 12 7 134
7.994126319885254 6.68150520324707 9.182190895080566 12 7 134
8.02225399017334 6.751800060272217 9.031676292419434 12 7 134
8.038625717163086 6.792328834533691 8.959179878234863 12 7 134
8.058465957641602 6.8422160148620605 8.871214866638184 12 7 134
8.063346862792969 6.904368877410889 8.743782997131348 12 7 134
8.06116771697998 6.926281452178955 8.656420707702637 12 7 134
8.055412292480469 6.9527788162231445 8.580355644226074 12 7 134
8.168771743774414 6.970180034637451 8.611042976379395 12 7 134
8.06606674194336 6.9854841232299805 8.48555850982666 12 7 134
8.063100814819336 7.029498100280762 8.410709381103516 12 7 134
8.07237434387207 7.007390975952148 8.414849281311035 12 7 134
8.019824981689453 7.022279262542725 8.341609001159668 12 7 134
7.991676330566406 7.019140243530273 8.31059455871582 12 7 134
7.914365768432617 6.951512336730957 8.229954719543457 12 7 134
7.964071273803711 7.032638072967529 8.159507751464844 12 7 134
7.858318328857422 7.056144714355469 8.040901184082031 12 7 134
7.858053684234619 7.068103313446045 8.082036972045898 12 7 134
7.761638641357422 7.043970108032227 8.071227073669434 12 7 134
7.716009140014648 7.041898727416992 8.007813453674316 12 7 134
7.641499042510986 7.0336151123046875 7.996840476989746 12 7 134
7.585119247436523 7.032068729400635 7.971359729766846 12 7 134
7.540494441986084 7.011092662811279 8.010465621948242 12 7 134
7.446549415588379 6.941011905670166 7.97762393951416 12 7 134
7.314993858337402 6.920907497406006 7.914342403411865 12 7 134
7.220623016357422 6.846557140350342 7.9159088134765625 12 7 134
7.283997535705566 6.847885608673096 7.948216915130615 12 7 134
7.234769821166992 6.810214996337891 7.941619873046875 12 7 134
7.160619258880615 6.771804332733154 7.91158390045166 12 7 134
7.110774517059326 6.717088222503662 7.928390979766846 12 7 134
7.007608413696289 6.63228178024292 7.940619468688965 12 7 134
6.934199810028076 6.575136184692383 7.938486099243164 12 7 134
6.872349262237549 6.516978740692139 7.922836780548096 12 7 134
6.911536693572998 6.565910339355469 7.797431468963623 12 7 134
6.804710865020752 6.466442108154297 7.887327671051025 12 7 134
6.741877555847168 6.420111179351807 7.901530742645264 12 7 134
6.915691375732422 6.581010818481445 7.779967308044434 12 7 134
6.748854160308838 6.423092842102051 7.960256099700928 12 7 134
6.733798980712891 6.401844024658203 7.971067905426025 12 7 134
6.735937595367432 6.386882305145264 8.027840614318848 12 7 134
6.577422618865967 6.25667667388916 8.148093223571777 12 7 134
6.600287437438965 6.274875164031982 8.093938827514648 12 7 134
6.611969470977783 6.280740261077881 8.093923568725586 12 7 134
6.623660564422607 6.279144287109375 8.082361221313477 12 7 134
6.562981605529785 6.252712726593018 8.109358787536621 12 7 134
6.50765323638916 6.197624206542969 8.16419792175293 12 7 134
6.539227485656738 6.251420974731445 8.132088661193848 12 7 134
6.616193771362305 6.28936767578125 8.117534637451172 12 7 134
6.355340957641602 6.093908309936523 8.290087699890137 12 7 134
6.309372425079346 6.037712097167969 8.306516647338867 12 7 134
6.081146240234375 5.936380386352539 8.351385116577148 12 7 134
6.219998836517334 5.988121032714844 8.32455062866211 12 7 134
6.185511589050293 5.984837532043457 8.317912101745605 12 7 134
6.170482158660889 5.93190336227417 8.382189750671387 12 7 134
6.105646133422852 5.879678726196289 8.420767784118652 12 7 134
6.189988136291504 5.920753479003906 8.400324821472168 12 7 134
6.099843502044678 5.8872456550598145 8.407211303710938 12 7 134
6.162630558013916 5.878093242645264 8.44958782196045 12 7 134
6.244900226593018 5.736513614654541 8.597756385803223 12 7 134
6.3303914070129395 5.8174638748168945 8.62138557434082 12 7 134
6.257600784301758 5.853332042694092 8.536311149597168 12 7 134
6.243650436401367 5.8035359382629395 8.593750953674316 12 7 134
6.282486915588379 5.79025411605835 8.634119033813477 12 7 134
6.327591896057129 5.790826797485352 8.653791427612305 12 7 134
6.343432903289795 5.796603679656982 8.664315223693848 12 7 134
6.475147724151611 5.7718119621276855 8.748673439025879 12 7 134
6.378032684326172 5.780989170074463 8.701492309570312 12 7 134
6.4889235496521 5.773348331451416 8.755992889404297 12 7 134
6.450216293334961 5.829792022705078 8.665812492370605 12 7 134
6.563256740570068 5.797034740447998 8.738691329956055 12 7 134
6.645162582397461 5.812325954437256 8.73762321472168 12 7 134
6.629829406738281 5.824605464935303 8.72128677368164 12 7 134
6.766905307769775 5.813497543334961 8.75041389465332 12 7 134
6.871335029602051 5.84213399887085 8.702147483825684 12 7 134
6.9198808670043945 5.8503336906433105 8.757680892944336 12 7 134
6.955923557281494 5.837294578552246 8.770159721374512 12 7 134
7.013146877288818 5.828690052032471 8.764568328857422 12 7 134
7.0504608154296875 5.801870822906494 8.785051345825195 12 7 134
7.114133834838867 5.757218837738037 8.815842628479004 12 7 134
7.115828990936279 5.756415843963623 8.809333801269531 12 7 134
7.190919399261475 5.706884860992432 8.816601753234863 12 7 134
7.233914852142334 5.687421798706055 8.819093704223633 12 7 134
7.373415946960449 5.583340167999268 8.8529052734375 12 7 134
7.424422740936279 5.559200763702393 8.851640701293945 12 7 134
7.381722927093506 5.584211349487305 8.845541000366211 12 7 134
7.401921272277832 5.572871685028076 8.839069366455078 12 7 134
7.460793495178223 5.502524375915527 8.852510452270508 12 7 134
7.535854339599609 5.438859462738037 8.857041358947754 12 7 134
7.534341812133789 5.44647216796875 8.826963424682617 12 7 134
7.70389461517334 5.290681838989258 8.872382164001465 12 7 134
7.793024063110352 5.203404903411865 8.89291763305664 12 7 134
7.836789131164551 5.160950660705566 8.904109954833984 12 7 134
7.872334957122803 5.126218795776367 8.909107208251953 12 7 134
7.950539588928223 5.071725368499756 8.932511329650879 12 7 134
8.04112434387207 4.971218109130859 8.94553279876709 12 7 134
8.217008590698242 4.837379455566406 8.9381742477417 12 7 134
8.295313835144043 4.774832725524902 8.94391918182373 12 7 134
8.366951942443848 4.731609344482422 8.917387008666992 12 7 134
8.411152839660645 4.686952590942383 8.918231010437012 12 7 134
8.549065589904785 4.613617897033691 8.887323379516602 12 7 134
8.643462181091309 4.582630157470703 8.935800552368164 12 7 134
8.678974151611328 4.531377792358398 8.872303009033203 12 7 134
8.768860816955566 4.4245195388793945 8.855709075927734 12 7 134
8.625761032104492 4.518688678741455 8.92495059967041 12 7 134
8.716790199279785 4.488199234008789 8.872258186340332 12 7 134
8.869318962097168 4.427196502685547 8.827796936035156 12 7 134
8.862215995788574 4.293508052825928 8.744255065917969 12 7 134
9.059101104736328 4.381348609924316 8.777061462402344 12 7 134
9.073328971862793 4.518250465393066 8.885873794555664 12 7 134
9.25634479522705 4.362909317016602 8.72596263885498 12 7 134
9.35495662689209 4.2980499267578125 8.720958709716797 12 7 134
9.472721099853516 4.361639976501465 8.669625282287598 12 7 134
9.537091255187988 4.294764995574951 8.657341003417969 12 7 134
9.631253242492676 4.362990856170654 8.582249641418457 12 7 134
9.721392631530762 4.356082439422607 8.55545425415039 12 7 134
9.829336166381836 4.381777763366699 8.492185592651367 12 7 134
9.841906547546387 4.5299530029296875 8.480147361755371 12 7 134
10.1336030960083 4.374701023101807 8.264630317687988 12 7 134
10.157269477844238 4.375887870788574 8.387567520141602 12 7 134
10.127910614013672 4.464540958404541 8.354001998901367 12 7 134
10.170656204223633 4.4868998527526855 8.330228805541992 12 7 134
10.239517211914062 4.558779239654541 8.273091316223145 12 7 134
10.395166397094727 4.678409099578857 8.155123710632324 12 7 134
10.437158584594727 4.654727935791016 8.173349380493164 12 7 134
10.521350860595703 4.695980548858643 8.128076553344727 12 7 134
10.540376663208008 4.725297927856445 8.112394332885742 12 7 134
10.661916732788086 4.8511481285095215 7.985639572143555 12 7 134
10.627707481384277 4.798474311828613 8.045580863952637 12 7 134
10.718371391296387 4.850458145141602 8.029437065124512 12 7 134
10.70133113861084 4.795400619506836 8.072626113891602 12 7 134
10.746201515197754 4.837764263153076 8.07925796508789 12 7 134
10.773895263671875 4.84981107711792 8.100581169128418 12 7 134
10.88171100616455 4.9178147315979 8.081620216369629 12 7 134
10.87183666229248 4.855943202972412 7.995318412780762 12 7 134
11.110701560974121 5.0913920402526855 8.080279350280762 12 7 134
11.181982040405273 5.159808158874512 8.087154388427734 12 7 134
11.25102424621582 5.218763828277588 8.088417053222656 12 7 134
